# .PCD v0.7 - Point Cloud Data file format
VERSION 0.7
FIELDS x y z
SIZE 4 4 4
TYPE F F F
COUNT 1 1 1
WIDTH 1589
HEIGHT 1
VIEWPOINT 0 0 0 1 0 0 0
POINTS 1589
DATA ascii
-3.2213333 7.758667 -1.6543335
-3.1889999 7.757 -1.652
-2.668 17.896 -1.669
-2.6230001 17.918499 -1.6705
-2.575 17.92 -1.67
-2.7255001 17.961 -1.676
-4.3734999 -11.978001 -1.625
-4.3400002 -11.985 -1.624
-4.3010001 -11.941 -1.617
-4.276 -11.939 -1.6160001
-3.9240003 -4.0682001 -1.6084
-3.860667 -4.0706668 -1.609
-3.8083334 -4.0626669 -1.604
-3.7855 -4.0690002 -1.6045001
-3.9372501 -4.0299997 -1.60525
-3.8706665 -4.0380001 -1.6043333
-3.806 -4.0409999 -1.602
-3.8929999 -3.95 -1.601
-3.9224 -3.8726003 -1.6015999
-3.8717499 -3.8700001 -1.6035
-3.9286001 -3.8275998 -1.6021999
-3.898 -3.8050001 -1.603
-3.8340001 -3.809 -1.601
-3.79 -3.8039999 -1.601
-3.9250002 -3.7808573 -1.6040002
-3.8785 -3.78 -1.60425
-3.8238571 -3.7725716 -1.6028572
-3.7835002 -3.76825 -1.602
-3.9227779 -3.724 -1.6055557
-3.8724446 -3.7237778 -1.6050001
-3.827625 -3.7241249 -1.605875
-3.7789998 -3.73125 -1.60325
-3.7267501 -3.7214999 -1.6035
-3.8773332 -3.6788335 -1.6068333
-3.8262858 -3.6799998 -1.6069999
-3.7741251 -3.6812503 -1.6051251
-3.7300003 -3.6741433 -1.6045715
-3.8722 -3.6261003 -1.6056
-3.822 -3.6233747 -1.604875
-3.7754288 -3.6252861 -1.6042858
-3.7275002 -3.6214998 -1.6020001
-3.8829999 -3.5776997 -1.61
-3.8299997 -3.5774999 -1.6090001
-3.779778 -3.5737779 -1.6063333
-3.7273998 -3.5716004 -1.6053002
-3.8671665 -3.5258336 -1.6096667
-3.8204999 -3.5197501 -1.6075001
-3.7747502 -3.5235 -1.605125
-3.7208576 -3.5247142 -1.6055714
-3.8785005 -3.4724 -1.6079
-3.8263333 -3.4782219 -1.6065556
-3.7755556 -3.4707775 -1.6055554
-3.7289002 -3.4774997 -1.6059
-3.8720002 -3.4228001 -1.6098
-3.8236666 -3.426111 -1.6093335
-3.7777004 -3.4295998 -1.6097001
-3.724333 -3.4274442 -1.608889
-3.8805554 -3.377111 -1.6135556
-3.8237 -3.3764 -1.6113001
-3.7735717 -3.3777146 -1.6098572
-3.7296665 -3.3795552 -1.6094444
-3.8699999 -3.3243752 -1.612375
-3.8255997 -3.3289001 -1.6126
-3.7748749 -3.3256247 -1.6092499
-3.7306252 -3.3241251 -1.6081249
-3.8816664 -3.2763333 -1.618
-3.8280001 -3.2776155 -1.6155382
-3.7715452 -3.2744548 -1.613
-3.7239094 -3.2759089 -1.6113638
-3.8824544 -3.2299092 -1.6197275
-3.8265998 -3.2223001 -1.6186001
-3.773 -3.227 -1.6167001
-3.7247274 -3.2282727 -1.6158183
-3.8719096 -3.1861815 -1.6264548
-3.8247859 -3.1782141 -1.6262145
-3.7676365 -3.1807272 -1.6197273
-3.7207 -3.1762998 -1.6203002
-3.869364 -3.1267273 -1.6290001
-3.8243749 -3.1243749 -1.6283751
-3.7775836 -3.1310003 -1.6266668
-3.7233999 -3.1261997 -1.624
-3.8783002 -3.0746 -1.6316
-3.8227777 -3.0724447 -1.6268889
-3.7717998 -3.073 -1.6254002
-3.7213001 -3.0751002 -1.623
-3.8660002 -3.0132859 -1.629143
-3.8249998 -3.0293751 -1.6274999
-3.7798748 -3.02425 -1.6262499
-3.7305388 -3.0227695 -1.6240771
-3.8741112 -2.974889 -1.6328889
-3.8238182 -2.9740002 -1.6285454
-3.7804999 -2.9820831 -1.6296668
-3.7240002 -2.9729092 -1.6279999
-3.8728893 -2.9241111 -1.6346666
-3.8230915 -2.9278183 -1.6324546
-3.7737691 -2.9263847 -1.6309229
-3.7214618 -2.9267693 -1.6306156
-3.8774285 -2.8801429 -1.6330001
-3.8219998 -2.8811002 -1.6321
-3.7695999 -2.8838 -1.6326001
-3.7224286 -2.877286 -1.6285714
-3.8743334 -2.8173332 -1.6136668
-3.8283336 -2.8246667 -1.6176667
-3.7787147 -2.8257143 -1.6175715
-3.7268002 -2.8162 -1.6122
-3.677 -2.8150001 -1.61025
-3.8245001 -2.7732856 -1.6083572
-3.7764287 -2.7775717 -1.6095716
-3.7304447 -2.776778 -1.6073333
-3.6746924 -2.7744617 -1.6061538
-3.8290007 -2.7218232 -1.6150589
-3.7790914 -2.7214093 -1.6138637
-3.7245998 -2.7191002 -1.6157497
-3.6739566 -2.7216523 -1.6144785
-3.8246925 -2.6793077 -1.6297693
-3.7696667 -2.6781669 -1.6283334
-3.7271667 -2.6748331 -1.6290001
-3.6789286 -2.6752145 -1.6282144
-3.829 -2.6235263 -1.6352632
-3.7748942 -2.6248949 -1.6332631
-3.7298462 -2.6272311 -1.6353077
-3.676625 -2.6250622 -1.6328126
-3.8238335 -2.5697503 -1.6429166
-3.7733638 -2.5746365 -1.6405455
-3.7259233 -2.5774617 -1.6395383
-3.6803846 -2.5790002 -1.6393847
-3.8253334 -2.5211668 -1.6431668
-3.776077 -2.5246155 -1.6425385
-3.724154 -2.527231 -1.6410773
-3.6732001 -2.5289335 -1.6399332
-3.826 -2.4748464 -1.6431538
-3.7737 -2.471 -1.6418999
-3.7234547 -2.4787273 -1.639091
-3.6807504 -2.4716668 -1.6388334
-3.8245003 -2.4245 -1.6418999
-3.7775338 -2.4244668 -1.6418
-3.7259169 -2.4320002 -1.6410835
-3.6732502 -2.4282498 -1.6390002
-3.8245838 -2.3730834 -1.6445835
-3.777 -2.3780773 -1.6423845
-3.7239411 -2.3794706 -1.6432942
-3.6751769 -2.3782942 -1.6413529
-3.8338332 -2.3133333 -1.6465
-3.7795453 -2.3144548 -1.6449091
-3.7242732 -2.3219998 -1.6434546
-3.6761537 -2.3205385 -1.6424615
-3.8270907 -2.2823639 -1.648091
-3.7735004 -2.2767501 -1.6470001
-3.7297335 -2.2767999 -1.6470001
-3.6752002 -2.2758667 -1.6452001
-3.8294997 -2.2284999 -1.64925
-3.7736669 -2.2363334 -1.6486667
-3.7127998 -2.2324002 -1.6459999
-3.6736 -2.223 -1.6484002
-3.845 -2.177 -1.649
-3.7090001 -2.177 -1.648
-3.6843333 -2.1913333 -1.6480001
-3.7266669 -2.1273334 -1.6496667
-3.6670001 -2.128 -1.65
-3.763 -2.096 -1.65
-3.7479999 -2.079 -1.65
-3.6669998 -2.0706668 -1.6470001
-3.7779999 -2.0404999 -1.6495
-3.701 -2.02 -1.649
-3.694 -2.033 -1.649
-3.6470001 -2.0309999 -1.649
-3.608 1.649 -1.647
-3.5714998 1.6423334 -1.6451668
-3.5209999 1.6411667 -1.6455001
-3.4775 1.6421669 -1.6436666
-3.6155 1.6726 -1.624
-3.578577 1.6676155 -1.6227307
-3.5250938 1.6642812 -1.6230625
-3.4691739 1.6710218 -1.6247828
-3.4427648 1.6795881 -1.6260002
-3.4550002 1.7257059 -1.6272939
-3.4451663 1.7238334 -1.6257915
-3.4564285 1.770762 -1.6227618
-3.4436293 1.7767408 -1.6303332
-3.4551818 1.8226364 -1.6277274
-3.4421997 1.8253335 -1.6232666
-3.4531109 1.8733335 -1.6308888
-3.4421718 1.872 -1.6258967
-3.467875 1.931125 -1.6227499
-3.4482501 1.9070001 -1.614
-3.51 1.9680001 -1.638
-3.48875 1.96975 -1.61075
-3.5220001 2.007 -1.618
-3.4626665 3.0448887 -1.6275555
-3.4238 3.0431504 -1.6256001
-3.3768573 3.0402381 -1.6254287
-3.5293336 3.0880001 -1.6400001
-3.4596667 3.051667 -1.6129999
-3.427 3.0510001 -1.6315
-3.3540001 4.5279999 -1.6059999
-3.3204443 4.5331111 -1.6247778
-3.3239999 4.552 -1.649
-3.2728002 7.7732005 -1.6398
-3.2248571 7.778429 -1.6345717
-3.1672862 7.7709999 -1.6395714
-3.1257501 7.7765007 -1.6372498
-3.2735002 7.8260002 -1.6171668
-3.2265 7.8293333 -1.6141666
-3.1784999 7.8193755 -1.6145
-3.1273334 7.820333 -1.6126666
-3.276 7.8899999 -1.605
-3.289 7.961 -1.603
-2.723 17.84 -1.602
-2.6605 17.845001 -1.617
-2.5639999 17.841999 -1.631
-2.7260001 17.858999 -1.635
-2.694 17.857 -1.6339999
-2.631 17.863001 -1.6339999
-2.5969999 17.851 -1.633
-4.335 -11.969 -1.6
-4.3319998 -11.9285 -1.572
-4.2834997 -11.9265 -1.5925
-4.2709999 -11.892 -1.5650001
-3.7939999 -4.8080001 -1.552
-3.9200001 -4.71 -1.552
-3.8206668 -4.7276669 -1.551
-3.888 -4.6719999 -1.551
-3.9193749 -4.6202497 -1.56025
-3.873625 -4.6316247 -1.5590001
-3.8273749 -4.6271253 -1.5613751
-3.7706251 -4.6271248 -1.560375
-3.9684999 -4.5778332 -1.5683334
-3.9244001 -4.5766001 -1.5674
-3.8759999 -4.5833335 -1.5650001
-3.8201671 -4.5735002 -1.5666666
-3.7740002 -4.5778575 -1.564
-3.9394999 -4.5445004 -1.5685
-3.8640001 -4.5446663 -1.5666666
-3.8249998 -4.5465002 -1.5655
-3.7850001 -4.5469999 -1.564
-3.9235387 -4.056231 -1.5737691
-3.8720715 -4.0578575 -1.5748572
-3.8270001 -4.0597334 -1.5772002
-3.7768235 -4.0625887 -1.575
-3.9332001 -4.0468001 -1.5680002
-3.8795002 -4.04 -1.5766667
-3.8169999 -4.0384998 -1.589
-3.7785001 -4.0254998 -1.5785
-3.9218335 -3.9719999 -1.5975001
-3.8740001 -3.9785001 -1.5927501
-3.8305712 -3.9821429 -1.5949999
-3.7741427 -3.9731431 -1.5937144
-3.9233749 -3.9251251 -1.5982502
-3.8657501 -3.9267502 -1.595875
-3.8206251 -3.9250002 -1.5953749
-3.7738888 -3.9263337 -1.5936667
-3.8832002 -3.8742001 -1.5978001
-3.8260002 -3.8775716 -1.5974287
-3.7754445 -3.8732224 -1.5976666
-3.927 -3.8069999 -1.599
-3.8726249 -3.8241248 -1.5991249
-3.8181667 -3.8283334 -1.5981668
-3.7694287 -3.8217144 -1.597
-3.8753333 -3.7706668 -1.598
-3.835 -3.783 -1.599
-3.7723336 -3.7823334 -1.599
-3.7290001 -3.7779999 -1.5971668
-3.8599999 -3.7290001 -1.6
-3.7424998 -3.7305 -1.6
-3.809 -3.6289999 -1.598
-3.747 -3.47 -1.6
-3.711 -2.7179999 -1.6
-3.6094999 1.691 -1.5945001
-3.5748181 1.6921817 -1.5888182
-3.5226667 1.6891906 -1.5895237
-3.4705005 1.6926668 -1.5910833
-3.4389999 1.697 -1.6
-3.619 1.7163078 -1.574923
-3.5762 1.7159998 -1.5638666
-3.5236251 1.7129167 -1.5632918
-3.4697559 1.7194391 -1.572073
-3.4414549 1.7275455 -1.5746818
-3.4561818 1.7745454 -1.5804546
-3.4453702 1.7768518 -1.5730737
-3.4532142 1.8188574 -1.5704286
-3.4430969 1.8266451 -1.5768713
-3.4553752 1.8833749 -1.569
-3.4431942 1.8724166 -1.5773889
-3.4561667 1.9221668 -1.5755835
-3.4422083 1.9193333 -1.5719169
-3.4734445 1.9762222 -1.5755557
-3.4420002 1.9556665 -1.558
-3.5045998 2.0276 -1.575
-3.4823337 2.0108335 -1.5613332
-3.53 2.076 -1.552
-3.4602859 3.0425715 -1.5765716
-3.4262502 3.0456002 -1.57555
-3.3752999 3.0424504 -1.5762501
-3.5265002 3.0852499 -1.57075
-3.4658751 3.0548751 -1.571875
-3.4105 3.052 -1.5599999
-3.36675 3.0532498 -1.57375
-3.3510001 4.474 -1.551
-3.3195555 4.4831114 -1.5661112
-3.372 4.5275002 -1.5929999
-3.3197498 4.5054998 -1.592
-3.1179998 7.8365002 -1.59275
-3.2509999 7.869 -1.6
-3.2172501 7.8747501 -1.5947499
-3.1739998 7.8760004 -1.5876667
-3.11725 7.8642502 -1.5785
-3.257 7.9219999 -1.594
-3.22 7.9315 -1.5855
-3.1735001 7.9344997 -1.575
-3.1285 7.902 -1.5664999
-3.0895 7.9239998 -1.5525
-3.2179999 7.9855003 -1.579
-3.1694999 7.9639997 -1.5645001
-3.1395001 7.9700003 -1.5634999
-3.2690001 8.0310001 -1.598
-3.24 8.0380001 -1.582
-3.171 8.0299997 -1.5599999
-3.1285002 8.0237503 -1.5565
-3.279 8.0970001 -1.594
-3.2279999 8.092 -1.574
-3.1989999 8.0600004 -1.567
-3.108 8.0740004 -1.564
-3.2740002 8.1645002 -1.582
-3.2379999 8.1969995 -1.561
-3.2730002 8.2241669 -1.5653334
-3.2225716 8.2200003 -1.5685714
-3.17575 8.2297497 -1.5785
-3.1324999 8.2224998 -1.5862499
-3.2179999 8.2539997 -1.5534999
-3.1800005 8.2734289 -1.5634285
-3.1220002 8.2712002 -1.5754
-3.0755 8.2770004 -1.572
-3.1609998 8.3185005 -1.5605
-3.1210001 8.3199997 -1.56225
-3.0762501 8.323 -1.5595
-2.753 17.83 -1.569
-2.691 17.8395 -1.585
-2.6255 17.828499 -1.5835
-2.5770001 17.8195 -1.582
-2.7279999 17.871 -1.573
-2.664 17.867001 -1.571
-4.3530002 -11.954 -1.531
-4.3435001 -11.929 -1.5275
-4.2524996 -11.939 -1.5145
-4.3070002 -11.892 -1.544
-4.276 -11.871 -1.541
-4.2474999 -11.860001 -1.5275
-4.2790003 -11.8475 -1.516
-3.8664999 -6.3325 -1.501
-3.9794998 -5.4230003 -1.5255001
-3.9842501 -5.3805003 -1.52425
-3.9641998 -5.3238006 -1.5233999
-3.9330001 -5.3400002 -1.522
-3.9881999 -5.2714005 -1.5216
-3.9263999 -5.2728 -1.5206
-3.9814 -5.2200003 -1.5258
-3.9308572 -5.2244287 -1.5242858
-3.89025 -5.2245002 -1.5244999
-3.9807501 -5.1737504 -1.5307499
-3.9268336 -5.1820002 -1.5296667
-3.875 -5.1663332 -1.5293334
-3.9725001 -5.1257501 -1.53225
-3.9207144 -5.1302862 -1.5321429
-3.8682001 -5.1200004 -1.5314001
-3.9744 -5.0694003 -1.5349998
-3.9256668 -5.074667 -1.5348333
-3.8736668 -5.0711665 -1.5365
-3.837667 -5.0793333 -1.5346668
-3.9672859 -5.0202856 -1.5402858
-3.9217999 -5.0167999 -1.538
-3.8753335 -5.021667 -1.539
-3.8248336 -5.0253334 -1.5378335
-3.793 -5.02 -1.536
-3.9731669 -4.9728332 -1.5420001
-3.9085002 -4.9615002 -1.5420001
-3.8757999 -4.9828005 -1.5412
-3.8096666 -4.9690003 -1.54
-3.7934999 -4.9924998 -1.5420001
-3.9716668 -4.9093332 -1.5416667
-3.9301667 -4.9275002 -1.5406668
-3.8738334 -4.9180002 -1.54
-3.8276668 -4.9266667 -1.5403335
-3.9686 -4.8778 -1.5442002
-3.9204004 -4.8768001 -1.5436
-3.8762002 -4.8768001 -1.5436
-3.828167 -4.8685007 -1.5423335
-3.9694002 -4.8204002 -1.5474
-3.9252 -4.8274002 -1.5464
-3.8724999 -4.8291669 -1.5455
-3.8181999 -4.8178 -1.5462
-3.9759998 -4.7732501 -1.54775
-3.9251432 -4.7741427 -1.5477145
-3.8715 -4.7766666 -1.5463333
-3.8188 -4.7666001 -1.5448002
-3.7774999 -4.77775 -1.5455
-3.9602499 -4.7165003 -1.5487502
-3.938 -4.7405 -1.5495
-3.8688333 -4.7229996 -1.5466669
-3.8239999 -4.7259998 -1.5455
-3.92975 -4.6802502 -1.54825
-3.8804998 -4.6738338 -1.5484999
-3.8248572 -4.6772861 -1.5481429
-3.7804999 -4.67625 -1.5455
-3.9266667 -4.6293335 -1.5493333
-3.8794999 -4.6365004 -1.548
-3.8385 -4.6374998 -1.5475
-3.7727499 -4.6374998 -1.5475
-3.947 -4.3264999 -1.505
-3.9228184 -4.0594544 -1.5152727
-3.8740001 -4.0576367 -1.5192728
-3.8280771 -4.0580769 -1.5243847
-3.7740591 -4.061059 -1.522706
-3.9256001 -4.0444999 -1.53
-3.8710005 -4.0467143 -1.534143
-3.8203335 -4.0473337 -1.5370001
-3.7857997 -4.0482001 -1.5272
-3.612875 1.742125 -1.5378751
-3.5713129 1.7358749 -1.5357502
-3.5221372 1.7363638 -1.5331818
-3.47825 1.7405624 -1.53925
-3.4380002 1.7379999 -1.5445
-3.6167147 1.764143 -1.5157143
-3.5766249 1.7615626 -1.5123125
-3.5198753 1.7580626 -1.5123751
-3.4674249 1.7685498 -1.5196251
-3.4435833 1.7752085 -1.5288749
-3.4532857 1.820143 -1.5348572
-3.4438181 1.8254546 -1.5243939
-3.4545 1.8847499 -1.532375
-3.4407308 1.8710771 -1.5200768
-3.4539995 1.9269999 -1.5238125
-3.4437728 1.9250003 -1.5278639
-3.4559999 1.9713076 -1.5264615
-3.4418097 1.9709522 -1.5220953
-3.4760003 2.0256248 -1.5304999
-3.4420002 2.0033336 -1.5040001
-3.51 2.0676668 -1.533
-3.4945002 2.0700002 -1.51125
-3.4682498 3.0447497 -1.5267501
-3.4250004 3.0458825 -1.5264707
-3.374095 3.0419528 -1.5272382
-3.4660001 3.0537143 -1.5234286
-3.425 3.0512002 -1.5152
-3.3716667 3.0546665 -1.5233333
-3.3261666 4.4326668 -1.5096667
-3.2734001 4.4363003 -1.5167999
-3.3686666 4.4646664 -1.531
-3.325 4.4627142 -1.5364287
-3.2579999 8.2480001 -1.539
-3.2262001 8.2779999 -1.5388001
-3.1919999 8.2919998 -1.5420001
-3.2254002 8.3188009 -1.526
-3.1754003 8.3254004 -1.54
-3.1429999 8.3360004 -1.546
-3.26 8.3605003 -1.5095
-3.2174001 8.3668003 -1.5139999
-3.1743333 8.3745003 -1.525
-3.1226668 8.3686676 -1.5425
-3.079 8.3774004 -1.5427999
-3.211 8.427 -1.501
-3.1680002 8.4267139 -1.5094286
-3.1261668 8.4235001 -1.5191667
-3.076 8.4241438 -1.5197145
-2.724 17.843 -1.538
-2.6724999 17.818001 -1.5355
-2.6259999 17.827999 -1.536
-2.576 17.812 -1.5339999
-4.329 -11.8565 -1.4744999
-4.2280002 -11.871 -1.472
-4.2643332 -11.818335 -1.4823334
-4.2385001 -11.834 -1.4790001
-4.2690001 -11.786 -1.464
-4.1129999 -8.1280003 -1.451
-4.0560002 -8.0509996 -1.452
-4.1259999 -8.0150003 -1.452
-4.027667 -7.96 -1.4523333
-3.9790001 -7.9780002 -1.4516667
-4.1263332 -7.9143333 -1.4530001
-4.0786667 -7.9230003 -1.451
-4.0799999 -7.8590002 -1.457
-4.0180001 -7.8555002 -1.4525
-3.9775002 -7.8777499 -1.4525
-3.941 -7.8909998 -1.452
-4.119 -7.8330002 -1.457
-4.0796666 -7.835 -1.454
-4.039 -7.8460002 -1.4529999
-3.9519999 -7.8109999 -1.456
-4.0695 -7.7565002 -1.4575
-4.0267496 -7.7725 -1.4565001
-3.9806666 -7.7993331 -1.457
-3.9560001 -7.717 -1.4579999
-4.0149999 -7.684 -1.4575
-3.9776666 -7.6933336 -1.4563334
-3.9635 -7.6184998 -1.4595
-3.9239998 -7.6387501 -1.4595001
-3.9200001 -7.566 -1.4635
-4.0830002 -6.8610001 -1.485
-4.0679998 -6.756 -1.4809999
-4.0174999 -6.7649999 -1.4779999
-4.0384998 -6.7465 -1.477
-3.973 -6.7034998 -1.4779999
-4.0193329 -6.6750002 -1.4776666
-3.9819999 -6.6914997 -1.4765
-3.928 -6.6539998 -1.479
-4.0009999 -6.618 -1.4809999
-3.9725001 -6.6364999 -1.48075
-3.9419999 -6.6500001 -1.48
-3.9288003 -6.5764003 -1.4804
-3.8740001 -6.5793333 -1.48
-3.9720001 -6.5434999 -1.479
-3.9213333 -6.5113335 -1.4823334
-3.8755 -6.5255003 -1.48025
-3.9645 -6.493 -1.4835
-3.9419999 -6.467 -1.4910001
-3.87325 -6.4697499 -1.4844999
-3.9565001 -6.428 -1.4925001
-3.9261997 -6.4270005 -1.4906
-3.8793333 -6.4373336 -1.4905
-3.9123333 -6.3693333 -1.4983333
-3.8726668 -6.3796668 -1.4956667
-3.8840001 -6.3105001 -1.4990001
-3.8779998 -6.2749996 -1.4985
-3.8664999 -6.2319999 -1.4965
-3.855 -6.178 -1.499
-3.9219999 -4.283 -1.4925001
-3.8759999 -4.2779999 -1.483
-3.8142002 -4.2666001 -1.4706
-3.7933331 -4.2663336 -1.467
-3.9216669 -4.2383337 -1.4840001
-3.8610001 -4.217 -1.48
-3.8185997 -4.2143998 -1.4715999
-3.7796667 -4.2259998 -1.4710001
-3.9260001 -4.1775713 -1.4747144
-3.8730001 -4.1710005 -1.4745001
-3.8300002 -4.174572 -1.475143
-3.7793334 -4.1811109 -1.4748889
-3.9256363 -4.1250005 -1.4803637
-3.8754287 -4.1318569 -1.4797143
-3.8218751 -4.1244998 -1.479875
-3.7779999 -4.1233001 -1.4815
-3.9206007 -4.0737996 -1.4906
-3.8708186 -4.0816364 -1.4870001
-3.8266926 -4.073462 -1.4918461
-3.7801003 -4.0762 -1.4913
-3.5765004 1.7841822 -1.4825001
-3.527 1.7848215 -1.4810357
-3.4757779 1.7856663 -1.4820004
-3.4458332 1.7896669 -1.4901667
-3.5757143 1.8090715 -1.4591429
-3.5250001 1.8083749 -1.4572501
-3.4646666 1.814381 -1.4700477
-3.4422576 1.8229356 -1.4762903
-3.4546001 1.8696002 -1.4822
-3.4422052 1.8715643 -1.4748205
-3.4531431 1.9262859 -1.4804288
-3.4442189 1.9227496 -1.4755
-3.4548573 1.9770002 -1.4767144
-3.4402125 1.9720608 -1.4758484
-3.4614999 2.0379999 -1.49225
-3.4435198 2.0188799 -1.4692799
-3.4698749 2.071625 -1.4754999
-3.447 2.052 -1.457
-3.4882503 2.1075001 -1.4642501
-3.4650004 3.0448573 -1.4765716
-3.4255388 3.0450768 -1.4751538
-3.3784738 3.0430002 -1.476421
-3.463125 3.0534999 -1.472875
-3.424 3.0516665 -1.4746666
-3.3734999 3.0504999 -1.4714999
-3.3559999 4.3979998 -1.462
-3.3163998 4.3917999 -1.4586
-3.2722001 4.3942003 -1.4643999
-3.3810003 4.4310002 -1.4836668
-3.3297002 4.4141002 -1.4841999
-3.2748749 4.4142499 -1.4860001
-3.2385001 8.3900003 -1.4965
-3.228143 8.4281425 -1.4740001
-3.1964998 8.4335003 -1.493
-3.135 8.4449997 -1.499
-3.21825 8.4570007 -1.469
-3.1760001 8.4662218 -1.4721112
-3.1256368 8.4756365 -1.478
-3.0778337 8.4671669 -1.4856668
-3.1185 8.5160007 -1.4605
-3.0752001 8.5240011 -1.4658
-3.0604999 8.5680008 -1.457
-2.7176666 17.736334 -1.4766667
-2.6760001 17.7355 -1.4815
-2.6269999 17.7265 -1.4802499
-2.5805001 17.731499 -1.4795001
-2.7409999 17.754999 -1.5
-4.342 -11.861 -1.4195
-4.2509999 -11.871 -1.406
-4.2270002 -11.868334 -1.4120001
-4.3293333 -11.825666 -1.4486666
-4.225667 -11.842334 -1.439
-4.2746668 -11.782333 -1.427
-4.2419996 -11.7785 -1.429
-4.2165003 -9.618 -1.4115
-4.1673336 -9.6183338 -1.4093335
-4.1219997 -9.6285 -1.408
-4.0720005 -9.6296673 -1.4053333
-4.0248337 -9.6203337 -1.4233334
-4.1750002 -9.5675001 -1.4215
-4.1240001 -9.5740004 -1.427
-4.0753336 -9.5893335 -1.4283333
-4.0349998 -9.5880003 -1.4349999
-4.2095003 -9.5124998 -1.4354999
-4.171 -9.5360012 -1.4363334
-4.1360002 -9.5459995 -1.4349999
-4.0594997 -9.2589998 -1.4124999
-4.0220003 -9.2605 -1.411
-4.168334 -9.2220001 -1.4143333
-4.1153336 -9.2336674 -1.4123333
-4.0770001 -9.2329998 -1.41
-4.0246668 -9.1573334 -1.4153333
-4.1529999 -9.1020002 -1.416
-4.1200004 -9.114666 -1.4156666
-4.072 -9.1359997 -1.415
-4.1826668 -9.0840006 -1.4153333
-4.0139999 -9.0690002 -1.421
-4.1289997 -9.0079994 -1.4193333
-4.0813341 -9.0290012 -1.4193333
-4.0395002 -9.0410004 -1.4184999
-4.1789999 -8.9923344 -1.4206667
-4.0166674 -8.927 -1.4200001
-4.1183333 -8.8619995 -1.4173334
-4.072 -8.8830013 -1.4173334
-4.0380001 -8.8909998 -1.416
-4.1756668 -8.8220005 -1.4156668
-4.145 -8.8389997 -1.416
-4.1140003 -8.7515001 -1.4195
-4.0699997 -8.7779999 -1.4205
-4.027667 -8.7873335 -1.419
-4.1752496 -8.7220001 -1.4195001
-4.1370001 -8.7399998 -1.42
-4.085 -8.75 -1.418
-4.0079999 -8.7040005 -1.424
-3.9763334 -8.7146673 -1.4233334
-4.1110001 -8.6654997 -1.425
-4.0703335 -8.6780005 -1.4243333
-4.026 -8.6825008 -1.4220001
-4.1333332 -8.6273336 -1.4266667
-4.0690002 -8.6154995 -1.4325
-4.0193329 -8.6090002 -1.4286666
-3.9716668 -8.6243343 -1.4276667
-4.1199999 -8.5865002 -1.4319999
-4.086 -8.592 -1.431
-4.0205002 -8.5524998 -1.4375
-3.9763334 -8.5553341 -1.4349999
-4.1020002 -8.5109997 -1.437
-4.0726671 -8.5256672 -1.4376668
-4.0409999 -8.5380001 -1.437
-4.1293335 -8.4916668 -1.4366667
-4.0270004 -8.4110003 -1.4352499
-3.9746666 -8.435667 -1.4353333
-4.1230001 -8.3660002 -1.4353333
-4.0783339 -8.3863335 -1.4353333
-4.0580001 -8.3070002 -1.439
-4.0240002 -8.3115005 -1.4375
-3.9813335 -8.3346672 -1.4380001
-4.1303339 -8.2700005 -1.439
-4.0830002 -8.284667 -1.4380001
-4.0180001 -8.3000002 -1.436
-4.0306668 -8.2150002 -1.441
-3.9765 -8.2307501 -1.4395
-4.1290002 -8.1603336 -1.4403334
-4.0792503 -8.18575 -1.44025
-4.0190001 -8.1545 -1.448
-3.97 -8.1630001 -1.4456667
-4.125 -8.1169996 -1.45
-4.0727501 -8.1362495 -1.4487499
-4.0149999 -8.1459999 -1.446
-4.1329999 -8.099 -1.448
-4.0155001 -8.0580006 -1.45
-3.9712498 -8.0747499 -1.449
-4.1069999 -8.0129995 -1.45
-4.0770006 -8.0233335 -1.4490001
-4.033 -8.04 -1.448
-3.9660001 -7.9770002 -1.45
-4.0440001 -7.9229999 -1.448
-3.5781381 1.8330344 -1.4305514
-3.5256801 1.83076 -1.42928
-3.4739187 1.8296486 -1.4286758
-3.4435294 1.8360589 -1.4331177
-3.5757501 1.8557501 -1.4065
-3.5232501 1.852 -1.40625
-3.4675457 1.866091 -1.4106365
-3.4423714 1.874 -1.4254857
-3.4534001 1.9132 -1.424
-3.4401314 1.9254209 -1.4270263
-3.4535 1.9654999 -1.4215
-3.439105 1.9771321 -1.4250263
-3.4523335 2.0170002 -1.4283333
-3.4401352 2.0258381 -1.4236219
-3.4557998 2.0866001 -1.4358
-3.4391425 2.0661907 -1.4194763
-3.4710999 2.1242998 -1.423
-3.4449999 2.108 -1.403
-3.4890001 2.152 -1.424
-3.4607999 3.0466001 -1.4276001
-3.4290001 3.0470002 -1.4272001
-3.3752 3.0457001 -1.4272001
-3.4704444 3.0547781 -1.4217778
-3.4218824 3.0534117 -1.4273529
-3.3773639 3.0527272 -1.4186364
-3.3175001 4.3404999 -1.4035
-3.2693336 4.3429999 -1.4066668
-3.405 4.3990002 -1.429
-3.3630002 4.3702002 -1.427
-3.3268335 4.3685832 -1.4311666
-3.2804 4.3695998 -1.4310999
-3.3940001 4.401 -1.438
-3.2247779 8.434 -1.4234445
-3.2045 8.4535007 -1.4235001
-3.1759999 8.4752998 -1.4265999
-3.148 8.4820004 -1.425
-3.1556668 8.5326672 -1.4219999
-3.1317501 8.5290003 -1.4430001
-3.1585 8.5785007 -1.4070001
-3.1251428 8.5717144 -1.4274286
-3.0903335 8.5720005 -1.4456667
-3.1196668 8.6210003 -1.4166667
-3.0772223 8.6195564 -1.4266669
-3.0673332 8.6820011 -1.4088334
-3.029 8.7180004 -1.404
-3.0280001 8.7659998 -1.411
-2.5739999 17.684999 -1.429
-2.675 17.733 -1.434
-2.6265001 17.723 -1.4325
-2.7255001 17.75 -1.436
-4.3344998 -11.808001 -1.3805001
-4.2215004 -11.8205 -1.3775001
-4.1929998 -11.839 -1.378
-4.302 -11.751 -1.351
-4.2249999 -11.764999 -1.372
-4.2666674 -11.739001 -1.3853334
-4.237 -11.731 -1.3685
-4.0640001 -9.658 -1.353
-4.0419998 -9.6529999 -1.351
-4.2175007 -9.6130009 -1.3770001
-4.1744289 -9.6225719 -1.3701431
-4.1253753 -9.6193743 -1.372
-4.0788336 -9.6295004 -1.375
-4.0318003 -9.6378002 -1.3746001
-3.4349999 1.846 -1.4
-3.5745163 1.8769997 -1.3755484
-3.5241992 1.8745668 -1.3750334
-3.4764209 1.8746316 -1.3760265
-3.442591 1.8842727 -1.378409
-3.4602499 1.921 -1.3655
-3.4402685 1.9220974 -1.375195
-3.4519999 1.982 -1.368
-3.4387183 1.9731025 -1.3762565
-3.4397106 2.0256317 -1.3745
-3.4530001 2.0969999 -1.396
-3.4367433 2.0745897 -1.3736155
-3.4590001 2.1405001 -1.3881667
-3.437222 2.1151111 -1.3674445
-3.4693637 2.1695454 -1.3736365
-3.5050001 2.204 -1.383
-3.4565001 3.0450001 -1.3764999
-3.4322219 3.0482225 -1.3710001
-3.3794 3.043 -1.3733
-3.4754546 3.0564549 -1.3768183
-3.4303076 3.0534616 -1.3764615
-3.3768892 3.055167 -1.3747222
-3.3668573 4.3299999 -1.3742858
-3.3242857 4.3215714 -1.3753573
-3.2768123 4.3226876 -1.3778125
-3.392 4.3509998 -1.387
-3.1989999 8.4390001 -1.3890001
-3.229125 8.4737492 -1.3793751
-3.197 8.4770002 -1.3940001
-3.2216668 8.5198345 -1.3613334
-3.1784 8.5086002 -1.3914
-3.217 8.5740004 -1.36
-3.1836667 8.5773335 -1.3863335
-3.2103336 8.632 -1.3629999
-3.1708751 8.6237497 -1.3772498
-3.1364999 8.6367493 -1.39375
-3.201 8.6709995 -1.357
-3.1676669 8.6739998 -1.3610001
-3.1196001 8.6756001 -1.386
-3.0914998 8.6789999 -1.3935001
-3.1600001 8.6999998 -1.359
-3.1300001 8.7136669 -1.3699999
-3.0710001 8.7159996 -1.3895
-3.0345001 8.7094994 -1.3865
-2.724 17.639 -1.365
-2.677 17.639 -1.364
-2.6305001 17.642 -1.3794999
-2.5815001 17.632999 -1.3625
-2.7260001 17.655001 -1.397
-2.6795001 17.653 -1.3965
-2.6010001 17.658001 -1.396
-2.5699999 17.657 -1.395
-4.2179999 -11.756 -1.312
-4.1856666 -11.773334 -1.335
-4.32725 -11.72425 -1.3165001
-4.2950001 -11.732 -1.327
-4.2259998 -11.735 -1.3355
-4.1683331 -11.746333 -1.3163333
-4.2639999 -11.690666 -1.3216667
-4.2344999 -11.6915 -1.3315001
-4.2049999 -9.6610003 -1.342
-4.1706672 -9.6729994 -1.3416667
-4.132 -9.677 -1.34
-4.073 -9.6330004 -1.35
-3.58025 1.89575 -1.349
-3.5333333 1.8963335 -1.3466667
-3.4796667 1.8936666 -1.3456668
-3.4460001 1.899 -1.344
-3.5734999 1.9203845 -1.3228846
-3.5244668 1.9180665 -1.3229001
-3.4743819 1.9182647 -1.3235883
-3.4393122 1.929875 -1.3265936
-3.4519999 1.9579999 -1.34
-3.4371631 1.9752089 -1.3260697
-3.451 2.013 -1.303
-3.4348803 2.0254524 -1.324119
-3.451 2.095 -1.301
-3.4342632 2.0754478 -1.3232369
-3.4530001 2.1300001 -1.308
-3.4343235 2.123765 -1.3257648
-3.4577501 2.1825001 -1.3377501
-3.4320002 2.1612146 -1.3162857
-3.4711111 2.2167778 -1.3274446
-3.45 2.2030001 -1.312
-3.483 2.25 -1.313
-3.4590001 3.0465002 -1.329
-3.420125 3.0469999 -1.323125
-3.3700001 3.0450768 -1.3274616
-3.3288825 3.0444121 -1.3242941
-3.4711874 3.05725 -1.3256251
-3.423563 3.0546873 -1.323125
-3.3778999 3.0539999 -1.3201001
-3.408 4.2919998 -1.307
-3.3654292 4.2792864 -1.3164287
-3.3223639 4.2770004 -1.3210911
-3.2781432 4.2822146 -1.3267143
-3.3823335 4.3073339 -1.3426666
-3.3299999 4.3023334 -1.3473333
-3.2235 8.6149998 -1.35
-3.2119999 8.6999998 -1.345
-3.1894999 8.7095003 -1.345
-2.723 17.632 -1.3329999
-2.678 17.643501 -1.3329999
-2.6300001 17.636 -1.332
-2.5805001 17.624001 -1.3305
-4.1669998 -11.766 -1.2819999
-4.309 -11.707 -1.281
-4.2135 -11.7335 -1.28
-4.1799998 -11.737 -1.279
-4.2940001 -11.665 -1.255
-4.2259998 -11.670333 -1.2820001
-4.1745 -11.6895 -1.253
-4.1420002 -11.694 -1.252
-4.2620001 -11.641 -1.273
-4.2249999 -11.634 -1.2709999
-3.5689998 1.943889 -1.2916666
-3.5253999 1.9425999 -1.2935001
-3.4783001 1.9408001 -1.2906998
-3.441 1.94175 -1.29225
-3.5782001 1.96745 -1.2674998
-3.5284166 1.9655836 -1.2673334
-3.4717946 1.9647647 -1.2684119
-3.4348001 1.9761716 -1.278
-3.4342105 2.0250263 -1.2737367
-3.4319 2.0727503 -1.2719749
-3.4322221 2.1241114 -1.2763056
-3.4315853 2.1727314 -1.2759267
-3.461 2.2402501 -1.2895
-3.4320836 2.2157502 -1.2694166
-3.4632499 2.2672501 -1.2635
-3.4594998 3.0469999 -1.273
-3.4163337 3.0480001 -1.2700001
-3.373909 3.0470912 -1.2744546
-3.3276873 3.0456247 -1.2794375
-3.5056667 3.0766666 -1.2836666
-3.4691541 3.0579231 -1.2742308
-3.4290669 3.0553334 -1.2783333
-3.3775456 3.0541821 -1.2686363
-3.3718572 4.2348576 -1.2648572
-3.3266153 4.2363081 -1.2703078
-3.2767859 4.2357144 -1.2709287
-3.3716667 4.2626667 -1.2923334
-3.3210001 4.2519999 -1.296
-3.2722499 4.2582502 -1.295
-2.6789999 17.545 -1.2640001
-2.645 17.527 -1.262
-2.5675001 17.533001 -1.2615
-2.72875 17.5725 -1.2815
-2.6680002 17.5765 -1.2970001
-2.6185 17.561501 -1.2795
-2.5910001 17.584 -1.2970001
-2.562 17.601999 -1.2970001
-4.1780005 -11.665834 -1.2178334
-4.1239996 -11.67725 -1.217
-4.2743335 -11.634001 -1.229
-4.2228007 -11.6224 -1.2306
-4.2276669 -11.59 -1.209
-3.571125 1.9901874 -1.2363751
-3.5240002 1.9908751 -1.235875
-3.4728887 1.9877222 -1.2357223
-3.4355004 1.9914001 -1.2394001
-3.5234997 2.0083125 -1.2124999
-3.4712384 2.0113332 -1.2138095
-3.4336665 2.0267944 -1.2253076
-3.4308689 2.0752103 -1.2254477
-3.428405 2.1238108 -1.2269461
-3.4278686 2.1753683 -1.2266581
-3.425 2.2237074 -1.2234634
-3.4627502 2.28825 -1.24125
-3.4308574 2.2658572 -1.2155714
-3.464 2.3081999 -1.2184
-3.4449999 2.302 -1.202
-3.506 2.3610001 -1.202
-3.46 3.0469999 -1.243
-3.4146667 3.0460002 -1.2308333
-3.365875 3.0471249 -1.220875
-3.3173637 3.0418181 -1.2270911
-3.4714117 3.059 -1.223706
-3.4248338 3.0558331 -1.2243334
-3.3789289 3.0533574 -1.229
-3.3245878 3.0540001 -1.2258823
-3.3739998 4.1930003 -1.2078
-3.3325715 4.1938572 -1.2152858
-3.2788572 4.1904287 -1.2154287
-3.4200001 4.2319999 -1.227
-3.3713748 4.2132502 -1.2355
-3.3211253 4.2122498 -1.2392501
-3.2793336 4.2086668 -1.2356666
-2.5680001 17.539 -1.2309999
-2.681 17.559999 -1.233
-2.6290002 17.559668 -1.2226667
-4.2659998 -11.654 -1.165
-4.2210002 -11.656 -1.186
-4.177 -11.662167 -1.1738334
-4.1227498 -11.6735 -1.17325
-4.2825003 -11.634501 -1.175
-4.2270002 -11.641001 -1.1624999
-4.2284999 -11.5815 -1.1795
-3.5220439 2.0335217 -1.1787392
-3.4743338 2.0324004 -1.1806333
-3.4351764 2.037647 -1.1832942
-3.5214291 2.0538573 -1.156
-3.4709997 2.0551252 -1.1563751
-3.426544 2.0711737 -1.1747828
-3.4254885 2.1257677 -1.1757674
-3.4226573 2.1725714 -1.1760858
-3.425 2.2244475 -1.1750526
-3.4238789 2.2711213 -1.1725758
-3.4618335 2.3315001 -1.178
-3.4289999 2.309 -1.153
-3.4705 2.359 -1.1619999
-3.451 3.04 -1.189
-3.4155002 3.0481668 -1.1758335
-3.375 3.0478001 -1.1783999
-3.326 3.0456367 -1.185091
-3.4741879 3.0588126 -1.1749375
-3.4306841 3.0576842 -1.1748421
-3.3759499 3.0547001 -1.1757501
-3.3235002 3.0537858 -1.173
-3.4059999 4.1409998 -1.151
-3.3629999 4.1400003 -1.1545
-3.3232498 4.1455002 -1.15725
-3.2730002 4.1430006 -1.1586666
-3.4175 4.1696668 -1.1750001
-3.3731668 4.1670833 -1.1789167
-3.3235455 4.166182 -1.1824545
-3.2755713 4.1617146 -1.1807144
-2.684 17.4795 -1.166
-2.6195002 17.4625 -1.164
-2.575 17.476999 -1.165
-2.5279999 17.477501 -1.1645
-2.7060001 17.523001 -1.2
-2.677 17.533001 -1.2
-2.645 17.527 -1.2
-2.5680001 17.5385 -1.1995001
-4.178 -11.602 -1.136
-4.2806668 -11.567667 -1.1363333
-4.2214999 -11.5635 -1.1235
-4.178 -11.585 -1.12375
-4.1223998 -11.588 -1.1202
-4.2804999 -11.5345 -1.1115
-4.25 -11.546 -1.112
-3.5246301 2.0776668 -1.1307038
-3.4754336 2.0782335 -1.1247666
-3.4282246 2.0825756 -1.130175
-3.5356669 2.1036668 -1.1056666
-3.4683332 2.1016669 -1.105
-3.4206569 2.1252289 -1.1232857
-3.422317 2.175195 -1.1272193
-3.4220548 2.2233889 -1.1249443
-3.4242048 2.2743073 -1.1237693
-3.4239166 2.3178334 -1.1229583
-3.4601431 2.373143 -1.1305714
-3.4433334 2.3626666 -1.115
-3.4850001 3.0469999 -1.1235
-3.3736665 3.0461664 -1.1341667
-3.3282499 3.0458751 -1.12625
-3.471591 3.059 -1.125591
-3.4276006 3.0574505 -1.12295
-3.3773336 3.0551903 -1.1237142
-3.3225296 3.0531175 -1.124294
-3.382 4.0970001 -1.101
-3.2775002 4.099 -1.107
-3.2455001 4.0959997 -1.102
-3.4045 4.1169996 -1.117
-3.3790002 4.1239996 -1.1287501
-3.3274212 4.1187897 -1.1245263
-3.2781537 4.1230001 -1.1309232
-3.3889999 4.1500001 -1.15
-2.7249999 17.448999 -1.1339999
-2.6010001 17.443001 -1.132
-2.6834998 17.473 -1.1192499
-2.6263332 17.471668 -1.1133335
-2.5739999 17.469 -1.118
-2.5257502 17.462002 -1.117
-4.2832003 -11.5626 -1.0842
-4.2202501 -11.559999 -1.08
-4.1757498 -11.56325 -1.0785
-4.123167 -11.577167 -1.0783334
-4.2459998 -11.537 -1.068
-3.4579999 2.099 -1.09
-3.4319999 2.099 -1.099
-3.5252593 2.1230001 -1.0784814
-3.474649 2.1239729 -1.074108
-3.4269743 2.1296153 -1.0812051
-3.4549999 2.155 -1.052
-3.4219003 2.172925 -1.0725
-3.3989999 2.1619999 -1.0930001
-3.4220273 2.2249463 -1.0765404
-3.4213712 2.274657 -1.0754285
-3.4203498 2.3244753 -1.0755
-3.4190385 2.3711154 -1.069923
-3.4000001 2.395 -1.051
-3.4579999 2.427 -1.0829999
-3.4319999 2.41325 -1.06425
-3.4719999 3.0469999 -1.091
-3.378 3.0480001 -1.058
-3.3258569 3.0467143 -1.0857142
-3.4737918 3.0602083 -1.0749583
-3.4220834 3.0586669 -1.0782083
-3.3762779 3.0584443 -1.0754445
-3.3206398 3.0586002 -1.0758799
-3.405 4.0740004 -1.067
-3.3777857 4.0807147 -1.0747858
-3.329375 4.0775003 -1.0745624
-3.2783337 4.0746002 -1.0714667
-3.4100001 4.1009998 -1.096
-3.3629999 4.1030002 -1.1
-3.3410001 4.105 -1.097
-3.2849998 4.1015 -1.0985
-2.6949999 17.448 -1.071
-2.602 17.445999 -1.0700001
-2.5699999 17.441999 -1.0700001
-2.6659999 17.457001 -1.072
-2.635 17.461 -1.072
-2.54 17.451 -1.0700001
-4.2220001 -11.565001 -1.048
-4.1765003 -11.566 -1.0465
-4.1219997 -11.574333 -1.0456667
-4.2804999 -11.535999 -1.0475
-4.25 -11.547 -1.0470001
-4.1440001 -11.509 -1.02
-4.0875001 -11.51 -1.018
-4.2749996 -11.459 -1.0195
-4.2230005 -11.474667 -1.0193334
-4.1695004 -11.4835 -1.0185001
-4.1129999 -11.485 -1.017
-3.5114999 2.1434999 -1.0474999
-3.4742858 2.1442857 -1.0434288
-3.4300001 2.148 -1.045
-3.5268519 2.1691113 -1.0242963
-3.4756784 2.1683931 -1.0231073
-3.4301951 2.1794131 -1.0271304
-3.451 2.2030001 -1.0190001
-3.4205639 2.2245128 -1.0256923
-3.4187951 2.2735639 -1.0283332
-3.3970001 2.296 -1.013
-3.4191351 2.3259461 -1.0226483
-3.4186492 2.3741622 -1.0267297
-3.4135222 2.4159133 -1.0169566
-3.3913333 2.4126668 -1.0209999
-3.4605 2.4695001 -1.0395
-3.4219999 2.4594998 -1.007
-3.4590001 3.046 -1.038
-3.4130001 3.0469999 -1.027
-3.3625 3.0465 -1.0348334
-3.3269997 3.0440001 -1.0296667
-3.4732606 3.0596089 -1.0227392
-3.4289596 3.0624802 -1.0258001
-3.37375 3.0579498 -1.0217
-3.3225911 3.055728 -1.026
-3.4099998 4.0367498 -1.0190001
-3.3770835 4.0343337 -1.0195
-3.3293574 4.0352144 -1.0180714
-3.2789233 4.0368462 -1.0215385
-3.2403638 4.0422726 -1.0219091
-3.4045 4.052 -1.04
-3.3813999 4.0585999 -1.0454
-3.3211665 4.0568333 -1.044
-3.2690001 4.0510001 -1.0350001
-2.6669998 17.3645 -1.005
-2.6234999 17.382 -1.0209999
-2.5762501 17.37925 -1.02
-2.6735001 17.408001 -1.038
-2.5339999 17.415001 -1.0369999
-4.2237501 -11.4615 -0.97525001
-4.1767144 -11.472286 -0.97485715
-4.1216669 -11.477667 -0.97366667
-4.0802002 -11.4826 -0.97279996
-4.2579999 -11.444 -0.99599999
-4.2355003 -11.4465 -0.9745
-4.1900001 -11.447 -0.95200002
-4.145 -11.448 -0.99299997
-3.5195553 2.1932223 -0.98933339
-3.472923 2.1927691 -0.98761547
-3.4413335 2.1911669 -0.99183333
-3.528934 2.2163334 -0.96966672
-3.4770002 2.2143636 -0.96568179
-3.4269998 2.2253799 -0.97697979
-3.4151745 2.2729499 -0.97505009
-3.4170277 2.3250279 -0.97375
-3.4154575 2.3747141 -0.97714299
-3.414686 2.4238856 -0.97588575
-3.3997502 2.43925 -0.97650003
-3.4097335 2.461267 -0.96540004
-3.3875 2.4575 -0.96099997
-3.437 2.5109999 -0.96600002
-3.3699999 3.0465 -0.96149999
-3.3099999 3.0444999 -0.98899996
-3.4738889 3.0621479 -0.97562963
-3.426739 3.0649564 -0.97395653
-3.3725004 3.059917 -0.97262496
-3.3224232 3.0583463 -0.9764232
-3.4136667 3.9906669 -0.96200001
-3.3741112 3.9870005 -0.96411115
-3.3244288 3.9844289 -0.96457148
-3.2763846 3.9863076 -0.96407682
-3.2420001 3.9933333 -0.96999997
-3.4134998 4.0152502 -0.99000001
-3.3791666 4.0095005 -0.9843334
-3.3308887 4.0078888 -0.98911107
-3.2677498 4.0118332 -0.9837501
-3.238611 4.0274444 -0.97688895
-3.2333634 4.074091 -0.97431821
-2.6830001 17.372999 -0.97500002
-2.6240001 17.382999 -0.97500002
-2.576 17.377501 -0.97399998
-2.527 17.362 -0.97299999
-2.6570001 17.406 -0.97600001
-4.2259998 -11.452 -0.93199998
-4.1746669 -11.467001 -0.9313333
-4.118 -11.4685 -0.93000001
-4.0764999 -11.4795 -0.92949998
-4.1079998 -11.41 -0.90399998
-4.0760002 -11.413 -0.90399998
-4.2195001 -11.373 -0.90450001
-4.1800003 -11.389 -0.90450001
-4.1374998 -11.3965 -0.90450001
-3.5232348 2.236059 -0.9394117
-3.4709473 2.2376316 -0.9359473
-3.4347272 2.241091 -0.9404546
-3.5223527 2.2602942 -0.91358823
-3.4741249 2.2613127 -0.91299987
-3.4232335 2.2721274 -0.92508507
-3.4000001 2.289 -0.93000001
-3.4170835 2.3237221 -0.9263612
-3.4130497 2.3700745 -0.92510003
-3.4000001 2.3859999 -0.92000002
-3.4141176 2.4238231 -0.92652947
-3.4122813 2.4703436 -0.92590624
-3.3946249 2.4827499 -0.92774999
-3.451 2.54 -0.949
-3.4249997 2.52425 -0.91524994
-3.4613333 2.5539999 -0.93733335
-3.4419999 2.5610001 -0.90399998
-3.494 2.609 -0.91100001
-3.438 3.0480001 -0.935
-3.3559999 3.049 -0.93099999
-3.3241997 3.0458 -0.92399997
-3.2826667 3.0456667 -0.91633338
-3.4723334 3.0631907 -0.92585719
-3.4270954 3.062762 -0.926
-3.3754551 3.0604546 -0.92550009
-3.3239999 3.0588 -0.92599994
-3.4225001 3.9445 -0.90799999
-3.3690002 3.9440002 -0.91440004
-3.3271251 3.9403751 -0.90974993
-3.272125 3.9408748 -0.91049993
-3.4129999 3.9595714 -0.92728579
-3.3809087 3.9652729 -0.93718183
-3.3270772 3.9615383 -0.93230766
-3.266 3.9698999 -0.93005002
-3.245625 3.9775 -0.925125
-3.2565556 4.0189996 -0.92288888
-3.2419374 4.0312505 -0.92531258
-3.2332006 4.0708995 -0.92840004
-3.2285216 4.123652 -0.92756522
-3.2221501 4.1745996 -0.92395002
-3.2231669 4.2110004 -0.9321667
-2.6110001 17.299 -0.90899998
-2.579 17.292999 -0.90799999
-2.5320001 17.290001 -0.90750003
-2.6730001 17.305 -0.90899998
-2.642 17.304001 -0.90899998
-2.6705 17.390499 -0.94499999
-2.625 17.393999 -0.94400001
-2.5764999 17.377499 -0.94300002
-2.529 17.378 -0.94300002
-4.1064997 -11.4055 -0.8725
-4.0760002 -11.403 -0.86766672
-4.2255998 -11.370399 -0.875
-4.1774998 -11.38225 -0.87275004
-4.1339998 -11.38575 -0.87150002
-3.4689133 2.2823479 -0.88317376
-3.4342353 2.2876472 -0.88876468
-3.4717276 2.3058178 -0.86381817
-3.4221635 2.322449 -0.87453055
-3.4131052 2.3755 -0.87381583
-3.3963335 2.3829999 -0.88866663
-3.4112253 2.4230969 -0.87829036
-3.3961668 2.4376669 -0.86266673
-3.4100356 2.4752855 -0.87735713
-3.39575 2.46525 -0.86825001
-3.4103074 2.5161541 -0.87607712
-3.3976669 2.5236669 -0.86700004
-3.4535 2.5834999 -0.889
-3.4330997 2.5785999 -0.86860001
-3.4360001 2.6029999 -0.85299999
-3.401 3.0469999 -0.85500002
-3.3673334 3.0483336 -0.88833332
-3.323 3.0479999 -0.87650001
-3.28125 3.04725 -0.87875003
-3.4732959 3.066148 -0.87625927
-3.42435 3.0624502 -0.87709999
-3.3781507 3.0604498 -0.8768
-3.3251305 3.0577824 -0.87447822
-3.3690002 3.8963332 -0.85733336
-3.3235002 3.8989999 -0.85899997
-3.28 3.8948002 -0.85719997
-3.4122732 3.9170909 -0.87681824
-3.3757143 3.9219289 -0.88085723
-3.326467 3.9212003 -0.88113338
-3.2688465 3.9269228 -0.87599993
-3.2490001 3.9425001 -0.86549997
-3.2539999 3.9750915 -0.88381821
-3.2435384 3.9788465 -0.8683846
-3.2535 4.0124998 -0.889
-3.2371666 4.0239444 -0.8725
-3.2329528 4.0706663 -0.87833333
-3.231571 4.1249995 -0.87738091
-3.2262726 4.1656365 -0.87763643
-2.6245 17.285999 -0.8775
-2.5769999 17.275 -0.87699997
-2.5469999 17.280001 -0.87699997
-2.6719999 17.301001 -0.87900001
-4.1079998 -11.409 -0.84100002
-4.2272 -11.3756 -0.82860005
-4.177 -11.3815 -0.82999998
-4.1317501 -11.38025 -0.82850003
-4.0752001 -11.392799 -0.82620001
-3.4750345 2.3305862 -0.8278966
-3.430613 2.335516 -0.83167738
-3.4935 2.3559999 -0.8075
-3.4182506 2.3720682 -0.82420456
-3.4000001 2.3899999 -0.81099999
-3.412344 2.4229686 -0.82587498
-3.3960004 2.4311426 -0.83942866
-3.4096766 2.474088 -0.82329422
-3.3967144 2.475143 -0.82199997
-3.4097331 2.5279667 -0.82826668
-3.3966 2.5292003 -0.82580006
-3.4117336 2.5684669 -0.82533348
-3.398 2.5677142 -0.81442863
-3.4310908 2.6211817 -0.81854552
-3.4349999 2.651 -0.80400002
-3.332 3.0480001 -0.829
-3.2800002 3.0466669 -0.82733333
-3.42472 3.0635197 -0.82591993
-3.3727198 3.0589199 -0.82499993
-3.3248463 3.0593464 -0.82492304
-3.2719727 3.0692701 -0.82567555
-3.2679999 3.848 -0.801
-3.4207335 3.8769999 -0.82686681
-3.3744764 3.8750477 -0.82476193
-3.3262496 3.8771255 -0.83031249
-3.2740002 3.8753076 -0.82226932
-3.2445002 3.8885 -0.81050003
-3.2586668 3.9253333 -0.82688892
-3.2445624 3.9278126 -0.82556248
-3.2525001 3.9755001 -0.81999999
-3.2419415 3.9734116 -0.82417655
-3.2389565 4.0250001 -0.82604355
-3.2384706 4.0751767 -0.82694113
-3.2312384 4.1201911 -0.82809538
-2.694 17.243999 -0.815
-2.6164999 17.235001 -0.81400001
-2.572 17.240999 -0.81400001
-2.665 17.252001 -0.815
-2.641 17.296 -0.84799999
-2.5780001 17.287001 -0.847
-2.675 17.319 -0.84899998
-2.6129999 17.309999 -0.84799999
-4.1704998 -11.302 -0.79299998
-4.1409998 -11.312 -0.79299998
-4.072 -11.309334 -0.78433335
-4.2224002 -11.276799 -0.78420007
-4.1743336 -11.281668 -0.77066672
-4.1183333 -11.292 -0.77699995
-4.0784998 -11.296 -0.77999997
-3.4349999 2.3469999 -0.79299998
-3.4714479 2.3725517 -0.77679318
-3.4212565 2.3795638 -0.77617961
-3.3983333 2.3751667 -0.7845
-3.4749999 2.401 -0.75199997
-3.4087667 2.4258337 -0.77280009
-3.3993335 2.4280002 -0.78150004
-3.4106128 2.4787095 -0.77496779
-3.3963332 2.4721668 -0.77466673
-3.4071426 2.5246189 -0.77466673
-3.3962142 2.5235715 -0.77992862
-3.4047201 2.5738399 -0.77783996
-3.3972723 2.5746365 -0.76772738
-3.4097779 2.6192219 -0.773
-3.3916001 2.6174669 -0.76966667
-3.398 2.6500001 -0.75999999
-3.2770002 3.0473335 -0.78966665
-3.426409 3.0639999 -0.77331823
-3.3741543 3.0598078 -0.77453834
-3.3259168 3.0604579 -0.77829164
-3.2729249 3.0726502 -0.77357495
-3.3756468 3.8278234 -0.77111769
-3.3248751 3.8306251 -0.7768749
-3.273423 3.8298078 -0.77161533
-3.2480001 3.8305001 -0.77900004
-3.408 3.8525 -0.79349995
-3.3859999 3.8540001 -0.796
-3.329 3.8499999 -0.79900002
-3.2581179 3.873765 -0.77317655
-3.2480001 3.8930001 -0.78649998
-3.2559373 3.9208748 -0.77149999
-3.2451668 3.9263332 -0.77816671
-3.25225 3.9607499 -0.77700001
-3.2445624 3.97575 -0.77749997
-3.2400954 4.0198569 -0.77523816
-3.2378948 4.0706844 -0.78178942
-3.2309999 4.1059999 -0.78750002
-2.6747501 17.216 -0.76800001
-2.6290002 17.216499 -0.76750004
-2.5969999 17.205999 -0.78200001
-4.1589999 -11.301 -0.72899997
-4.1170001 -11.31 -0.72899997
-4.0769997 -11.302668 -0.72800004
-4.2255001 -11.2665 -0.72883332
-4.1774998 -11.28275 -0.72850001
-4.1226001 -11.2888 -0.72760004
-4.0800004 -11.290001 -0.727
-3.4732502 2.39575 -0.74399996
-3.4460001 2.3989999 -0.74800003
-3.4744811 2.4205928 -0.72277778
-3.4209187 2.4248981 -0.7274285
-3.3970001 2.4235001 -0.72850001
-3.4108787 2.4744244 -0.72560614
-3.3922858 2.4809999 -0.72899997
-3.409409 2.5244091 -0.72490907
-3.3959289 2.5264282 -0.72578585
-3.4074171 2.5773752 -0.72600001
-3.3978891 2.5698888 -0.7284444
-3.4047832 2.6247394 -0.72869575
-3.3912499 2.6246872 -0.72793752
-3.4023337 2.6690001 -0.70600003
-3.3867002 2.6593502 -0.71789998
-3.372 3.0469999 -0.7245
-3.2639999 3.049 -0.73199999
-3.4265213 3.0645223 -0.72578263
-3.3743045 3.0619571 -0.72717386
-3.3255002 3.0630002 -0.72523338
-3.2702622 3.0721669 -0.72438103
-3.2551 3.1144001 -0.72630006
-3.2520001 3.1789999 -0.713
-3.3737502 3.7825627 -0.72006249
-3.3230672 3.7829335 -0.72206664
-3.2772501 3.7840002 -0.71537495
-3.3830001 3.8083334 -0.74200004
-3.3256001 3.8052003 -0.74620003
-3.2668333 3.8232498 -0.72575009
-3.2594342 3.8736527 -0.72830445
-3.2484999 3.8724999 -0.72099996
-3.2575004 3.9254286 -0.72600007
-3.2461426 3.9255719 -0.72942859
-3.2549093 3.9681821 -0.72254544
-3.2440004 3.9789333 -0.73033339
-3.2564998 4.0289998 -0.72100002
-3.240267 4.0234008 -0.72813338
-3.2366667 4.0563335 -0.74066675
-2.6694999 17.182499 -0.72100002
-4.1799998 -11.205999 -0.6825
-4.11975 -11.21 -0.67624998
-4.072 -11.227333 -0.67500007
-4.0267496 -11.21425 -0.66949999
-4.2232003 -11.1828 -0.66960007
-4.1735001 -11.188499 -0.66100001
-4.1285 -11.189 -0.66000003
-4.0739999 -11.191 -0.65899998
-3.4804447 2.4444444 -0.69011116
-3.4356666 2.4442222 -0.68922216
-3.4000001 2.448 -0.69400001
-3.475857 2.4665236 -0.66780955
-3.4171071 2.4754465 -0.67565942
-3.3956001 2.4750001 -0.66880006
-3.4061198 2.5276799 -0.67419994
-3.3962729 2.5231819 -0.68218184
-3.4054739 2.5738418 -0.67605263
-3.3931766 2.5737643 -0.67570585
-3.408375 2.6207502 -0.67706251
-3.3941581 2.628474 -0.67431581
-3.4026 2.671 -0.68020004
-3.3861172 2.6766174 -0.67414701
-3.403667 2.7153335 -0.65933335
-3.383286 2.7157145 -0.66542858
-3.4240434 3.0646954 -0.67326093
-3.3742697 3.060461 -0.67649996
-3.3231153 3.060154 -0.67465389
-3.2724524 3.0713334 -0.6746667
-3.2569091 3.1162727 -0.67445451
-3.257 3.1619999 -0.65499997
-3.3724284 3.7368572 -0.66542858
-3.3222222 3.7352223 -0.66411108
-3.2810912 3.7352729 -0.66536361
-3.3774288 3.761143 -0.69057155
-3.3281 3.7565 -0.6886
-3.2705004 3.7731068 -0.67696434
-3.2622173 3.8243484 -0.67408705
-3.2582781 3.8732774 -0.6749444
-3.2453334 3.8803334 -0.68600005
-3.2568336 3.9187498 -0.66991663
-3.2465 3.9215002 -0.68687499
-3.2580769 3.973 -0.67453855
-3.2416666 3.9761112 -0.67555553
-3.2586668 4.0170002 -0.68633336
-3.2353334 4.0073333 -0.69566667
-2.6789999 17.146999 -0.68900001
-4.1700001 -11.209 -0.62
-4.1127501 -11.20775 -0.62924999
-4.0695 -11.2095 -0.62825
-4.0209999 -11.216201 -0.62600005
-4.1827502 -11.183749 -0.63449997
-4.1365004 -11.182 -0.62849998
-3.4749999 2.4907501 -0.63908339
-3.4276156 2.489769 -0.64107692
-3.3959999 2.4990001 -0.63099998
-3.4714117 2.5105884 -0.61576474
-3.4161797 2.5189488 -0.62592316
-3.3965001 2.5276999 -0.6257
-3.4063601 2.5732 -0.62352002
-3.3945003 2.5806251 -0.62650001
-3.404182 2.6235454 -0.62281817
-3.3929999 2.6236954 -0.62565225
-3.4057777 2.6793334 -0.62344444
-3.3959129 2.6731305 -0.62921733
-3.4036005 2.7082 -0.62759995
-3.3865261 2.7249475 -0.62389475
-3.3832498 2.757 -0.61425
-3.339 3.049 -0.64049995
-3.4301155 3.0689998 -0.62676924
-3.3781247 3.0656667 -0.62341666
-3.3233707 3.0623705 -0.62729633
-3.2687075 3.0719998 -0.62487799
-3.2466667 3.0886667 -0.62816668
-3.2541001 3.1184001 -0.62800008
-3.2436664 3.1258333 -0.62241673
-3.2509999 3.1670001 -0.639
-3.3668334 3.6916666 -0.61266673
-3.3272221 3.6883333 -0.61188883
-3.2865717 3.6930001 -0.61400008
-3.3756924 3.7131541 -0.634
-3.3195002 3.712625 -0.63774997
-3.2774074 3.7238147 -0.62651855
-3.2687619 3.7696664 -0.6248095
-3.2683198 3.8227599 -0.62427998
-3.2614348 3.8705654 -0.62882614
-3.2490001 3.8800001 -0.60600001
-3.2606843 3.9252629 -0.62652636
-3.2455001 3.9449999 -0.625
-3.2620001 3.9621665 -0.63849998
-3.2390001 3.9603336 -0.63966668
-4.0675001 -11.204 -0.597
-4.0240002 -11.2085 -0.59650004
-4.1700001 -11.179501 -0.59749997
-4.1285 -11.1895 -0.597
-4.0929999 -11.183 -0.59600002
-4.0180001 -11.158 -0.57300001
-4.1719999 -11.124001 -0.574
-4.125 -11.11925 -0.56274998
-4.0778003 -11.13 -0.56479996
-4.0290003 -11.1295 -0.55674994
-4.1706667 -11.092001 -0.55199999
-3.4229233 2.5345387 -0.58419234
-3.3952501 2.5415001 -0.59125
-3.4107308 2.5705769 -0.57388461
-3.3955715 2.5692856 -0.57014287
-3.4045382 2.6255386 -0.57638466
-3.3944235 2.6256535 -0.57576925
-3.404 2.6690001 -0.57416672
-3.3914485 2.6758277 -0.57544833
-3.402 2.711 -0.58899999
-3.3915939 2.7260938 -0.57678127
-3.38273 2.7688918 -0.57386494
-3.3883333 2.8046665 -0.55933332
-3.4273891 3.0695555 -0.57594442
-3.3776553 3.0668278 -0.57472414
-3.3242309 3.0630002 -0.57634622
-3.2701306 3.073283 -0.57578272
-3.2428002 3.0936 -0.57400006
-3.2527499 3.1214168 -0.57750005
-3.2443528 3.126941 -0.5747059
-3.2536669 3.1638334 -0.57216668
-3.2400422 3.1746252 -0.57441664
-3.2354248 3.2223637 -0.57648492
-3.3720002 3.6436667 -0.55599999
-3.3239999 3.642 -0.55879998
-3.2919998 3.6430001 -0.55299997
-3.3723128 3.66675 -0.58143747
-3.3212502 3.6656876 -0.580625
-3.2813103 3.6767929 -0.57506889
-3.2768233 3.7252944 -0.57476479
-3.2741427 3.7724998 -0.57489288
-3.2662504 3.8217499 -0.57599992
-3.2643476 3.8715656 -0.57313043
-3.2473335 3.8913333 -0.57700002
-3.2687502 3.915 -0.58475006
-3.2450001 3.9160001 -0.58900005
-4.0149999 -11.151 -0.51099998
-4.1539998 -11.107 -0.51099998
-4.1245003 -11.1185 -0.51099998
-4.0716667 -11.124667 -0.5103333
-4.0306673 -11.114 -0.52333331
-4.1820002 -11.091499 -0.52099997
-4.1269999 -11.094333 -0.53100002
-4.0699997 -11.091 -0.52999997
-3.4214442 2.5817499 -0.53058332
-3.3931665 2.5886669 -0.53866667
-3.4064617 2.6246927 -0.5215385
-3.3956404 2.6249595 -0.52744001
-3.4047143 2.6698575 -0.51914287
-3.3905315 2.6770623 -0.52421868
-3.402 2.701 -0.51899999
-3.3895624 2.7246878 -0.52600008
-3.4030001 2.7804999 -0.514
-3.3861175 2.7757943 -0.52744114
-3.402 2.829 -0.54400003
-3.3805161 2.8225157 -0.52096778
-3.349 2.835 -0.50099999
-3.4250436 3.0711737 -0.52586961
-3.3753333 3.0672917 -0.52695835
-3.3236668 3.0630372 -0.52488887
-3.2705746 3.0715251 -0.52459997
-3.2496669 3.0926666 -0.53633338
-3.2561817 3.1244996 -0.52445459
-3.2427499 3.1250837 -0.52925003
-3.2548571 3.161 -0.52085716
-3.2398884 3.1744444 -0.52407402
-3.253 3.2135 -0.53499997
-3.2356076 3.2231071 -0.52721429
-3.2264764 3.2760239 -0.52388108
-3.3683336 3.5926666 -0.50233334
-3.3150001 3.599 -0.50800002
-3.3740528 3.6242633 -0.52936846
-3.3244288 3.6174765 -0.52452385
-3.2888572 3.630667 -0.5208571
-3.28268 3.6745999 -0.52448004
-3.2767999 3.7222798 -0.52744007
-3.2740417 3.7769585 -0.523
-3.2701669 3.8266666 -0.52629167
-3.2449999 3.8329999 -0.51300001
-3.2655003 3.8699996 -0.53139997
-3.25 3.8670001 -0.53349996
-4.1529999 -11.103 -0.49000001
-4.1079998 -11.105 -0.49000001
-4.0650001 -11.107 -0.48899999
-4.0197997 -11.1158 -0.48060003
-4.1805 -11.087749 -0.47975001
-4.1252499 -11.09075 -0.47400001
-4.0733337 -11.091002 -0.47466668
-4.04 -11.1 -0.46799999
