# .PCD v0.7 - Point Cloud Data file format
VERSION 0.7
FIELDS x y z
SIZE 4 4 4
TYPE F F F
COUNT 1 1 1
WIDTH 1620
HEIGHT 1
VIEWPOINT 0 0 0 1 0 0 0
POINTS 1620
DATA ascii
-6.9880004 -9.1792507 -0.62800002
-6.651 3.0840001 -0.648
-6.7305002 3.1247499 -0.62
-6.6768746 3.1123753 -0.62650001
-6.6248574 3.1250002 -0.62978578
-6.6142502 3.1741254 -0.62881255
-6.6092505 3.225167 -0.62608343
-6.598 3.244 -0.62400001
-6.6078577 3.2802861 -0.62057143
-6.5966673 3.2726667 -0.62900007
-6.6127501 3.3255 -0.61941665
-6.5970001 3.3310001 -0.63999999
-6.6170006 3.3651667 -0.62133336
-6.598 3.3610001 -0.61500001
-6.6479998 3.4000001 -0.60699999
-6.6110001 3.694 -0.63600004
-6.5708003 3.6898 -0.61860001
-6.6224999 3.701 -0.61049998
-6.5270004 4.2465 -0.60650003
-6.5207272 4.2755456 -0.62827265
-6.4950004 4.2873335 -0.61066669
-6.5065002 4.3059998 -0.6415
-7.0749998 -9.2089996 -0.57099998
-7.0560002 -9.1850004 -0.60000002
-7.0193338 -9.1710005 -0.57833338
-6.9798331 -9.1686668 -0.57700002
-6.717 3.1429999 -0.58999997
-6.6656666 3.1383333 -0.59066671
-6.6289997 3.1417501 -0.58700001
-6.7223334 3.1646669 -0.56566668
-6.6793337 3.1593332 -0.56666672
-6.6213565 3.1743572 -0.57778579
-6.6146002 3.2222002 -0.57953334
-6.598 3.244 -0.55900002
-6.6088181 3.273273 -0.57972723
-6.5974998 3.2655001 -0.57949996
-6.6065559 3.3306668 -0.57433337
-6.5966673 3.316 -0.579
-6.6091995 3.3745 -0.5686
-6.5945001 3.3805001 -0.56400001
-6.6560001 3.4330001 -0.583
-6.6279998 3.41875 -0.5675
-6.6694999 3.4619999 -0.56550002
-6.6100001 3.6930001 -0.58899999
-6.5743332 3.6936665 -0.574
-6.5238338 3.6828334 -0.58116668
-6.6236668 3.701 -0.56400001
-6.5960002 3.701 -0.56199998
-6.5120001 3.7279999 -0.55800003
-6.4970002 4.2350001 -0.56300002
-6.5138001 4.2655997 -0.58160001
-6.4933333 4.2827783 -0.57555556
-7.0710001 -9.2045002 -0.53049999
-7.0169997 -9.1789999 -0.53166664
-6.9736667 -9.166667 -0.523
-6.9285002 -9.1848335 -0.52600002
-6.7080002 3.1900001 -0.53299999
-6.6760001 3.1817501 -0.54025
-6.6213751 3.1863751 -0.53487504
-6.6719999 3.2086668 -0.51133335
-6.6118336 3.2250001 -0.5275833
-6.599 3.2305 -0.52700001
-6.608077 3.2747695 -0.52946156
-6.5926666 3.2849998 -0.52166671
-6.6063333 3.3238888 -0.53255558
-6.589334 3.3313332 -0.523
-6.6090002 3.3656669 -0.52133334
-6.593667 3.3723333 -0.52683336
-6.6092496 3.41275 -0.53025001
-6.5933337 3.4175003 -0.51750004
-6.6398005 3.4717999 -0.523
-6.568429 3.6938574 -0.52642864
-6.5164003 3.6889999 -0.52000004
-6.598 3.7019999 -0.53600001
-6.5328751 4.18575 -0.52100003
-6.5132003 4.2232003 -0.52429998
-6.4970007 4.2353339 -0.52733338
-6.5033336 4.2663336 -0.52399999
-6.4892726 4.2736368 -0.53072733
-6.4829998 4.3065004 -0.51749998
-7.0689998 -9.2019997 -0.5
-7.0574999 -9.1875 -0.46850002
-7.0194998 -9.1797504 -0.47749999
-6.9822001 -9.1758003 -0.47659999
-6.9286251 -9.1811256 -0.47549999
-6.6754284 3.2308574 -0.47899997
-6.6190004 3.2316003 -0.48059997
-6.5999999 3.2460001 -0.45699999
-6.6111541 3.2740002 -0.48092312
-6.6085005 3.3235002 -0.47874999
-6.5961251 3.3209999 -0.47624999
-6.6065001 3.3761668 -0.48033333
-6.5927501 3.3734999 -0.48100001
-6.6076007 3.4196 -0.48020002
-6.5895562 3.4276667 -0.47722223
-6.6105003 3.4755001 -0.477
-6.5889997 3.4642501 -0.47525001
-6.6297498 3.5192499 -0.46275002
-6.5721664 3.6948333 -0.47283334
-6.5185723 3.6894288 -0.47442853
-6.4969997 3.6900001 -0.47049999
-6.5970001 3.7019999 -0.47
-6.5049996 3.7214 -0.4628
-6.5203333 4.1718001 -0.47273332
-6.494 4.1849999 -0.45300001
-6.5090003 4.2106667 -0.48166668
-6.4942727 4.2215462 -0.47245455
-6.5019999 4.2859998 -0.45699999
-6.4921541 4.2710767 -0.48053843
-6.6479998 4.8839998 -0.45500001
-7.0539999 -9.1824999 -0.428
-7.0183334 -9.1813335 -0.42400002
-6.9793334 -9.1743336 -0.4296667
-6.9270005 -9.1764011 -0.42720005
-6.6675005 3.2710001 -0.42899999
-6.6211662 3.2774167 -0.43075001
-6.599 3.2590001 -0.44400001
-6.6124291 3.3154285 -0.42242858
-6.5970001 3.3286664 -0.42722225
-6.6038003 3.3686001 -0.43179998
-6.5920906 3.3802731 -0.42700002
-6.6030002 3.4059999 -0.435
-6.5909095 3.4269092 -0.42681816
-6.6100001 3.4605 -0.4305
-6.5856924 3.4756157 -0.42953846
-6.6129999 3.5365 -0.42649999
-6.5890002 3.5113335 -0.42433333
-6.6315002 3.5609999 -0.4215
-6.5747499 3.69625 -0.42225
-6.5335999 3.6926 -0.42139998
-6.491334 3.6863334 -0.42433333
-6.5809999 3.7 -0.42250001
-6.5035 3.7154999 -0.426
-6.4859095 3.7269094 -0.42418188
-6.5054998 3.9384999 -0.41249999
-6.5295396 4.1269231 -0.42476922
-6.5109997 4.1715002 -0.42649999
-6.4934998 4.1686668 -0.42533335
-6.5080004 4.2313337 -0.419
-6.4931436 4.2162862 -0.42685714
-6.4982004 4.2678003 -0.42859998
-6.6422501 4.8885002 -0.43325001
-6.6335001 4.9000001 -0.41150001
-7.0580001 -9.1879997 -0.398
-7.0261664 -9.1750002 -0.37349996
-6.9844003 -9.1787996 -0.37599999
-6.9429998 -9.1719999 -0.39500001
-6.6420002 3.2939999 -0.396
-6.6157279 3.3238182 -0.37854546
-6.5962 3.3268001 -0.37340003
-6.6070004 3.3677499 -0.373
-6.5932999 3.3760998 -0.37859997
-6.605 3.4349999 -0.37150002
-6.5915389 3.4220769 -0.3783077
-6.6030002 3.4935 -0.37300003
-6.5874996 3.4731669 -0.37900001
-6.6090002 3.527 -0.37400001
-6.5864997 3.5244999 -0.37800002
-6.6113334 3.5826669 -0.37533331
-6.5819998 3.5565 -0.36700001
-6.5650001 3.6989999 -0.36300001
-6.5314999 3.694 -0.37400001
-6.4954996 3.6887503 -0.37924999
-6.5799999 3.7013335 -0.38533336
-6.5155997 3.7122002 -0.37920001
-6.4870005 3.7286668 -0.38091668
-6.5100002 3.757 -0.38800001
-6.4713998 3.8685002 -0.37479997
-6.480875 3.915875 -0.37112501
-6.5115714 4.1236429 -0.37871426
-6.5092497 4.1771669 -0.37908334
-6.4990001 4.1560001 -0.37099999
-6.4977503 4.2150002 -0.37974998
-6.4980001 4.2509999 -0.36000001
-6.6348338 4.886167 -0.37316668
-6.6295004 4.9115 -0.37099999
-7.0570002 -9.1870003 -0.317
-7.0323334 -9.177 -0.33000001
-6.9980001 -9.177 -0.336
-6.6262503 3.3445001 -0.33774999
-6.6145997 3.3650002 -0.32339999
-6.5922008 3.3768997 -0.32680002
-6.605 3.4130001 -0.33849999
-6.5925388 3.4255383 -0.32169232
-6.6030002 3.464 -0.31999999
-6.5849171 3.4730835 -0.32475001
-6.5818119 3.5233128 -0.32756251
-6.5745463 3.570364 -0.32463637
-6.5809999 3.6010001 -0.322
-6.5619998 3.6960001 -0.34900001
-6.5054998 3.6942501 -0.32749999
-6.487 3.6989999 -0.34599999
-6.5725002 3.7060001 -0.32025
-6.5334997 3.7065001 -0.3355
-6.487143 3.7242861 -0.32264289
-6.4728007 3.7707336 -0.33173341
-6.473834 3.8258338 -0.32575002
-6.4712853 3.876143 -0.32828569
-6.48 3.9070001 -0.338
-6.5402498 3.95925 -0.32124999
-6.5 4.0450001 -0.30199999
-6.5237861 4.0699291 -0.32514283
-6.5138469 4.1193848 -0.32230771
-6.4974999 4.1385002 -0.324
-6.4980001 4.171 -0.331
-6.4986668 4.2086668 -0.31866667
-6.6242499 4.8929996 -0.32499999
-6.6237149 4.916286 -0.32328573
-7.0510001 -9.1800003 -0.29699999
-7.0304999 -9.1695004 -0.28600001
-6.6204996 3.3855 -0.28650001
-6.5949998 3.3870001 -0.292
-6.6132498 3.4105 -0.268875
-6.5907278 3.4265454 -0.2750909
-6.5855002 3.4767499 -0.27399999
-6.6009998 3.5369999 -0.25600001
-6.5810919 3.5264544 -0.27654544
-6.5786247 3.5769372 -0.27543753
-6.5728998 3.6253002 -0.27239999
-6.5309997 3.6964002 -0.27760002
-6.4914002 3.6917999 -0.26800001
-6.5782499 3.7054999 -0.27774999
-6.5047503 3.7275 -0.29249999
-6.4904447 3.7268889 -0.27033335
-6.4795885 3.7749999 -0.27635294
-6.4698343 3.8247497 -0.27658331
-6.4737859 3.8770719 -0.27771425
-6.5184999 3.9460001 -0.2735
-6.4794998 3.9070001 -0.27850002
-6.5161114 4.0706658 -0.27611113
-6.6213131 4.9230628 -0.27268749
-6.5999999 4.9190001 -0.296
-6.6110001 4.9640002 -0.25400001
-6.9330001 -10.116 -0.208
-6.6202497 3.4355001 -0.22250001
-6.591167 3.4330001 -0.23233333
-6.6069999 3.4660001 -0.20299999
-6.5864286 3.4773571 -0.22500004
-6.5823574 3.5270717 -0.21978574
-6.5772014 3.5775998 -0.22466668
-6.5718336 3.6260834 -0.22375
-6.5748754 3.671 -0.22137502
-6.5073333 3.6950002 -0.22566667
-6.4920001 3.694 -0.21600001
-6.527143 3.7061431 -0.22499999
-6.4888334 3.7280834 -0.22325
-6.4757504 3.7747502 -0.22350001
-6.4643846 3.8236926 -0.22361538
-6.4759173 3.8778338 -0.22733331
-6.5050001 3.938 -0.24699999
-6.4813337 3.9155002 -0.21933334
-6.5960002 4.9689999 -0.211
-6.9289999 -10.1105 -0.17550001
-6.928 -10.071 -0.164
-6.5897503 3.4825001 -0.18025
-6.5824451 3.5236108 -0.17200002
-6.5793085 3.578923 -0.16876923
-6.5690713 3.6244998 -0.17157143
-6.5700836 3.6740005 -0.17425001
-6.5137501 3.6947501 -0.16475001
-6.4846668 3.697 -0.164
-6.5706 3.7068002 -0.17380001
-6.5220003 3.712667 -0.17800002
-6.4840908 3.7222729 -0.17027272
-6.5079999 3.7709999 -0.178
-6.4775004 3.7748749 -0.17149998
-6.4584169 3.8177505 -0.1715
-6.4439998 3.8399999 -0.178
-6.4703341 3.8745003 -0.17025
-6.4699998 3.9097145 -0.17557143
-6.5910001 4.9130001 -0.152
-6.5943999 4.9720001 -0.16739999
-6.1869998 12.252 -0.161
-6.9569998 -10.19 -0.102
-6.9335003 -10.155 -0.13349999
-6.9289999 -10.111 -0.133
-6.9274998 -10.08 -0.11675001
-6.9265003 -10.031 -0.132
-6.9289999 -9.9980001 -0.121
-6.5856004 3.5299001 -0.12630001
-6.5747004 3.5747001 -0.12410001
-6.5738001 3.6239002 -0.1259
-6.570334 3.6704445 -0.126
-6.5250001 3.6975 -0.12549999
-6.4849997 3.697 -0.13150001
-6.5339999 3.7025001 -0.126
-6.4786005 3.7204998 -0.1239
-6.4781823 3.7738185 -0.12472729
-6.4489999 3.7820001 -0.138
-6.4614439 3.8195555 -0.126
-6.4699998 3.8705554 -0.12611111
-6.4674006 3.9057999 -0.12400001
-6.448 3.9030001 -0.139
-6.5955 4.9335003 -0.131
-6.2635002 11.0965 -0.127
-6.223 11.092 -0.127
-6.3649998 11.116 -0.12800001
-6.3255 11.116 -0.12800001
-6.1900001 12.256 -0.113
-6.1960001 12.322 -0.114
-6.9650002 -10.202 -0.059
-6.9569998 -10.189 -0.079999998
-6.9254999 -10.106 -0.068499997
-6.9300003 -10.061334 -0.071999997
-6.9323339 -10.027667 -0.08600001
-6.9274998 -9.9775 -0.06825
-6.927 -9.9209995 -0.057
-6.5869999 3.5444999 -0.092500001
-6.5779281 3.5762858 -0.079571441
-6.5682139 3.6237144 -0.082928576
-6.493 3.694 -0.059999999
-6.5332003 3.7034001 -0.084399998
-6.484467 3.7207334 -0.080800004
-6.4776249 3.7757499 -0.079874992
-6.4659233 3.8244615 -0.078846164
-6.4685717 3.8769286 -0.081428573
-6.4693999 3.9130001 -0.081799999
-6.1960001 12.269 -0.078000002
-6.1886668 12.324333 -0.074000001
-7.0690002 -10.374001 -0.016000001
-7.0100002 -10.268 -0.037
-6.9709997 -10.172501 -0.026500002
-6.9289999 -10.0735 -0.026000001
-6.9180002 -10.02 -0.0255
-6.9250007 -9.9803333 -0.028999999
-6.9293337 -9.9359999 -0.022
-6.9323339 -9.8786669 -0.022
-6.5243335 3.6843333 -0.012333333
-6.4846663 3.6966667 -0.029666668
-6.5279999 3.7098 -0.029000003
-6.4811664 3.723417 -0.029666666
-6.5123329 3.7676666 -0.029666668
-6.4759102 3.7765455 -0.023363637
-6.4689341 3.8219335 -0.0306
-6.4706368 3.8715453 -0.025999999
-6.4686251 3.907625 -0.028000001
-6.2014999 12.2795 -0.029999999
-6.1935 12.3165 -0.029999999
-6.1870003 12.3555 -0.029999999
-7.0635004 -10.385 0.017000001
-7.0614996 -10.3435 0.017000001
-7.0310001 -10.26 0.048999999
-6.9700003 -10.171 0.0165
-6.9413333 -10.091667 0.027333334
-6.9229999 -10.027667 0.027000001
-6.9234004 -9.9751997 0.031200001
-6.9229999 -9.9239998 0.021749999
-6.9280005 -9.8668337 0.027000001
-6.9370003 -9.8250008 0.027000001
-6.9369998 -9.7880001 0.048
-6.4829998 3.6949999 0.017999999
-6.5211248 3.70625 0.024499999
-6.4838333 3.7259166 0.024500001
-6.4727502 3.7725625 0.024499999
-6.4696918 3.826462 0.023999998
-6.4702506 3.8740001 0.023416666
-6.4706249 3.91275 0.029375
-6.2010002 12.2785 0.017999999
-6.2010002 12.331 0.029999999
-6.1960001 12.322 0.0060000001
-6.1900001 12.380333 0.014
-6.1849999 12.406 0.030999999
-7.0510001 -10.407 0.093999997
-7.0688004 -10.3774 0.076200001
-7.0430002 -10.394 0.071999997
-7.0640001 -10.347 0.050000001
-7.0539999 -10.294001 0.082000002
-7 -10.178 0.092
-6.9759998 -10.142 0.07
-6.9709997 -10.0975 0.080499999
-6.9212503 -9.9689999 0.079750001
-6.9215002 -9.9130001 0.079500005
-6.9285002 -9.8859997 0.079500005
-6.9257498 -9.8272495 0.079500005
-6.9364996 -9.7697496 0.078999996
-6.9590001 -9.7469997 0.089000002
-6.487 3.698 0.096000001
-6.518858 3.7074287 0.073714294
-6.4821539 3.727308 0.075000003
-6.4774671 3.7768004 0.077799998
-6.4780827 3.8290002 0.076750003
-6.4755006 3.8775711 0.077142857
-6.4670997 3.9176004 0.077399999
-6.2049999 12.286 0.054000001
-6.2179999 12.311 0.078000002
-6.1949997 12.3195 0.066
-6.1900001 12.38 0.063000008
-6.1805 12.424999 0.067000002
-6.1869998 12.466 0.079000004
-7.0640001 -10.406 0.116
-7.0479999 -10.402 0.13699999
-7.0650001 -10.349 0.115
-7.0549998 -10.295 0.115
-7.0489998 -10.286 0.13600001
-7.0454998 -10.243 0.125
-6.9659996 -10.0905 0.1235
-6.9435 -10.019501 0.1225
-6.9250002 -9.9559994 0.1225
-6.9239998 -9.9174995 0.122
-6.9215002 -9.8759995 0.1215
-6.9250002 -9.8262501 0.12125
-6.9245 -9.7709999 0.1205
-6.9654999 -9.7210007 0.1205
-6.93325 -9.72925 0.1205
-6.4829998 3.6949999 0.122
-6.488534 3.7243333 0.13153334
-6.4783335 3.777267 0.1274
-6.4726658 3.8256664 0.12941667
-6.4770002 3.8751669 0.12733336
-6.4662499 3.915875 0.12312502
-6.447 3.902 0.149
-6.3460002 11.218 0.141
-6.204 12.3365 0.115
-6.1960001 12.372999 0.115
-6.1763334 12.426333 0.111
-6.1830001 12.4565 0.1155
-6.178 12.503 0.12800001
-7.0434999 -10.396 0.16999999
-7.0550003 -10.2945 0.169
-7.0440001 -10.228334 0.17200002
-6.993 -10.129 0.156
-6.967 -10.054 0.198
-6.9563332 -10.013666 0.18300001
-6.9369998 -10.01 0.155
-6.9235001 -9.9257498 0.16974999
-6.9180002 -9.8720007 0.17399999
-6.9162502 -9.8227501 0.168
-6.9192004 -9.7785997 0.1772
-6.9679999 -9.7060003 0.152
-6.9243336 -9.7340002 0.17233334
-7.0050001 -9.6700001 0.193
-6.9747505 -9.6800003 0.18275
-6.9272003 -9.6880007 0.176
-6.4794998 3.723125 0.17400001
-6.4810004 3.7770834 0.17475
-6.473444 3.8258889 0.17511109
-6.4752727 3.8770003 0.17336364
-6.4682221 3.9147775 0.16877778
-6.4489999 3.9189999 0.189
-6.3287997 11.134399 0.17560001
-6.3179998 11.17 0.163
-6.3163333 11.227333 0.17800002
-6.3200002 11.264 0.164
-6.2930002 11.263 0.186
-6.2130003 12.36775 0.17524999
-6.1999998 12.381 0.15099999
-6.1905003 12.417999 0.1635
-6.1830001 12.476334 0.16000001
-6.1680002 12.511 0.1645
-6.1500001 12.502 0.176
-7.0225 -10.4035 0.22499999
-7.0317497 -10.387751 0.22450002
-7.0460005 -10.244667 0.22266668
-7.04 -10.197 0.211
-7.0289998 -10.144 0.243
-6.9780002 -10.07 0.219
-6.9584999 -9.9665003 0.22849999
-6.9454999 -9.9860001 0.22849999
-6.921 -9.8754997 0.2265
-6.9180002 -9.835 0.22600001
-6.9147501 -9.7757502 0.22500001
-6.9200001 -9.7280006 0.2245
-7.0289998 -9.6669998 0.214
-6.9825001 -9.6555004 0.21349999
-6.9227505 -9.67875 0.22349998
-7.0170002 -9.6499996 0.235
-6.9759998 -9.6470003 0.234
-6.9349999 -9.6435003 0.2235
-6.6620002 -3.484 0.241
-6.6231666 -3.4880004 0.21983334
-6.4810772 3.7264624 0.21807697
-6.4774675 3.7764001 0.22160003
-6.4759998 3.8285003 0.21991667
-6.4751544 3.8738461 0.22115386
-6.4658008 3.9150002 0.22180001
-6.4489999 3.9030001 0.241
-6.3365002 11.13325 0.21799999
-6.2855 11.134501 0.229
-6.309 11.153 0.207
-6.2810001 11.171499 0.21799999
-6.2790003 11.214 0.21900001
-6.2779999 11.2585 0.21950001
-6.2133999 12.3866 0.22860001
-6.2026672 12.441668 0.22433335
-6.1870003 12.47875 0.21875001
-6.177 12.528 0.22549999
-6.1750002 12.553 0.20100001
-7.02775 -10.392 0.27899998
-7.0254998 -10.1385 0.27500001
-6.9699998 -10.02 0.28299999
-6.947 -9.9870005 0.25999999
-6.9429998 -9.9440002 0.2705
-6.928 -9.8859997 0.26899999
-6.9194002 -9.8226004 0.28220001
-6.9159999 -9.7690001 0.27200001
-6.9212499 -9.7212505 0.28149998
-6.9182 -9.6687994 0.27120003
-6.9840002 -9.62325 0.26475
-6.9314003 -9.6236 0.27040002
-6.9665003 -9.599 0.29499999
-6.9289999 -9.6000004 0.29499999
-6.6708574 -3.473429 0.27242857
-6.6248183 -3.4790001 0.27490911
-6.6830001 -3.45 0.29300001
-6.4823332 3.7283335 0.27291667
-6.4746666 3.7748668 0.27293336
-6.4716663 3.8247497 0.27333331
-6.4680772 3.8706155 0.27546152
-6.4668999 3.9139001 0.271
-6.4489999 3.9189999 0.294
-6.2767148 11.128142 0.27328572
-6.2275 11.1215 0.29499999
-6.257 11.1745 0.25150001
-6.2270002 11.1665 0.2845
-6.2519999 11.234 0.25299999
-6.2250004 11.208 0.28549999
-6.22575 11.256001 0.27524999
-6.2740002 12.421 0.273
-6.2242503 12.43025 0.285
-6.2799997 12.459499 0.29800001
-6.21 12.457 0.273
-6.1925001 12.476 0.28549999
-6.1865001 12.5195 0.26199999
-7.027 -10.39075 0.32300001
-6.9905 -10.395 0.32249999
-7.0240002 -10.137 0.30700001
-7.0186667 -10.090334 0.32733333
-6.967 -9.9790001 0.345
-6.9595003 -9.9130001 0.32300001
-6.9383335 -9.9256668 0.31566668
-6.9359999 -9.8789997 0.33200002
-6.9250002 -9.809 0.31999999
-6.9173336 -9.7740011 0.3326667
-6.9206672 -9.717001 0.32499999
-6.9180002 -9.666667 0.33033335
-6.9243336 -9.6166668 0.32233334
-6.9775 -9.5785007 0.32600001
-6.9286666 -9.576334 0.32833335
-6.7128334 -3.4631667 0.32716668
-6.667625 -3.4681251 0.32574999
-6.6211009 -3.4771001 0.32790002
-6.7610002 -3.4460001 0.34900001
-6.7122002 -3.4442003 0.33059999
-6.6989999 -3.4430001 0.30700001
-6.4823084 3.7266154 0.3254616
-6.4723577 3.7720001 0.32185715
-6.4710717 3.824286 0.3265
-6.4499998 3.888 0.31999999
-6.4449997 3.9159999 0.3265
-6.2812495 11.12625 0.329
-6.2260003 11.118751 0.32800001
-6.197 11.134501 0.32800001
-6.1890001 11.167 0.32849997
-6.1860003 11.222667 0.33366665
-6.1459999 11.229 0.34099999
-6.1859999 11.253 0.31900001
-6.2624998 12.4795 0.33500001
-6.2226667 12.462667 0.33033335
-6.9710002 -10.405 0.39899999
-7.0271664 -10.390834 0.37766665
-6.9853334 -10.387333 0.37699997
-7.0079999 -10.038 0.38999999
-6.9520001 -9.8839998 0.36399999
-6.9300003 -9.8773336 0.37766665
-6.9285002 -9.8140001 0.37199998
-6.9189997 -9.7649994 0.37099999
-6.9134998 -9.7194996 0.36949998
-6.9160004 -9.6732006 0.37480003
-6.9099998 -9.6175003 0.38274997
-6.9844999 -9.5529995 0.3565
-6.9180002 -9.5708008 0.3766
-6.9662499 -9.5279999 0.38625002
-6.9330001 -9.5437498 0.37599999
-6.928 -9.2880001 0.38999999
-6.6069999 -3.5805001 0.39750001
-6.7185001 -3.4610002 0.37675002
-6.6753335 -3.4658887 0.37622222
-6.6294999 -3.4786 0.3739
-6.77 -3.4430001 0.37875
-6.7337999 -3.4468 0.37380001
-6.4855385 3.7286155 0.37784612
-6.4743342 3.7743335 0.37566668
-6.4400001 3.9130001 0.39899999
-6.2802501 11.123999 0.37349999
-6.2212496 11.110001 0.37225002
-6.177 11.12175 0.37200001
-6.1469998 11.137 0.38299999
-6.158 11.156 0.361
-6.1469998 11.184 0.384
-6.1589999 11.204 0.36300001
-6.1409998 11.218 0.38499999
-6.158 11.251 0.36399999
-6.9699998 -10.404 0.44299999
-6.9800005 -10.392667 0.42799997
-7.006 -9.9989996 0.43200001
-6.9569998 -9.9280005 0.40700001
-6.9310002 -9.8549995 0.426
-6.9569998 -9.8170004 0.42500001
-6.9326668 -9.8261671 0.42850003
-6.9120002 -9.7539997 0.40200001
-6.9133334 -9.7196674 0.42200002
-6.9115 -9.6815004 0.43099999
-6.9103336 -9.6333332 0.426
-6.909667 -9.5846672 0.43166667
-6.9750004 -9.5050001 0.4165
-6.9176002 -9.5206003 0.42420003
-6.9770002 -9.4910002 0.43700001
-6.9364996 -9.4879999 0.43599999
-6.928 -9.27075 0.42950001
-6.6339998 -3.6029999 0.426
-6.6308575 -3.5798573 0.42685717
-6.6105461 -3.5213637 0.42499998
-6.7272854 -3.4582858 0.40971431
-6.6772504 -3.4638748 0.426
-6.6257272 -3.4770002 0.43027273
-6.5915003 -3.4840002 0.4075
-6.7752495 -3.4371667 0.42299998
-6.7286673 -3.4490001 0.43533334
-6.4489999 3.9189999 0.41299999
-6.177 11.099 0.42699999
-6.2764997 11.1175 0.41799998
-6.2260003 11.1185 0.41725001
-6.1660004 11.106601 0.42700002
-6.1256671 11.121166 0.42650002
-6.1106672 11.162666 0.42733335
-6.0819998 16.898001 0.44600001
-6.9699998 -10.403 0.46399999
-6.9793334 -10.392 0.47933334
-6.9920001 -9.9399996 0.493
-6.9530001 -9.8850002 0.46900001
-6.9280005 -9.802001 0.47333333
-6.9394999 -9.7749996 0.47600001
-6.9289999 -9.7410002 0.48500001
-6.9115 -9.6819992 0.47250003
-6.9056673 -9.626667 0.47400004
-6.9090004 -9.5843334 0.46600002
-6.9095001 -9.5209999 0.48275
-6.9000001 -9.5249996 0.45699999
-6.9726005 -9.4709997 0.47319999
-6.9256668 -9.4728336 0.4761667
-6.8979998 -9.4870005 0.47600001
-6.967 -9.4429998 0.49700001
-6.9252496 -9.2752495 0.46999997
-6.9190001 -9.2410002 0.48899999
-6.7069998 -3.5969999 0.49599999
-6.6710005 -3.5745001 0.47487503
-6.6385002 -3.5685 0.4515
-6.6661673 -3.5235002 0.48450002
-6.6423998 -3.5272 0.45840001
-6.77 -3.451 0.45500001
-6.7196674 -3.4543333 0.47450003
-6.6793637 -3.4673641 0.47245452
-6.6476007 -3.4795997 0.47040007
-6.7788897 -3.4387779 0.47744444
-6.7339997 -3.4432499 0.46649998
-6.2249999 11.093 0.49399999
-6.1009998 11.099 0.49200001
-6.2740002 11.113001 0.47333336
-6.2219996 11.1152 0.46819997
-6.1722498 11.11275 0.48249999
-6.1213331 11.105667 0.47766668
-6.0830002 16.900999 0.477
-6.9439998 -10.405 0.52999997
-6.973 -10.38925 0.51875001
-6.9380002 -10.396 0.50700003
-6.9344997 -9.8234997 0.51950002
-6.9156666 -9.7600002 0.52733338
-6.9289994 -9.7274008 0.53079998
-6.9089999 -9.6780005 0.50300002
-6.9078002 -9.6272001 0.51840001
-6.9050002 -9.5666676 0.52033335
-6.8990002 -9.5939999 0.542
-6.9056664 -9.5216675 0.52566671
-6.908 -9.4773331 0.53066671
-6.9724998 -9.4327507 0.52750003
-6.921 -9.4320002 0.52600002
-6.9324999 -9.2934999 0.52149999
-6.7177501 -3.5732501 0.52575004
-6.6939998 -3.5599999 0.50700003
-6.7167501 -3.5260003 0.53899997
-6.6925998 -3.53 0.51140004
-6.7175717 -3.4664288 0.5301429
-6.6880999 -3.4724998 0.51610011
-6.767333 -3.4394445 0.52844447
-6.7290001 -3.4445 0.5255
-6.2020001 11.098 0.53799999
-6.2635002 11.116501 0.52900004
-6.225667 11.110001 0.52400005
-6.1707497 11.110001 0.52649999
-6.11725 11.1055 0.52574998
-6.1539998 12.793 0.52600002
-6.158 12.83 0.51499999
-6.027 16.7915 0.53649998
-5.9790001 16.795 0.53600001
-6.0743332 16.815001 0.51666665
-6.0180001 16.812 0.50599998
-6.9758334 -10.393167 0.57366663
-6.9373336 -10.394668 0.5726667
-6.9439998 -9.9469995 0.59799999
-6.9305 -9.8715 0.59500003
-6.921 -9.8039999 0.59200001
-6.9159999 -9.7609997 0.56900001
-6.91675 -9.7250004 0.57800001
-6.9250002 -9.6830006 0.58749998
-6.8990002 -9.6280003 0.56400001
-6.902 -9.5979996 0.583
-6.9000006 -9.5716667 0.56833339
-6.902 -9.5290003 0.57999998
-6.8979998 -9.5229998 0.55900002
-6.9084997 -9.4752493 0.57850003
-6.8975 -9.4869995 0.57850003
-6.9195719 -9.412715 0.57028574
-6.895 -9.4139996 0.59600002
-6.9355001 -9.3835001 0.59600002
-6.9359999 -9.2989998 0.55199999
-6.7469997 -3.5664999 0.55700004
-6.7597499 -3.5280001 0.58649999
-6.7358003 -3.5197999 0.56699997
-6.7559996 -3.4660001 0.58749998
-6.7351251 -3.4737499 0.56999999
-6.7396669 -3.4403334 0.57233334
-6.1500001 11.096 0.58099997
-6.2136664 11.103 0.56833339
-6.1739998 11.108667 0.56766665
-6.1187501 11.1085 0.56999999
-6.1919999 12.697 0.59799999
-6.1820002 12.735001 0.58649999
-6.1760001 12.7795 0.56349999
-6.1680002 12.820499 0.56449997
-6.1564999 12.855 0.56550002
-6.1479998 12.894 0.579
-6.0279999 16.793999 0.59850001
-5.9749999 16.784 0.59799999
-5.9440002 16.790001 0.58200002
-6.0675001 16.810501 0.56800002
-6.0139999 16.802999 0.56800002
-5.9819999 16.804001 0.56699997
-6.9499998 -10.414 0.639
-6.9667501 -10.38025 0.6275
-6.9400001 -10.399 0.61699998
-6.9660001 -10.321 0.63599998
-6.9660001 -10.282 0.634
-6.9753332 -10.218666 0.62466669
-6.9790001 -10.167 0.61899996
-6.9050002 -10.153 0.648
-6.9749999 -10.142 0.62900001
-6.9000001 -10.108 0.64600003
-6.9690008 -10.083334 0.61166668
-6.8899999 -10.056 0.64399999
-6.96 -10.045 0.62400001
-6.8850002 -10.011 0.64200002
-6.9525003 -9.9780006 0.61049998
-6.948 -9.9899998 0.62099999
-6.8790002 -9.9659996 0.63999999
-6.875 -9.9230003 0.63800001
-6.9359999 -9.8990002 0.61699998
-6.8670001 -9.8739996 0.63499999
-6.9274998 -9.8309994 0.61399996
-6.8600001 -9.8260002 0.63300002
-6.914 -9.757 0.611
-6.8625002 -9.7749996 0.63100004
-6.9089999 -9.7150002 0.60900003
-6.8559999 -9.7119999 0.62800002
-6.8280001 -9.7440004 0.64899999
-6.9289999 -9.6890001 0.6085
-6.8605003 -9.6645002 0.62599999
-6.8210001 -9.6795006 0.64600003
-6.8579998 -9.6070004 0.62300003
-6.9089999 -9.573 0.60299999
-6.8730001 -9.5755005 0.61199999
-6.8010001 -9.5979996 0.64200002
-6.8000002 -9.5620003 0.63999999
-6.9039998 -9.5319996 0.60100001
-6.8569999 -9.5349998 0.62
-6.7909999 -9.5129995 0.63800001
-6.855 -9.4630003 0.61699998
-6.8439999 -9.4829998 0.61799997
-6.7870002 -9.4729996 0.63599998
-6.8540001 -9.427 0.616
-6.7859998 -9.4370003 0.634
-6.9226665 -9.3720007 0.62233329
-6.8540001 -9.3579998 0.61299998
-6.8439999 -9.3780003 0.61299998
-6.7779999 -9.3909998 0.63200003
-6.9355001 -9.349 0.63549995
-6.8629999 -9.3360004 0.61199999
-6.8169999 -9.3079996 0.63
-6.7770004 -9.321166 0.639
-6.8280001 -9.2889996 0.62900001
-6.7470002 -3.454 0.60000002
-6.342 3.822 0.63800001
-6.191 11.078 0.60399997
-6.1173334 11.097 0.61733335
-6.0826674 11.096334 0.63133335
-6.1662002 11.106001 0.62200004
-6.1199999 11.1105 0.625
-6.2059999 12.727 0.62400001
-6.1830001 12.774668 0.61700004
-6.1684999 12.822001 0.61449999
-6.1595001 12.8605 0.61549997
-6.1459999 12.89 0.60399997
-6.1570001 12.914 0.63
-6.1399999 12.937 0.63099998
-6.0580001 16.737 0.62800002
-6.0180001 16.719999 0.62699997
-5.9829998 16.716 0.62699997
-5.9309998 16.706501 0.62599999
-6.0830002 16.808001 0.60000002
-6.9394999 -10.417999 0.66100001
-6.9282498 -10.372 0.67524999
-6.9305 -10.306499 0.667
-6.9250002 -10.299 0.699
-6.9169998 -10.23825 0.67949998
-6.9060001 -10.193001 0.66100001
-6.9029999 -10.15 0.69099998
-6.8955002 -10.121 0.67900002
-6.888 -10.091 0.667
-6.8754997 -10.035 0.67449999
-6.8725004 -9.993 0.67250001
-6.8634996 -9.9429998 0.66949999
-6.8546667 -9.8806667 0.67033333
-6.849 -9.8850002 0.67699999
-6.8494997 -9.8484993 0.68599999
-6.836 -9.7822504 0.67725003
-6.8234997 -9.7200003 0.66900003
-6.816 -9.6730003 0.68700004
-6.8099999 -9.6459999 0.66500002
-6.803 -9.5649996 0.68199998
-6.7989998 -9.5949993 0.67250001
-6.7883334 -9.5213337 0.67900008
-6.7795 -9.4707508 0.67125005
-6.7746668 -9.4213333 0.67366666
-6.9045 -9.3584995 0.67499995
-6.7590003 -9.3650007 0.671
-6.9143333 -9.3380003 0.67499995
-6.8920002 -9.3409996 0.67400002
-6.8261671 -9.3034992 0.67000002
-6.7721672 -9.3143339 0.67883337
-6.323 3.796 0.68699998
-6.3520002 3.813 0.67699999
-6.1300001 11.089333 0.67633337
-6.0725002 11.0935 0.67900002
-6.1030002 11.102 0.68000001
-6.1873336 12.783668 0.65866667
-6.1704998 12.826 0.66400003
-6.1634998 12.8685 0.66600001
-6.1490002 12.896 0.67900002
-6.158 12.915 0.65499997
-6.1436667 12.963 0.67366666
-5.9759998 16.695999 0.65700001
-5.9224997 16.683498 0.65600002
-6.0690002 16.722 0.67425001
-6.0139999 16.7085 0.6735
-5.9889998 16.731001 0.68900001
-5.9309998 16.7075 0.6875
-5.8829999 16.711 0.68699998
-6.9272223 -10.380666 0.72455561
-6.9315004 -10.3085 0.73199999
-6.9289999 -10.2655 0.7295
-6.96 -10.235 0.71899998
-6.9260001 -10.223 0.72749996
-6.915 -10.169 0.73500001
-6.895 -10.101 0.73100001
-6.8874998 -10.070499 0.71899998
-6.8804998 -10.042 0.72800004
-6.8747501 -9.9872494 0.72500002
-6.8640003 -9.9323339 0.72900003
-6.8559999 -9.8759995 0.72950006
-6.8470001 -9.8264999 0.72650003
-6.8379998 -9.7950001 0.71399999
-6.8267498 -9.7242508 0.72074997
-6.8140001 -9.6520004 0.727
-6.8115001 -9.6215 0.72049999
-6.8045001 -9.5679998 0.73299998
-6.7940001 -9.552 0.70099998
-6.7944999 -9.5179996 0.73049998
-6.7804999 -9.4635 0.72650003
-6.7720003 -9.4179993 0.7245
-6.77 -9.3804998 0.72249997
-6.8930001 -9.3435001 0.72500002
-6.8140001 -9.3040009 0.72000003
-6.7702003 -9.3186007 0.71719998
-6.829 -9.2904997 0.72000003
-6.7820001 -9.2930002 0.72799999
-6.3053336 3.7849998 0.72399998
-6.369 3.8080001 0.73699999
-6.336 3.8039999 0.70200002
-6.0714998 11.091 0.71749997
-6.1059999 11.107 0.736
-6.1852503 12.8275 0.71425003
-6.1719999 12.8855 0.71700001
-6.1570001 12.913 0.71749997
-6.1590004 12.974501 0.72049999
-6.1399999 12.995 0.708
-6.1324997 13.009 0.73400003
-6.0165 16.669001 0.74900001
-5.9705 16.679001 0.73300004
-5.9266672 16.679668 0.72800004
-5.8783336 16.665668 0.73699999
-6.0664997 16.7145 0.72100002
-6.0170002 16.716 0.72000003
-6.902 -10.422 0.79100001
-6.954 -10.381 0.76899999
-6.9250002 -10.390667 0.78299999
-6.8885002 -10.382 0.76700002
-6.9580002 -10.348 0.78899997
-6.9439998 -10.327 0.76599997
-6.941 -10.2845 0.77450001
-6.9239998 -10.2195 0.77100003
-6.9169998 -10.171499 0.76800001
-6.918334 -10.135666 0.77700007
-6.9110003 -10.087 0.78499997
-6.8940001 -10.0245 0.78100002
-6.8865004 -9.9770002 0.778
-6.8804998 -9.9309998 0.7755
-6.8815002 -9.8950005 0.77349997
-6.8669996 -9.8369999 0.76999998
-6.8599997 -9.79 0.77750003
-6.848 -9.7729998 0.77600002
-6.8530002 -9.743 0.77499998
-6.8485003 -9.7369995 0.77450001
-6.8357501 -9.6744995 0.7705
-6.8319998 -9.6420002 0.78899997
-6.8210001 -9.573 0.77524996
-6.869 -9.5349998 0.78500003
-6.8190002 -9.5179996 0.77199996
-6.869 -9.4829998 0.78200001
-6.8049998 -9.4639997 0.75800002
-6.8792505 -9.4187498 0.7845
-6.8179998 -9.448 0.75800002
-6.8874998 -9.3700008 0.78750002
-6.8039999 -9.3929996 0.755
-6.8929996 -9.3435001 0.76550001
-6.8189998 -9.3100004 0.75099999
-6.7895002 -9.3214998 0.75049996
-6.8270001 -9.2880001 0.75
-6.3530002 3.799 0.78100002
-6.3288569 3.7925715 0.77100003
-6.2919998 3.7916667 0.77500004
-6.3839998 3.802 0.79699999
-6.0749998 11.096 0.75599998
-6.0560002 11.107 0.77899998
-6.1802497 12.875 0.76625001
-6.1690001 12.938499 0.76899999
-6.1575003 12.9715 0.7705
-6.1436667 13.022667 0.76833332
-6.1500001 13.076 0.78799999
-6.0190001 16.628 0.778
-5.9790001 16.611 0.77700001
-5.9320002 16.6175 0.77700001
-5.8790002 16.605 0.77499998
-6.9369998 -10.475 0.81699997
-6.934 -10.235 0.80400002
-6.927 -10.186 0.801
-6.9109998 -9.9750004 0.81099999
-6.8870001 -9.9029999 0.80599999
-6.8740001 -9.8459997 0.80199999
-6.8213339 -9.6156673 0.81533337
-6.7761664 -9.6164999 0.82716674
-6.9242496 -9.5764999 0.82025003
-6.8724999 -9.5749998 0.83899999
-6.829143 -9.5671434 0.82642871
-6.7880001 -9.5799999 0.84600002
-6.9219999 -9.5209999 0.80699998
-6.8639998 -9.5459995 0.80599999
-6.9000001 -9.4549999 0.80199999
-6.8889999 -9.4290009 0.83466667
-6.8846664 -9.3776674 0.82466668
-6.3640003 3.7975001 0.82749999
-6.3236003 3.793 0.82439995
-6.3757496 3.8045001 0.82249999
-6.0510001 11.146 0.82499999
-6.0999999 11.188499 0.81799996
-6.1796665 12.921 0.81433332
-6.1630001 12.963333 0.82466668
-6.1535001 13.0235 0.82300001
-6.138 13.069667 0.82100004
-6.1350002 13.101 0.83899999
-6.0283332 16.624001 0.83000004
-5.9835 16.623501 0.824
-5.9295001 16.609501 0.82275003
-5.8800001 16.608 0.80599999
-6.8800001 -9.6040001 0.89300001
-6.7680001 -9.6239996 0.86799997
-6.72925 -9.6212502 0.87699997
-6.8880005 -9.5906677 0.87866664
-6.8197503 -9.5722494 0.87749994
-6.776 -9.5807495 0.87674999
-6.7480001 -9.5939999 0.88599998
-6.8940001 -9.4130001 0.88200003
-6.881 -9.3950005 0.86000001
-6.3779998 3.799 0.875
-6.3460002 3.7939999 0.87099999
-6.2820001 3.7944286 0.87014294
-6.3785996 3.8047998 0.86980003
-6.33325 3.8015001 0.87675005
-6.0840006 11.1835 0.87266672
-6.034667 11.177333 0.88566673
-6.1560001 13.029 0.87400001
-6.1435003 13.0605 0.87549996
-6.1343336 13.120667 0.88266671
-6.1300001 13.153 0.86799997
-5.9700003 16.539501 0.89700001
-6.026 16.556 0.89899999
-6.0180001 16.627001 0.87099999
-5.9829998 16.621 0.87
-5.947 16.613001 0.86900002
-6.8620005 -9.6016674 0.92633337
-6.822 -9.6046667 0.92466664
-6.7193336 -9.6133337 0.91366667
-6.8916664 -9.5956669 0.92033339
-6.765667 -9.5726671 0.91333336
-6.7318001 -9.5860004 0.93020004
-6.895 -9.415 0.90200001
-6.302 3.7980001 0.90600002
-6.3780003 3.8083334 0.91683334
-6.322 3.8143003 0.93250006
-6.2823005 3.8254998 0.91850007
-6.3024998 3.859 0.9425
-6.2804008 3.8760002 0.92430013
-6.309 3.9389999 0.94199997
-6.2814999 3.9173336 0.92033333
-6.0830002 11.189001 0.93233335
-6.0310001 11.17875 0.92599994
-6.1059999 11.2 0.91900003
-6.1584997 13.0925 0.92799997
-6.1424999 13.1175 0.92900002
-6.132 13.176001 0.92799997
-6.1269999 13.207 0.94700003
-6.0170002 16.531 0.92799997
-6.8649998 -9.618 0.95499998
-6.829 -9.6029997 0.95200002
-6.7839999 -9.6110001 0.95099998
-6.869 -9.5880003 0.95300001
-6.802 -9.6000004 0.95099998
-6.7729998 -9.4530001 0.95999998
-6.7224998 -9.4705 0.95899999
-6.869 -9.4139996 0.96200001
-6.8223333 -9.4193335 0.96033335
-6.7915001 -9.4285002 0.97000003
-6.7346663 -9.423667 0.97000003
-6.830667 -9.3843346 0.98566669
-6.7807493 -9.3874998 0.98650002
-6.7299995 -9.3943329 0.99466676
-6.3702006 3.8144002 0.97720003
-6.337182 3.823091 0.97172731
-6.3509998 3.858 0.99400002
-6.3244004 3.8738 0.97610009
-6.2969999 3.8859999 0.963
-6.3520002 3.9349999 0.99900001
-6.324625 3.9241252 0.97412503
-6.3000002 3.9030001 0.95200002
-6.1009998 11.191 0.98500001
-6.0823336 11.187668 0.96933335
-6.0297499 11.17575 0.97049999
-6.138 13.169001 0.98300004
-6.1330004 13.2185 0.986
-5.902 15.954 0.98699999
-5.869 15.9935 0.97299999
-6.7470002 -9.4530001 1.02
-6.823 -9.4200001 1.0216668
-6.7803335 -9.4300003 1.027
-6.8175001 -9.3955002 1.0404999
-6.376091 3.8326368 1.0200001
-6.3597498 3.870625 1.023625
-6.3423338 3.8930001 1.013
-6.0840001 11.18325 1.0174999
-6.0278001 11.177401 1.0217999
-6.1285 13.269 1.0145
-5.9289999 15.9405 1.031
-5.8776665 15.944667 1.0356667
-5.9029999 15.957 1.017
-6.8213329 -9.6100006 1.0766667
-6.7733335 -9.6138334 1.0743333
-6.73 -9.6305714 1.0761428
-6.862 -9.5790005 1.056
-6.8474998 -9.5935001 1.066
-6.8264999 -9.5114994 1.0595
-6.7259998 -9.4239998 1.0779999
-6.822 -9.3850002 1.0599999
-6.7740006 -9.3801994 1.0652001
-6.7255001 -9.3704996 1.074
-6.7240005 -9.3180008 1.09
-6.1025 11.193001 1.086
-6.0665002 11.184999 1.073
-6.0339994 11.18375 1.0769999
-6.1059999 11.2 1.053
-6.1315002 13.275 1.0664999
-6.118 13.308001 1.068
-6.7296667 -9.3143339 1.117
-6.6789999 -9.3232498 1.1258749
-6.1020002 11.193 1.142
-6.0813341 11.185333 1.1259999
-6.0325003 11.181 1.1270001
-6.1186666 13.329666 1.1163334
-5.849 15.811 1.125
-5.8699999 15.909 1.1025
-5.8379998 16.396999 1.131
-6.723 -9.6140003 1.175
-6.6757498 -9.62675 1.189
-6.7216663 -9.3153334 1.1706667
-6.6789999 -9.3234997 1.1637499
-6.6735001 -9.2989998 1.187
-6.1035004 11.1945 1.1755
-6.0764999 11.191999 1.1745
-6.033 11.181999 1.1717499
-6.6690001 -9.6269999 1.214
-6.1059999 11.199 1.232
-6.0784998 11.195 1.2195001
-6.0288005 11.178599 1.2228001
-5.9780002 11.173167 1.2243334
-6.1069999 11.201 1.21
-6.0970001 13.443 1.219
-6.1020002 11.192 1.2539999
-6.0807505 11.1875 1.2750001
-6.0380006 11.1858 1.2776
-5.98175 11.18025 1.28075
-6.1030002 11.192 1.344
-6.0753336 11.189001 1.335
-6.0330005 11.189334 1.3253334
-5.9802499 11.17725 1.3255
-6.1069999 11.201 1.3
-6.0819998 11.201 1.321
-6.1029997 11.1935 1.3775001
-6.0625 11.188499 1.375
-6.0237503 11.18725 1.3674999
-5.9813337 11.186667 1.3743334
-6.086 11.207 1.3890001
-5.8720002 16.221001 1.3940001
-5.8260002 16.2295 1.393
-5.9159999 16.250999 1.397
-6.0609999 11.1855 1.408
-6.0310001 11.185667 1.4219999
-5.9818001 11.1846 1.4222001
-6.1085 11.202 1.424
-6.0830002 11.203 1.434
-5.8724999 16.1775 1.4205
-5.8273335 16.157 1.4380001
-5.7839999 16.157 1.416
-6.0766668 11.189667 1.4770001
-6.0340004 11.190668 1.46
-5.9850001 11.186001 1.472
-6.1085 11.202 1.469
-6.0560002 11.2 1.477
-5.809 16.136999 1.476
-5.8509998 16.164 1.479
-6.7740002 -9.0179996 1.548
-6.105 11.196 1.5245
-6.0634999 11.1905 1.544
-6.0244999 11.1885 1.5305001
-5.9754004 11.181801 1.5290002
-5.9380002 11.167 1.512
-5.8210001 16.08 1.5319999
-5.8345003 16.161499 1.5089999
-6.776 -8.9560003 1.561
-6.7347999 -8.9598007 1.5704001
-6.7762003 -8.9300003 1.5904001
-6.7259998 -8.9379997 1.595
-6.6960001 -8.9460001 1.5930001
-6.0650001 11.193 1.5785
-6.0193338 11.194 1.579
-5.9776664 11.179667 1.5676668
-5.927 11.16975 1.573
-6.1114998 11.2075 1.5825
-6.0690002 11.2 1.579
-6.7639999 -8.9569998 1.6205001
-6.7206664 -8.9580002 1.6233333
-6.6999998 -8.9519997 1.6339999
-6.7750006 -8.9330006 1.6316667
-6.743 -8.9440002 1.637
-6.1064997 11.198 1.6259999
-6.072 11.197001 1.6203334
-6.0206671 11.196667 1.617
-5.9803333 11.184 1.6206667
-5.9365001 11.176 1.63025
-6.059 11.205 1.635
-6.677 -8.9540005 1.652
-6.774334 -8.9320002 1.665
-6.7254 -8.9282007 1.6653999
-6.6859999 -8.944334 1.665
-6.7660003 -8.8673344 1.6833334
-6.7214999 -8.868 1.6854999
-6.6789999 -8.8759995 1.683
-6.6302004 -8.8844004 1.6911999
-6.1069999 11.199 1.66
-6.0664997 11.195 1.6575
-6.0255003 11.1905 1.6655
-5.9853334 11.185 1.6738334
-5.928 11.171499 1.6800001
-6.0700002 11.201 1.681
-6.7215714 -8.8611431 1.7217145
-6.6728568 -8.8748579 1.7245716
-6.619 -8.8762503 1.7265
-6.5949998 -8.8760004 1.715
-6.737 -8.8400002 1.743
-6.06075 11.196 1.7302501
-6.0220003 11.183 1.732
-5.9802499 11.17625 1.7284999
-5.928 11.171749 1.7244999
-6.0840001 11.203 1.7160001
-6.0359998 11.208 1.702
-6.7212 -8.8580008 1.7758001
-6.666667 -8.8653336 1.766
-6.6208 -8.8723011 1.7778
-6.5740004 -8.8810005 1.7726667
-6.7075 -8.8175001 1.7969999
-6.6710005 -8.8390007 1.7896667
-6.7290001 -8.7810001 1.7945
-6.0644999 11.1915 1.781
-6.0289998 11.196 1.768
-5.9778004 11.1846 1.7722
-5.9263339 11.175667 1.7736667
-6.0740004 11.209 1.784
-6.0320001 11.202 1.791
-5.927 15.931 1.7920001
-6.5780001 -8.8059998 1.8025
-6.7184997 -8.7679996 1.82125
-6.6742005 -8.7770004 1.8238001
-6.6206656 -8.783 1.8234444
-6.5697503 -8.7944994 1.8295
-6.7360001 -8.743 1.83
-6.7140002 -8.3170004 1.829
-6.6869998 -8.3129997 1.826
-6.7253332 -8.2733335 1.825
-6.6659999 -8.2580004 1.835
-6.6133337 -8.2616673 1.8363333
-6.5736003 -8.2662001 1.8377999
-6.6905003 -8.2444992 1.8364999
-6.6399999 -8.2410002 1.8399999
-6.0290003 11.1955 1.8245001
-5.973 11.18525 1.8192501
-5.9229999 11.185 1.8049999
-6.0722504 11.20575 1.8285
-6.007 11.201 1.812
-5.9219999 15.916 1.8200001
-5.8920002 15.924 1.849
-6.612 -8.8030005 1.865
-6.5795002 -8.8079996 1.862
-6.7234001 -8.7712011 1.8676001
-6.6785998 -8.7764006 1.8716
-6.6272497 -8.7762499 1.87225
-6.5794001 -8.7849989 1.8902
-6.718143 -8.214572 1.873143
-6.6741667 -8.2248335 1.8698334
-6.6230001 -8.2301435 1.8730001
-6.5774293 -8.235857 1.8795714
-6.5298338 -8.2401667 1.8813334
-5.8775001 11.1465 1.8755
-5.974 11.187 1.899
-5.9239998 11.186 1.895
-5.9569998 11.201 1.899
-5.888 15.912 1.878
-6.6689997 -8.7670002 1.905
-6.6295004 -8.7795 1.9024999
-6.6234999 -8.2049999 1.9089999
-6.5639997 -8.2047501 1.92575
-6.527 -8.2196007 1.9247999
-6.6760006 -8.1804447 1.9252222
-6.6332502 -8.19625 1.92275
-6.5862002 -8.1884003 1.9380001
-6.533 -8.1945 1.9349999
-5.8990002 11.093 1.948
-5.8666668 11.125 1.928
-6.0139999 11.191 1.9135
-5.9768004 11.182401 1.9298
-5.9250002 11.188 1.918
-5.9629998 11.213 1.946
-5.934 11.206 1.943
-6.5029998 -8.2019997 1.961
-6.6749997 -8.1681252 1.9786249
-6.6291671 -8.1793327 1.9723333
-6.5796008 -8.1865997 1.975
-6.5300002 -8.191 1.9717499
-6.6919999 -8.1459999 1.956
-5.9489999 11.047 1.99
-5.9699998 11.085 1.975
-5.9201999 11.0668 1.9732001
-5.875 11.063334 1.9796667
-5.9679999 11.129 1.9579999
-5.8850002 11.113 1.972
-6.0539999 11.194 1.973
-6.0255003 11.1885 1.9595001
-5.9260001 11.19 1.9630001
-5.8715 15.825 1.9875
-5.8499999 15.809 1.955
-6.6729999 -8.2679996 2.0480001
-6.6289997 -8.257 2.0405002
-6.5929999 -8.2559996 2.036
-6.5236664 -8.2576675 2.0283334
-6.6773338 -8.234333 2.0306668
-6.6290002 -8.2275 2.0174999
-6.5700006 -8.2270002 2.0163336
-6.5190001 -8.2223339 2.0033336
-5.9330001 10.993999 2.0485001
-5.8979998 10.997 2.046
-5.9703341 11.023666 2.026
-5.9250002 11.025 2.01875
-5.8715 11.018167 2.0251667
-6.0120001 11.07 2.0209999
-6.013 11.119 2.0050001
-5.8559999 15.742 2.0369999
-5.895 15.759 2.0409999
-5.8734999 15.8295 2.0180001
-6.651 -8.3290005 2.0739999
-6.6059999 -8.3009996 2.0639999
-6.5349998 -8.302 2.056
-6.5665002 -8.2975006 2.0585001
-6.5089998 -8.2980003 2.052
-5.994 10.945 2.0910001
-5.9699998 10.97025 2.0814998
-5.9214997 10.972 2.0782499
-5.8723335 10.965334 2.0696666
-5.9809999 11.012 2.0550001
-5.8734999 15.7445 2.0680001
-6.5143332 -8.6103334 2.139667
-6.678 -8.5749998 2.1340001
-6.612 -8.5830002 2.1470001
-6.5799999 -8.5874996 2.1440001
-6.546 -8.5900002 2.1400001
-6.513 -8.5469999 2.1489999
-5.9685001 10.9205 2.1300001
-5.9247146 10.922429 2.1300001
-5.8710003 10.924167 2.1224999
-5.9864998 10.9545 2.1140001
-5.8474998 10.973499 2.1055
-5.8389997 11.026 2.1240001
-5.8400002 11.0735 2.1315
-5.8809996 15.764999 2.1005001
-6.6723337 -8.567667 2.1520002
-6.6389999 -8.585 2.151
-6.5159998 -8.5830002 2.155
-6.4895 -8.5939999 2.154
-6.6733336 -8.5180006 2.1573334
-6.6199999 -8.5159998 2.16675
-6.5705724 -8.5200005 2.1687145
-6.5255003 -8.5268345 2.1698337
-6.6704998 -8.4892502 2.17875
-6.6290007 -8.4920006 2.187
-6.592 -8.4949999 2.1889999
-5.8639998 10.843 2.198
-5.9783998 10.879601 2.1826
-5.9187498 10.87525 2.1747501
-5.8702497 10.877 2.171
-5.9864998 10.908 2.152
-5.8565001 10.921499 2.177
-5.8470001 10.9485 2.1799998
-5.8372498 10.988251 2.16875
-5.8499999 11.046 2.184
-5.8315001 11.0815 2.188
-5.8755002 15.664499 2.177
-6.6245003 -8.5142498 2.2210002
-6.5669999 -8.5152855 2.2257144
-6.5278335 -8.5305004 2.2263334
-6.4816675 -8.5320005 2.2238333
-6.6239996 -8.4899998 2.2315001
-6.0089998 10.836 2.2320001
-5.9744 10.827001 2.2322001
-5.9302502 10.82775 2.22925
-5.8730006 10.8228 2.2314003
-5.9990001 10.863 2.2130001
-5.9300003 10.8505 2.2160001
-5.8664999 10.87 2.2192497
-5.8530002 10.9135 2.22
-5.8535004 10.9615 2.2275
-5.8459997 10.9925 2.2315001
-5.8464999 11.0395 2.2165
-5.8429999 11.08 2.211
-5.862 11.115 2.2409999
-5.8225002 11.112751 2.2260001
-5.8509998 15.642 2.2030001
-6.6079998 -8.5170002 2.2539999
-6.5734997 -8.5179996 2.2690001
-6.5180001 -8.5166006 2.2694001
-6.47575 -8.5292501 2.26825
-6.6330004 -8.493 2.2644
-6.5706668 -8.4776669 2.2746668
-6.5370002 -8.4849997 2.2780001
-6.6293998 -8.4158001 2.2865999
-6.5786004 -8.4229994 2.2848001
-6.5256667 -8.4396667 2.2883334
-6.4689999 -8.4424992 2.2814999
-6.0120001 10.796 2.293
-5.9663334 10.787333 2.2800002
-5.9165001 10.7795 2.2814999
-5.8814998 10.772499 2.2827501
-6.0139999 10.8 2.2709999
-5.993 10.807 2.2709999
-5.9285002 10.802 2.2639999
-5.8664999 10.824499 2.2735002
-5.8585 10.878 2.2810001
-5.8575001 10.922 2.277
-5.8499999 10.908 2.2739999
-5.8540001 10.962 2.2725
-5.849 10.998 2.289
-5.8559999 11.011 2.2690001
-5.848 11.042 2.2509999
-5.875 11.093 2.2839999
-5.862 11.1145 2.2750001
-5.8259997 11.119 2.2725
-6.6275001 -8.4196672 2.3280001
-6.5710001 -8.4224997 2.3109999
-6.5370002 -8.4239998 2.3069999
-5.9775 10.734249 2.3352501
-5.928 10.73325 2.33025
-5.8829994 10.726667 2.3286667
-5.9825001 10.765 2.3069999
-5.9309998 10.761499 2.302
-5.86625 10.778999 2.3322501
-5.8653336 10.829 2.3146667
-5.8635001 10.886499 2.3274999
-5.8590002 10.9255 2.3340001
-5.8559999 10.9655 2.3180001
-5.881 11.058 2.3239999
-5.8727498 11.11175 2.32075
-5.830667 11.120001 2.3143334
-5.9685001 10.695499 2.3829999
-5.9200001 10.688334 2.3846667
-5.8793335 10.674667 2.3860002
-5.9820004 10.7195 2.3659999
-5.9250002 10.705 2.3585
-5.8766665 10.715 2.3633332
-5.8699999 10.7625 2.3740001
-5.8667502 10.82425 2.3787501
-5.8666668 10.877334 2.3746667
-5.8730001 10.95 2.3729999
-5.8850002 11.019 2.3629999
-5.9134998 11.1195 2.3710001
-5.8714004 11.1138 2.3729999
-5.8253336 11.117001 2.3738334
-5.9815001 10.632999 2.4400001
-5.9215002 10.632999 2.434
-5.9767504 10.667 2.41225
-5.9312496 10.66175 2.418
-5.8813338 10.663668 2.4206667
-5.8782501 10.72075 2.42875
-5.8715 10.7655 2.4190001
-5.869 10.8055 2.4254999
-5.8676672 10.864 2.4250002
-5.8740001 10.907 2.4330001
-5.8839998 10.971 2.4000001
-5.8255 11.0935 2.4264998
-5.9228001 11.108601 2.4220002
-5.8764 11.1136 2.4277999
-5.809 11.109 2.428
-5.967 10.585501 2.4850001
-5.9266005 10.5904 2.4798
-5.8920002 10.58 2.4879999
-5.98 10.630501 2.4614999
-5.9235001 10.615499 2.4530001
-5.8877501 10.627 2.4684999
-5.882 10.68 2.4749999
-5.8765001 10.7285 2.48
-5.8723335 10.766668 2.4750001
-5.8730001 10.813 2.4724998
-5.8779998 10.867 2.471
-5.8860002 10.929 2.46
-5.902 11.097 2.4909999
-5.8629999 11.092 2.4749999
-5.9604998 11.114 2.4654999
-5.92275 11.112499 2.473
-5.8730001 11.111 2.4795001
-5.8227501 11.1115 2.4744999
-5.9829998 10.548 2.5355
-5.9250002 10.539001 2.5350003
-5.8944998 10.5425 2.536
-5.9796667 10.578334 2.5113335
-5.9200001 10.5665 2.5105
-5.8885002 10.573999 2.5194998
-5.8886671 10.632 2.5263333
-5.8835001 10.675 2.52075
-5.8754997 10.7275 2.5235
-5.8744998 10.7715 2.5314999
-5.8855 10.8365 2.5225
-5.8969998 10.902 2.5009999
-5.9260001 11.096 2.539
-5.8785 11.076 2.5190001
-5.8385 11.0945 2.5184999
-5.7874999 11.0925 2.5250001
-5.9663334 11.123668 2.5246668
-5.9349999 11.113 2.52
-5.855 11.101 2.51
-5.8143339 11.104 2.5216665
-5.9755001 10.4925 2.5904999
-5.9264998 10.4915 2.585
-5.9827499 10.52675 2.5645001
-5.9376669 10.518667 2.562
-5.8986664 10.52 2.5799999
-5.9130001 10.575 2.5769999
-5.8944998 10.584499 2.566
-5.8866668 10.627667 2.5770001
-5.8796668 10.675001 2.5703335
-5.8863335 10.732333 2.5740001
-5.8959999 10.81 2.5739999
-5.9099998 11.065666 2.5770001
-5.8736 11.0802 2.5672002
-5.8249998 11.092 2.5739999
-5.7896667 11.088 2.585
-5.9575 11.1075 2.5774999
-5.8610001 11.114 2.559
-5.8309999 11.104 2.5769999
-5.7651668 11.119834 2.5695002
-6.3920002 -7.8920002 2.6270001
-6.4109998 -7.7220001 2.6329999
-5.9124999 10.445499 2.6294999
-5.9777498 10.464 2.6294999
-5.9285717 10.473715 2.6227145
-5.9060001 10.518499 2.6209998
-5.8915 10.537001 2.6230001
-5.8940001 10.5835 2.6324999
-5.9070001 10.607 2.605
-5.8889999 10.6175 2.6159999
-5.8843336 10.668334 2.6283336
-5.8909998 10.711 2.6229999
-5.8909998 10.757 2.609
-5.9510002 11.095 2.632
-5.9223337 11.072333 2.6253335
-5.8737497 11.08425 2.6226251
-5.8375001 11.092 2.6205001
-5.7781997 11.088401 2.6278
-5.8330002 11.106 2.6459999
-5.7820001 11.39 2.6240001
-5.7840004 11.4195 2.618
-6.526 -7.7509999 2.6960001
-6.4656668 -7.7066669 2.677
-6.4263334 -7.7140002 2.6530001
-6.3784003 -7.7168002 2.664
-6.4197502 -7.6929998 2.6760001
-6.3747501 -7.6932497 2.6865001
-5.9189997 10.393499 2.6859999
-5.9715004 10.421 2.66975
-5.9200001 10.4265 2.6707499
-5.9060001 10.4755 2.6789999
-5.9070001 10.521 2.6989999
-5.9000001 10.5085 2.6620002
-5.9029999 10.556499 2.6719999
-5.8955002 10.5865 2.677
-5.8893332 10.632667 2.6743333
-5.8850002 10.669333 2.6656668
-5.9297996 11.074201 2.6768003
-5.8754001 11.0834 2.6773999
-5.8303337 11.085667 2.6796665
-5.7865 11.089251 2.67225
-5.7610002 11.3 2.6634998
-5.7859998 11.3985 2.6730001
-5.7820005 11.423334 2.6690001
-5.6560001 13.996 2.6919999
-5.6719999 14.1095 2.671
-6.4820004 -7.7259998 2.7309999
-6.4385004 -7.7014999 2.7179999
-6.4549999 -7.6669998 2.7420001
-6.4140005 -7.6717501 2.7312498
-6.3751998 -7.6690001 2.7247999
-5.9310002 10.371 2.7267499
-5.9126663 10.423666 2.7241666
-5.9099998 10.483 2.7244999
-5.9049997 10.5165 2.7309999
-5.9045 10.58075 2.721
-5.9060001 10.647 2.701
-5.8930001 10.624 2.717
-5.9233336 11.073668 2.7250001
-5.8829999 11.084249 2.7262502
-5.8320003 11.072668 2.7153335
-5.7802005 11.082 2.7226002
-5.8299999 11.1 2.7360001
-5.7649999 11.308 2.7
-5.7849998 11.396 2.7179999
-5.783 11.4295 2.7305002
-5.776 11.479 2.733
-5.7930002 11.512 2.7179999
-5.7610002 13.18 2.747
-5.7214999 13.1835 2.7444999
-5.6719999 13.195499 2.7424998
-5.7364998 13.283 2.737
-5.704 13.302 2.7379999
-5.6675 13.314501 2.7375
-5.7129998 13.389 2.727
-5.7459998 13.4 2.7320001
-5.6844997 13.419001 2.7305
-5.7080002 13.51 2.721
-5.6730003 13.525499 2.7214999
-5.7020001 13.628 2.714
-5.6750002 13.631 2.7130001
-5.658 13.66 2.717
-5.6875 13.764999 2.71
-5.6669998 13.886 2.7019999
-6.5065002 -7.6875 2.7649999
-6.4650002 -7.652 2.76
-6.4284997 -7.6560001 2.7632499
-6.3762002 -7.6649995 2.7690001
-6.5095 -7.6360002 2.7925
-6.4674006 -7.6329994 2.7858002
-6.4203334 -7.6436667 2.7810001
-6.3822498 -7.6342497 2.7922499
-5.9340005 10.326 2.7760003
-5.915 10.3645 2.7674999
-5.9165001 10.43075 2.7809999
-5.9099998 10.4825 2.7685001
-5.9095001 10.5245 2.777
-5.9054999 10.560499 2.7614999
-5.9039998 10.601 2.7579999
-5.9169998 10.668 2.7509999
-5.8830004 11.091667 2.77
-5.8250003 11.09125 2.7735
-5.7768002 11.0846 2.7775998
-5.7313337 11.084667 2.7836666
-5.8845 11.1095 2.7775002
-5.7789998 11.384 2.7620001
-5.7779999 11.4315 2.7835
-5.7719998 11.4695 2.766
-5.8699999 12.139 2.7950001
-5.8199997 12.172 2.796
-5.7754998 12.188999 2.7955
-5.8590002 12.226 2.7850001
-5.73 12.202499 2.7944999
-5.697 12.217 2.7939999
-5.8509998 12.264 2.7920001
-5.8249998 12.265 2.79
-5.7806664 12.283333 2.7890003
-5.7340002 12.295 2.7869999
-5.7160001 12.314 2.789
