# .PCD v0.7 - Point Cloud Data file format
VERSION 0.7
FIELDS x y z
SIZE 4 4 4
TYPE F F F
COUNT 1 1 1
WIDTH 1737
HEIGHT 1
VIEWPOINT 0 0 0 1 0 0 0
POINTS 1737
DATA ascii
6.2713332 2.7453334 -1.3803334
6.2173886 2.768611 -1.3772223
6.2670002 2.75 -1.3839999
6.1960001 2.835 -1.378
6.2171335 2.8240669 -1.3739333
6.2146244 2.8768122 -1.3784997
6.2147698 2.925154 -1.3727694
6.2232003 2.9758 -1.3768668
6.2171431 3.0235002 -1.376143
6.1989999 3.05 -1.359
6.21875 3.0772502 -1.37675
6.2215714 3.1228571 -1.3742144
6.2264996 3.1745832 -1.3743334
6.2259288 3.2229285 -1.3750002
6.228857 3.2742858 -1.3774287
6.2346659 3.3197777 -1.3784444
6.2490001 3.3510001 -1.383
6.2665 3.3604999 -1.38
6.434 4.198 -1.388
6.7989998 9.3269997 -1.388
6.8252497 9.3287506 -1.3805001
6.8304996 9.3540001 -1.3525
6.8660002 9.3500004 -1.375
6.9060001 9.3699999 -1.4
6.9039998 9.4020004 -1.362
7.3579998 16.181999 -1.3745
7.4200001 17.2265 -1.3685
7.4689999 17.215 -1.369
5.276 -8.3529997 -1.3099999
5.2490001 -8.3409996 -1.307
5.2950001 -8.3500004 -1.311
5.1849999 -8.2729998 -1.312
5.218667 -8.2616673 -1.313
5.2490001 -8.2449999 -1.313
5.2795 -8.2445002 -1.3155
5.309 -8.2123337 -1.314
5.1339998 -8.1929998 -1.316
5.1709995 -8.1705008 -1.3164999
5.2183337 -8.133667 -1.3156667
5.2609997 -8.1219997 -1.3175
5.1254997 -8.0664997 -1.318
5.1659999 -8.052 -1.319
5.1409998 -8.0430002 -1.316
5.178 -8.0249996 -1.3175
5.2145 -8.0200005 -1.3195
5.1560001 -7.915 -1.319
5.3859997 -7.1800003 -1.3333334
5.3369999 -7.1269999 -1.3385
5.3695002 -7.118 -1.3399999
5.2940001 -7.0570002 -1.342
5.309 -7.0510001 -1.342
5.388 -7.0904999 -1.3385
5.3339996 -7.0323334 -1.3426666
5.3635001 -7.0080004 -1.3425
5.2410002 -6.9860001 -1.344
5.2737503 -6.9662504 -1.3447499
5.3860002 -6.9855003 -1.3415
5.4193335 -6.9656668 -1.3426666
5.2550001 -6.9029999 -1.35
5.3242502 -6.9309998 -1.3447499
5.355 -6.908 -1.345
5.2319999 -6.8979998 -1.348
5.2720003 -6.8759995 -1.3486667
5.3745003 -6.8955002 -1.3455
5.4142504 -6.8705006 -1.346
5.2839999 -6.842 -1.345
5.31775 -6.8227501 -1.3464999
5.2656665 -6.7683334 -1.3500001
5.3449998 -6.7950001 -1.346
5.3779998 -6.7873335 -1.348
5.4064999 -6.7620001 -1.3475001
5.4295001 -6.7434998 -1.3475001
5.5100002 -4.6110001 -1.349
5.527667 -4.5933332 -1.3493333
6.1870003 1.5935 -1.349
6.1911817 1.6263638 -1.3192728
6.1949997 1.6705 -1.3085001
6.1950002 1.734 -1.3234999
6.2100005 1.7238001 -1.3244668
6.1929998 1.763 -1.313
6.2128673 1.7745332 -1.3238667
6.198 1.846 -1.319
6.2137899 1.8258946 -1.3269472
6.198 1.87 -1.309
6.216125 1.872375 -1.326875
6.2276669 2.7433336 -1.3225
6.2801247 2.7446249 -1.3267499
6.2143888 2.7739449 -1.3264444
6.2148676 2.8258002 -1.325
6.2146873 2.8771248 -1.3287501
6.2188582 2.9279284 -1.3232857
6.2195621 2.9761875 -1.3246875
6.2180672 3.0273335 -1.3306668
6.2167506 3.0752501 -1.325
6.2244 3.1256669 -1.3278668
6.2238007 3.1766667 -1.3269335
6.2267861 3.2236431 -1.3227857
6.2269998 3.2763751 -1.3273749
6.2314544 3.3263638 -1.3272728
6.2470002 3.3499999 -1.344
6.8279996 9.3847504 -1.3245
6.8645 9.3835001 -1.3264999
7.3295002 16.156 -1.325
7.4580002 17.190001 -1.334
7.428 17.204 -1.334
7.526 17.266001 -1.308
5.0139999 -10.106 -1.277
5.0799999 -10.104 -1.281
5.0380001 -10.0865 -1.2765
5.0890002 -10.079 -1.278
5.1149998 -10.065 -1.2785001
5.1389999 -10.048 -1.278
4.9790001 -9.9254999 -1.2765
5.0345001 -9.9069996 -1.278
5.086 -9.9029999 -1.28
5.1090002 -9.9049997 -1.2819999
4.9959998 -9.8959999 -1.275
5.0609999 -9.8959999 -1.278
5.1170001 -9.8809996 -1.279
5.1160002 -9.8369999 -1.275
5.1260004 -9.7719994 -1.2690001
4.9850001 -9.5640001 -1.2685
5.027 -9.5629997 -1.2609999
5.0650001 -9.5616665 -1.2693334
5.1009998 -9.5629997 -1.265
5.0159998 -9.5419998 -1.2774999
5.0819998 -9.5469999 -1.2815
5.0170002 -9.4049997 -1.2819999
6.191 1.6423334 -1.2903333
6.1937146 1.6747142 -1.275143
6.1960001 1.7220001 -1.2718
6.1954999 1.7695 -1.279
6.2114992 1.7737858 -1.275643
6.1950002 1.8329999 -1.294
6.2133527 1.8215293 -1.2750001
6.197 1.882 -1.2970001
6.2122726 1.8715457 -1.2755909
6.2157497 1.9168334 -1.2716668
6.2135 2.7459998 -1.2934999
6.2764997 2.7480001 -1.28625
6.2200718 2.7733569 -1.281
6.2595 2.7535 -1.2715
6.2217269 2.8248181 -1.2828181
6.2880001 2.8380001 -1.27
6.2195377 2.8767693 -1.2853845
6.2966666 2.8690002 -1.274
6.2200003 2.9301429 -1.2854286
6.2923331 2.9333334 -1.2786667
6.2175717 2.9750001 -1.2868572
6.2852855 2.9827144 -1.2701428
6.3056669 2.967 -1.2665
6.2203002 3.0297 -1.2889001
6.2769175 3.0231667 -1.27125
6.197 3.063 -1.298
6.216167 3.0683334 -1.2868333
6.2711248 3.0708749 -1.263625
6.2293334 3.1223333 -1.2913334
6.2767272 3.1205451 -1.2700911
6.2297502 3.1642499 -1.293
6.25 3.171 -1.29
6.3260002 3.1823335 -1.2913334
6.2360001 3.2255001 -1.29275
6.2550001 3.201 -1.294
6.3167496 3.22575 -1.2934999
6.2356672 3.2743335 -1.2970001
6.2930002 3.29 -1.295
6.309 3.2703333 -1.2956667
6.2273331 3.3113334 -1.2986667
6.2842503 3.3205001 -1.29625
6.2810001 3.3540001 -1.298
6.8280001 9.4029999 -1.295
6.8520002 9.4179993 -1.278
6.888 9.4499998 -1.283
7.3579998 16.181999 -1.2815001
7.4289999 17.164249 -1.2827499
7.4850001 17.17 -1.268
6.1829996 1.6784999 -1.2425001
6.1956 1.717 -1.2248
6.1942 1.7678 -1.2227999
6.1989999 1.812 -1.247
6.2107496 1.82415 -1.2224002
6.1966667 1.882 -1.2273333
6.2107697 1.875077 -1.2202308
6.2151175 1.9270589 -1.2279412
6.2221818 1.9725456 -1.2186364
6.2891111 2.9878888 -1.2252222
6.3117003 2.9672 -1.2302002
6.277235 3.0258236 -1.2257059
6.2785006 3.0753334 -1.2266668
6.283083 3.1198335 -1.22225
6.7399998 9.4879999 -1.215
6.7684999 9.4759998 -1.216
6.8194003 9.4672003 -1.2308
6.8716674 9.4750004 -1.2290001
6.7319999 9.5120001 -1.217
6.8614998 9.5015001 -1.2035
6.7410002 9.5950003 -1.204
7.0339999 12.811 -1.219
7.3150001 16.163 -1.232
7.3585 16.182999 -1.219
7.4260001 17.117001 -1.23
7.4640002 17.122999 -1.232
6.1937499 1.7689999 -1.17125
6.1960001 1.8143333 -1.1730001
6.210084 1.8225001 -1.17275
6.2109008 1.8742001 -1.1766001
6.2168417 1.9278423 -1.1746843
6.198 1.977 -1.197
6.2167063 1.9748822 -1.1742353
6.1950002 2.0109999 -1.152
6.2262497 2.0139999 -1.1706251
6.286715 2.987143 -1.1852858
6.3122311 2.9701538 -1.1739231
6.2783122 3.0251248 -1.1769373
6.2760768 3.0743077 -1.1750001
6.2829227 3.1219232 -1.1709231
6.3189998 3.1659999 -1.175
6.7909999 9.4910002 -1.198
6.8200002 9.4949999 -1.2
6.8720002 9.4989996 -1.183
6.7300005 9.5203342 -1.1900001
6.7697139 9.5198574 -1.1757143
6.8272505 9.5232496 -1.1720001
6.8530002 9.5080004 -1.183
6.7350006 9.5687494 -1.1705
6.8839998 9.5509996 -1.1670001
6.7325001 9.6195002 -1.1745
6.7353334 9.6713333 -1.182
6.743 9.7250004 -1.16275
6.7469997 9.7860003 -1.168
6.7509999 9.8280001 -1.161
6.994 10.578 -1.168
7.0300002 12.749 -1.189
7.0370002 12.763 -1.164
7.0619998 12.755 -1.165
7.0360003 12.815001 -1.181
7.0283337 12.872333 -1.1806667
7.3179998 16.169001 -1.17
7.3499999 16.165001 -1.171
7.4274998 17.08 -1.1635001
7.428 17.122999 -1.198
7.4569998 17.107 -1.198
6.1849999 1.796 -1.105
6.1989999 1.806 -1.1305
6.197 1.8940001 -1.1109999
6.2114735 1.8750525 -1.1267896
6.198 1.924 -1.1129999
6.2116427 1.9253573 -1.1237859
6.2246442 2.0244999 -1.1267858
6.2841434 2.9879999 -1.1297144
6.2785621 3.0254374 -1.1255
6.2773075 3.0736921 -1.1270001
6.2791429 3.1220002 -1.1234287
6.2919998 3.152 -1.1129999
6.7820001 9.5469999 -1.14
6.8120003 9.5375004 -1.1415
6.8676672 9.5396671 -1.138
6.7397499 9.5757504 -1.1300001
6.7772503 9.5672503 -1.1210001
6.8247499 9.5722504 -1.11375
6.8716669 9.5793333 -1.1136668
6.7319999 9.6183338 -1.1226667
6.7373333 9.6620007 -1.1263334
6.744 9.7262497 -1.12125
6.7390003 9.7744999 -1.125
6.7460003 9.8204994 -1.1289999
6.7459998 9.8579998 -1.1210001
6.7519999 9.8669996 -1.101
6.9272499 10.575999 -1.1317501
6.9814997 10.57875 -1.1290001
7.0450001 12.777 -1.14
7.0776668 12.766668 -1.1236668
7.0395002 12.8215 -1.13
7.0599999 12.805 -1.117
7.0334997 12.865 -1.133
7.0374999 12.9245 -1.1375
7.3060002 16.143999 -1.1059999
7.3119998 16.157 -1.138
7.3585 16.1835 -1.1255
7.4230003 17.0695 -1.13
6.197 1.8226666 -1.0883334
6.1890001 1.8559999 -1.096
6.2087007 1.8748 -1.074
6.1989999 1.906 -1.066
6.2123852 1.9268463 -1.0768461
6.2181582 1.9752107 -1.0753158
6.2233334 2.0267224 -1.0755554
6.2280002 2.1059999 -1.057
6.2882733 2.9860914 -1.0787272
6.2798123 3.0293753 -1.0777498
6.278091 3.074091 -1.0766364
6.3010001 3.0739999 -1.077
6.2750001 3.1183081 -1.0703077
6.2956672 3.154 -1.0779999
6.7375002 9.5909996 -1.09
6.7706671 9.5903339 -1.0880001
6.8264999 9.5925007 -1.0845
6.869 9.5819998 -1.086
6.7395 9.6295004 -1.072
6.7714996 9.6210003 -1.063
6.8155003 9.6124992 -1.0645001
6.8754997 9.6259995 -1.069
6.7385001 9.68225 -1.0762501
6.7379999 9.7364998 -1.0805
6.7426672 9.7810001 -1.0736667
6.7480001 9.8240004 -1.056
6.7515001 9.8290005 -1.0880001
6.7460003 9.8775005 -1.0599999
6.7519999 9.8669996 -1.08
6.9439998 10.582 -1.1
6.9833336 10.575001 -1.079
7.079 12.786 -1.091
7.1150007 12.781001 -1.0833334
7.1729999 12.797 -1.069
7.0374999 12.818 -1.0785
7.073667 12.812 -1.0756667
7.1490002 12.806 -1.069
7.0425 12.8825 -1.0829999
7.0389996 12.9275 -1.0855
7.0279999 12.961 -1.075
7.3039999 16.138 -1.075
7.3559999 16.177999 -1.0779999
7.4169998 17.015499 -1.0780001
6.1960001 1.882 -1.018
6.2903748 2.9872499 -1.0268749
6.2815628 3.0236251 -1.0265
6.2762156 3.0746434 -1.0290002
6.2797866 3.1224999 -1.0217143
6.2915001 3.152 -1.0250001
6.3330002 3.915 -1.012
6.38375 3.9235001 -1.01875
6.7480001 9.6420002 -1.043
6.7773333 9.6360006 -1.0370001
6.8280001 9.6300001 -1.046
6.8664999 9.6315002 -1.0325
6.736167 9.6791668 -1.0243334
6.7733335 9.6656666 -1.0113333
6.823 9.6590004 -1.0165
6.8780003 9.6654997 -1.02
6.7416668 9.7420006 -1.029
6.7364998 9.7714996 -1.0204999
6.7410002 9.8134995 -1.0235
6.7440004 9.8686666 -1.031
6.7480001 9.9350004 -1.022
6.7539997 9.9255009 -1.0109999
7.0450001 12.832 -1.041
7.0679998 12.819 -1.041
7.1240005 12.8254 -1.0333999
7.1900001 12.829 -1.046
7.0345001 12.867001 -1.0304999
7.0704999 12.851999 -1.0174999
7.1739998 12.851 -1.021
7.0345001 12.92 -1.0335
7.0360003 12.976 -1.0369999
7.3410001 16.145 -1.045
7.3140001 16.160999 -1.03
7.3610001 16.188999 -1.017
7.402 16.983 -1.027
4.7895002 -13.320499 -0.96949995
4.8080001 -13.296 -0.95599997
6.1880002 1.915 -0.995
6.2223639 2.1661818 -0.96645451
6.2866669 2.9827778 -0.97733331
6.2811999 3.0255334 -0.97580004
6.3049998 3.0079999 -0.97399998
6.2761431 3.0710003 -0.97907144
6.278429 3.1220717 -0.97000009
6.2930002 3.1529999 -0.98800004
6.3264999 3.8833332 -0.96566665
6.3811665 3.8860002 -0.97616667
6.3279996 3.9191818 -0.97718191
6.7350001 9.6949997 -0.963
6.7723341 9.6886673 -0.97833335
6.823667 9.6783333 -0.98699999
6.8839998 9.6919994 -0.98049998
6.7389998 9.7263336 -0.97900003
6.7659998 9.7040005 -0.96499997
6.8280001 9.7024994 -0.96799999
6.8740001 9.7139997 -0.97100002
6.7384996 9.7744999 -0.97899997
6.7465 9.8225002 -0.96200001
6.7509999 9.8280001 -0.99400002
6.7433333 9.8673344 -0.96800005
6.7519999 9.8669996 -0.99599999
6.7546668 9.9203339 -0.97200006
6.7559996 9.9664993 -0.972
7.0450001 12.886 -0.99299997
7.0777502 12.864751 -0.98025
7.125 12.868999 -0.98199999
7.1675 12.865999 -0.98325002
7.0369997 12.925 -0.98250002
7.052 12.901 -0.96899998
7.04 12.9835 -0.986
7.0384998 13.035 -0.96350002
7.3155003 16.165501 -0.96800005
7.3559999 16.177999 -0.97000003
7.375 16.960499 -0.99299997
4.7670002 -13.258 -0.92799997
4.8135004 -13.2745 -0.93000001
4.7789998 -13.215 -0.90100002
4.8204999 -13.221001 -0.90200001
6.2863998 2.9774671 -0.92666668
6.2806001 3.0253336 -0.92940009
6.2760715 3.0730007 -0.92771417
6.2832503 3.1205835 -0.92241669
6.2904997 3.1515002 -0.92524999
6.3263335 3.8403335 -0.91016668
6.3265381 3.8786154 -0.92515385
6.3670001 3.8550003 -0.93733335
6.3243752 3.919625 -0.93087506
6.7490001 9.7159996 -0.94400001
6.7800002 9.7356672 -0.93333334
6.8250003 9.7236004 -0.94019997
6.8723335 9.7233343 -0.93633336
6.7450004 9.7694006 -0.92700005
6.7670002 9.7600002 -0.91649997
6.8140001 9.7544994 -0.90849996
6.8715 9.7639999 -0.91100001
6.7419996 9.816 -0.91900003
6.7436666 9.8676672 -0.92600006
6.7510004 9.9273329 -0.92333335
6.7535 9.9820004 -0.93050003
6.7515001 10.017 -0.91149998
7.0440001 12.885 -0.94199997
7.0710001 12.881 -0.94199997
7.1186666 12.893333 -0.93600005
7.1589999 12.878 -0.94499999
7.04 12.9305 -0.93099999
7.0714998 12.908501 -0.91799998
7.1469998 12.909 -0.921
7.177 12.912 -0.92199999
7.0444999 12.993 -0.935
7.046 13.05 -0.92500001
7.3080001 16.148001 -0.921
7.3590002 16.186001 -0.92400002
7.3790002 16.93 -0.92699999
4.7375002 -13.211 -0.87549996
4.7683334 -13.210667 -0.87600005
4.8215003 -13.224 -0.86524993
6.2940001 2.9489999 -0.88300002
6.2845836 2.9744167 -0.87725008
6.286375 3.0231249 -0.88012505
6.2822223 3.0720553 -0.87333339
6.2818575 3.1240718 -0.87285721
6.2945004 3.154 -0.87600005
6.3245001 3.796 -0.86549997
6.3237777 3.8233333 -0.87244445
6.322 3.8727272 -0.87809098
6.743 9.7819996 -0.88599998
6.765667 9.777667 -0.87966669
6.8162498 9.7762508 -0.87825
6.8732004 9.7852001 -0.87520009
6.7445002 9.8195 -0.8775
6.7820001 9.8009996 -0.86799997
6.7460003 9.8584995 -0.88049996
6.7482004 9.9140005 -0.87779999
6.7540002 9.9449997 -0.85399997
6.7459998 9.9720001 -0.87699997
6.7524996 9.9809999 -0.8775
6.7463336 10.021999 -0.87266672
7.04 12.93 -0.89300001
7.0803337 12.933333 -0.88533342
7.1216669 12.935667 -0.87800002
7.1783333 12.931 -0.88833332
7.046 12.995 -0.89600003
7.052 12.953 -0.86900002
7.1700001 12.951 -0.87199998
7.0489998 13.001 -0.87099999
7.0489998 13.056 -0.89999998
7.0500002 13.057 -0.87400001
7.0440001 13.101 -0.87599999
7.3070002 16.146999 -0.85900003
7.309 16.152 -0.88999999
7.3575001 16.182499 -0.87699997
7.3600001 16.886999 -0.86000001
7.375 16.92 -0.89399999
4.7267499 -13.18125 -0.83650005
4.7764997 -13.172 -0.82449996
4.8210001 -13.187 -0.82700002
6.287643 2.9767854 -0.8285715
6.2856255 3.0235624 -0.82787496
6.2802496 3.074625 -0.82137501
6.2829165 3.124167 -0.82433337
6.2880001 3.1506667 -0.81866664
6.3190002 3.7779334 -0.8223334
6.3148327 3.8282504 -0.82758343
6.3138342 3.8635001 -0.83399999
6.7399998 9.8140001 -0.84600002
6.7755003 9.8225002 -0.83066672
6.827167 9.822834 -0.82916665
6.8753333 9.824667 -0.83133334
6.7454996 9.8769999 -0.82374996
6.7600002 9.8610001 -0.81850004
6.868 9.8509998 -0.81099999
6.7484999 9.9365005 -0.82249999
6.7459998 9.9720001 -0.81400001
6.7529998 9.9820004 -0.83499998
6.7449999 10.007 -0.815
7.0430002 12.9895 -0.83149999
7.0787501 12.9755 -0.83149993
7.125 12.960334 -0.83633339
7.1726665 12.973333 -0.82966661
7.0440001 13.046 -0.82099998
7.0445004 13.0745 -0.84850001
7.0450001 13.104 -0.824
7.309 16.15 -0.82800001
7.3569999 16.183001 -0.82999998
4.6859999 -13.103 -0.77100003
4.7285004 -13.11225 -0.78400004
4.7840004 -13.12 -0.78549999
4.8240004 -13.120501 -0.78649998
4.6653337 -13.093333 -0.78600001
6.290556 2.9731114 -0.78322226
6.2860627 3.025625 -0.77481246
6.2812672 3.0732002 -0.76993328
6.2805004 3.1266878 -0.77387506
6.2940001 3.7249999 -0.76200002
6.3169999 3.7320001 -0.76588893
6.3149285 3.7771428 -0.77485722
6.2969999 3.803 -0.77899998
6.3124003 3.8268998 -0.77690005
6.323 3.8640001 -0.79799998
6.743 9.8540001 -0.78600001
6.7746673 9.8763342 -0.77433336
6.8210001 9.8650007 -0.78100008
6.8730001 9.8706675 -0.77733338
6.7480001 9.9370003 -0.79100001
6.756 9.9233341 -0.77600002
6.8870001 9.915 -0.75199997
7.0869999 12.990499 -0.79400003
7.1190004 12.995 -0.78149998
7.1836662 12.994001 -0.78800005
7.0430002 13.0455 -0.78250003
7.0640001 13.011667 -0.77733338
7.1409998 13.008 -0.76999998
7.1729999 13.012 -0.77100003
7.0469999 13.108 -0.79799998
7.3134999 16.161501 -0.78200001
7.3590002 16.186501 -0.78400004
4.6630001 -13.112 -0.74599999
4.7279997 -13.1105 -0.7475
4.7729998 -13.125 -0.74900001
4.8245001 -13.122 -0.73750001
4.6440001 -13.058 -0.71899998
4.677 -13.0765 -0.73250002
4.7200003 -13.089 -0.72150004
4.778667 -13.093333 -0.73133337
6.2305002 2.4035001 -0.713
6.2869167 2.9772501 -0.73066664
6.2880006 3.0243077 -0.7170769
6.2826667 3.0722666 -0.72179997
6.2879996 3.1268334 -0.72500002
6.2920003 3.15625 -0.73625004
6.3227501 3.68275 -0.71399999
6.2989998 3.7279999 -0.71100003
6.3123083 3.7210767 -0.72753841
6.2939997 3.7624998 -0.72500002
6.3114448 3.7805557 -0.72611117
6.310286 3.8165715 -0.72571433
6.796 9.8959999 -0.74800003
6.8429999 9.8889999 -0.74900001
6.7716002 9.9118004 -0.73140001
6.8291993 9.9222002 -0.72539997
6.873333 9.9213333 -0.72399998
7.0819998 13.03575 -0.73100001
7.1240001 13.031 -0.73150003
7.1715002 13.036499 -0.73325002
7.0479999 13.055 -0.74400002
7.3070002 16.148001 -0.73500001
7.3080001 16.150999 -0.704
7.3649998 16.200001 -0.73799998
4.7189999 -13.013 -0.69400001
4.7694998 -13.008749 -0.6825
4.6810002 -12.992334 -0.67633337
4.7259998 -12.996 -0.66900003
6.2875385 3.0231538 -0.67184621
6.2849374 3.0739374 -0.67324996
6.2827492 3.1278746 -0.67531252
6.2800002 3.161 -0.65799999
6.3187499 3.6437502 -0.66350001
6.2933998 3.6777999 -0.67200005
6.3118887 3.6702225 -0.68066674
6.2964001 3.7175999 -0.67440003
6.3076663 3.7265558 -0.68155551
6.2940001 3.77 -0.69099998
6.3083334 3.7739999 -0.67544448
6.3074999 3.8085001 -0.68349999
6.8309999 9.9460001 -0.68900001
6.855 9.9449997 -0.68900001
6.8762498 9.97575 -0.67050004
7.1196671 13.060333 -0.68500006
7.1767502 13.0735 -0.6825
4.6634998 -13.004 -0.64450002
4.7329998 -13.013 -0.64600003
4.7729998 -13.0175 -0.64649999
4.6833334 -12.975333 -0.6273334
4.724 -12.99 -0.62
4.7655001 -12.9965 -0.62150002
6.2866254 3.0203123 -0.6220625
6.2823129 3.0726874 -0.62393749
6.2821431 3.1247146 -0.62664288
6.2822495 3.1549997 -0.63025004
6.3239999 3.595 -0.60399997
6.2911673 3.6330001 -0.61416674
6.3130007 3.6209171 -0.62591672
6.2977996 3.6804001 -0.6268
6.3030005 3.6719999 -0.62300003
6.2957997 3.7320001 -0.62600005
6.3095002 3.7224998 -0.62930006
6.2944999 3.7779999 -0.64249998
6.3081431 3.77 -0.62900007
7.1560001 13.091 -0.64399999
7.1950002 13.107 -0.64499998
4.6805 -12.9055 -0.59200001
4.7344999 -12.913 -0.59350002
4.6729999 -12.885 -0.56699997
4.7275 -12.8925 -0.56850004
6.2844009 3.0751333 -0.57620001
6.2823572 3.124929 -0.57835716
6.2795005 3.1563334 -0.57350004
6.2989998 3.596 -0.565
6.3148465 3.5781541 -0.56892312
6.2907777 3.6223335 -0.56900007
6.3042498 3.6174998 -0.58175004
6.2920003 3.6799004 -0.57229996
6.3028331 3.6668329 -0.57599998
6.2947497 3.7241251 -0.57387495
6.3039999 3.7350001 -0.57975
6.2909999 3.753 -0.59600002
4.6430001 -12.909 -0.54400003
4.6835003 -12.914 -0.54449999
4.7220001 -12.914 -0.54500002
4.6719999 -12.882 -0.51950002
4.7309999 -12.890667 -0.52833337
6.2150002 2.299 -0.55000001
6.2814994 3.0726252 -0.52575004
6.2791433 3.1237147 -0.5255
6.2802 3.1556001 -0.53720003
6.2852502 3.5337498 -0.514
6.2879171 3.5751667 -0.52700007
6.2886925 3.6286156 -0.52107686
6.2917695 3.677846 -0.52415389
6.2965999 3.7184002 -0.52560008
6.3050003 3.7244999 -0.53149998
4.6900001 -12.827 -0.49399999
4.7140002 -12.82 -0.49399999
4.6616669 -12.794666 -0.47666669
4.7020001 -12.788 -0.46900001
6.2407503 2.6115 -0.46400002
6.2830772 3.0739999 -0.47738466
6.2831244 3.1251247 -0.47918752
6.2860003 3.1605 -0.47049999
6.2865 3.4879999 -0.46499997
6.2858334 3.5220833 -0.47666675
6.3228002 3.5110002 -0.4894
6.282867 3.5745335 -0.48233336
6.3000002 3.553 -0.46200001
6.2898188 3.6281819 -0.46690911
6.3000002 3.6259999 -0.48899999
6.2938895 3.674778 -0.47800002
6.3065 3.6854999 -0.46649998
6.3126669 3.7166667 -0.47633335
4.6850004 -12.8125 -0.43400002
4.6525002 -12.7925 -0.433
4.7030001 -12.79 -0.433
6.2821002 3.1224 -0.4316
6.2801428 3.1555717 -0.4324286
6.2827277 3.4819999 -0.42427278
6.284924 3.5280766 -0.42707694
6.2848005 3.575 -0.42880002
6.302 3.5760002 -0.43699998
6.2890005 3.6184003 -0.42770001
6.3010001 3.642 -0.40099999
6.296834 3.6634998 -0.42683339
6.3100004 3.6791999 -0.41800004
7.0539999 13.346 -0.414
4.6700001 -12.769 -0.39700001
4.7020001 -12.786 -0.39700001
4.671 -12.703 -0.37099999
6.2390003 2.6646667 -0.38533336
6.2810001 3.1265626 -0.37800002
6.2856669 3.1640003 -0.37933335
6.291429 3.4315715 -0.36457145
6.2806468 3.472353 -0.37847051
6.2815385 3.5262308 -0.37746152
6.2826662 3.5724168 -0.37908337
6.2890005 3.6126668 -0.38466668
6.3175001 3.63275 -0.36974999
6.3202496 3.6602499 -0.37699997
7.0599999 13.299 -0.361
7.0649996 13.3665 -0.37549999
7.0630002 13.421 -0.36399999
4.6660004 -12.690001 -0.3355
6.2395 2.7595 -0.31600001
6.2893996 3.3896 -0.31619999
6.278667 3.4208667 -0.32653335
6.276001 3.4739997 -0.32593337
6.2772312 3.5238464 -0.32807696
6.2852221 3.5693333 -0.331
7.085 13.292 -0.33500001
7.066 13.311 -0.322
7.0999999 13.319 -0.30899999
7.0664997 13.37 -0.32300001
7.0594997 13.4135 -0.32350001
7.0619998 13.476 -0.31200001
4.6599998 -12.672501 -0.28799999
6.2927499 3.3415003 -0.26200002
6.2764373 3.3755 -0.27443749
6.2705393 3.4245381 -0.27376923
6.2745004 3.474643 -0.27885717
6.278616 3.5247693 -0.2757692
6.2940001 3.5643334 -0.28500003
7.0809999 13.341 -0.28299999
7.1283336 13.335334 -0.27433333
7.0760002 13.368999 -0.26566666
7.1209998 13.359 -0.257
7.184 13.365 -0.25799999
7.066 13.425 -0.271
7.0640001 13.479 -0.27200001
6.2449999 2.8599999 -0.222
6.2798662 3.3260667 -0.22206667
6.2694011 3.3733337 -0.22506669
6.2699227 3.4242311 -0.22392307
6.2740006 3.4760668 -0.22760001
6.2785001 3.5241001 -0.2296
6.2954998 3.5585001 -0.22850001
6.3039999 3.5699999 -0.248
7.0836668 13.384001 -0.22233334
7.1206665 13.377334 -0.21366666
7.1726665 13.381 -0.22266667
7.0710001 13.434 -0.21799999
7.0625 13.4765 -0.219
7.3660002 16.204 -0.20999999
6.2410002 2.8763332 -0.17283335
6.2490001 2.902 -0.163
6.280539 3.2785387 -0.16776924
6.2651763 3.3251762 -0.17535295
6.2647004 3.3736999 -0.17340001
6.2730007 3.4219334 -0.17686668
6.2776933 3.4750001 -0.17584616
6.2876663 3.5080001 -0.18333334
6.302 3.533 -0.19049999
7.0804996 13.4255 -0.16525
7.1300001 13.414333 -0.17
7.1746669 13.422333 -0.16133334
7.0689998 13.489 -0.16600001
7.073 13.557 -0.153
7.3049998 16.143 -0.178
7.3579998 16.184999 -0.17900001
6.2469997 2.9145 -0.12100001
6.2632499 3.2701879 -0.1244375
6.2615719 3.3223574 -0.12471429
6.2669287 3.3737147 -0.12542856
6.2693577 3.4258573 -0.12671429
6.2862 3.4741998 -0.13499999
7.0770001 13.447 -0.126
7.1389999 13.449 -0.126
7.1815 13.444 -0.126
7.0689998 13.49 -0.126
7.1090002 13.452 -0.126
7.0770001 13.564 -0.127
7.2690001 16.139999 -0.116
7.2740002 16.152 -0.147
7.3109999 16.157501 -0.13150001
7.3600001 16.191 -0.148
7.3660002 16.205 -0.117
6.2470002 2.9820001 -0.056000002
6.2456665 3.2260003 -0.056000005
6.2655339 3.22 -0.079333343
6.2470002 3.2969999 -0.093999997
6.2593079 3.2730775 -0.075615384
6.261847 3.3241541 -0.075999998
6.2697148 3.3755004 -0.07407143
6.2748008 3.4220002 -0.078599997
7.0740004 13.479667 -0.090333335
7.1212502 13.474751 -0.086500004
7.1746669 13.479334 -0.082000002
7.073 13.556 -0.086500004
7.0679998 13.606 -0.072999999
7.2705002 16.143002 -0.07
7.3039999 16.142 -0.085000001
7.309 16.153999 -0.055
7.3575001 16.184999 -0.070500001
6.2410002 2.9119999 -0.018999999
6.2410002 3.1830001 -0.02
6.2651663 3.1769166 -0.023666665
6.2472501 3.2175 -0.010249999
6.2590909 3.2257268 -0.029818183
6.2591538 3.273 -0.027461538
6.2449999 3.323 -0.0080000004
6.2596669 3.3240666 -0.02746667
6.2714 3.3774002 -0.027500002
6.2855 3.4095001 -0.039000001
6.7839999 10.828 -0.016000001
7.0739999 13.499 -0.046
7.165 13.498 -0.046999998
7.0819998 13.515 -0.02
7.1262498 13.512501 -0.033500001
7.1879997 13.5135 -0.02
7.0749998 13.560499 -0.033500001
7.0809999 13.629 -0.033500001
7.0630002 13.653 -0.02
7.2750001 16.153 -0.024
7.3080001 16.152 -0.024
7.3509998 16.172001 -0.024
6.2490001 3.01 0.017000001
6.2468333 3.1340003 0.028999999
6.241333 3.1783333 0.0090000005
6.2566004 3.1774001 0.025400002
6.2453337 3.2083335 0.025000002
6.2582726 3.2293637 0.023727274
6.2445002 3.2610002 0.035499997
6.2595453 3.274091 0.021545455
6.244 3.3369999 0.0049999999
6.2597694 3.3199232 0.022769231
6.2810001 3.3666668 0.017333334
6.77 10.764 0.028000001
6.783 10.826 0.0060000001
7.0939999 13.537 0.0070000002
7.1259999 13.539 0.0070000002
7.1700001 13.538 0.0070000002
7.079 13.569 0.02
7.1215 13.5605 0.033
7.165 13.558 0.033
7.0760002 13.621 0.02
7.0795002 13.686 0.020500001
7.0780001 13.741 0.034000002
7.263 16.128 0.0070000002
7.2779999 16.162001 0.037999999
7.3105001 16.157499 0.022499999
7.3860002 16.249001 0.037999999
7.3959999 16.27 0.0070000002
4.8449998 -12.308 0.097999997
6.2414002 2.9826 0.074600004
6.2418003 3.1214001 0.069200002
6.2536669 3.1306667 0.075666673
6.2408333 3.1716669 0.078000009
6.2574291 3.1798575 0.067714289
6.24475 3.2227502 0.059999999
6.2573638 3.2263634 0.075999998
6.2414999 3.2665 0.0845
6.2588997 3.2751999 0.069899999
6.2688575 3.3168571 0.066428572
6.7890005 10.724001 0.079666667
6.7855005 10.768 0.067000002
6.7989998 10.809 0.094999999
7.0895 13.589 0.0735
7.1300001 13.587334 0.068999998
7.1805 13.588 0.0735
7.0760002 13.620501 0.0735
7.1570001 13.6 0.086999997
7.0795002 13.686501 0.0735
7.0879998 13.761 0.074500002
7.303 16.141001 0.068999998
7.2389998 16.150999 0.068999998
7.2729998 16.15 0.068999998
7.3909998 16.26 0.07
6.2405 3.0879998 0.12
6.2427998 3.1204002 0.12119999
6.2523336 3.1326671 0.11816667
6.2434998 3.1745 0.1205
6.2553749 3.1752498 0.12087501
6.2462502 3.2235 0.124
6.2560005 3.224 0.12008335
6.7969999 10.64 0.138
6.7855 10.6635 0.127
6.7880001 10.736334 0.13166666
6.803 10.732 0.117
6.7904997 10.796499 0.12799999
7.079 13.627501 0.1275
7.1239996 13.6255 0.1275
7.1724997 13.629499 0.1275
7.0760002 13.679501 0.1275
7.0780001 13.743 0.141
7.0830002 13.752 0.115
7.0845003 13.8125 0.1285
7.2714996 16.146999 0.1155
7.3125 16.161999 0.1155
7.3804998 16.237 0.11650001
7.4200001 16.249001 0.132
7.4419999 16.296 0.101
4.848 -12.315 0.168
4.8299999 -12.238 0.19
6.2450004 3.0903335 0.17466667
6.2440915 3.1210911 0.17263636
6.2445998 3.1716001 0.17300001
6.2470002 3.2 0.15099999
6.7924995 10.632999 0.171
6.8085003 10.617001 0.171
6.7934999 10.6765 0.1715
6.7974997 10.723 0.17199999
6.7913337 10.770667 0.16866666
6.7930002 10.8 0.184
7.0869999 13.643 0.168
7.0830002 13.694 0.19499999
7.1219997 13.670668 0.18599999
7.1686668 13.661334 0.17699999
7.0879998 13.703 0.168
7.0834999 13.7535 0.182
7.0904999 13.8245 0.1825
7.0879998 13.88 0.197
7.2709999 16.146999 0.162
7.2750001 16.153999 0.193
7.3114996 16.1605 0.17750001
7.3690004 16.187 0.18266669
7.3979998 16.200001 0.163
4.8237495 -12.222 0.2235
6.0770006 3.0340002 0.21766667
6.1315002 3.0275002 0.219
6.1894999 3.0289998 0.22049999
6.2315001 3.0187502 0.22175001
6.237 3.086 0.211
6.2452497 3.128 0.22974999
6.2410002 3.1697502 0.212
6.7903337 10.630333 0.226
6.8228331 10.620167 0.226
6.8614998 10.62 0.2375
6.7906666 10.671667 0.22666667
6.7883334 10.709666 0.227
6.7855 10.7685 0.21700001
6.8000002 10.771 0.206
6.8060002 10.822 0.229
7.1275001 13.6915 0.222
7.1690001 13.683 0.222
7.0965004 13.719999 0.23550001
7.1269999 13.719 0.249
7.1539998 13.713 0.249
7.0830002 13.753 0.23550001
7.0809999 13.806 0.223
7.0910001 13.885 0.22400001
7.2410002 16.155001 0.223
7.2750001 16.155001 0.223
7.3284998 16.1605 0.22400001
7.3769999 16.156 0.22400001
4.8239999 -12.22175 0.26949999
6.783 10.618999 0.28049999
6.8200002 10.61575 0.28100002
6.8754997 10.621 0.28175002
6.9099998 10.615 0.29300001
6.7870002 10.6665 0.28150001
6.7860003 10.72675 0.27700001
6.7865 10.769501 0.27250001
6.7930002 10.802 0.25099999
6.8000002 10.813 0.296
7.1184998 13.7325 0.27599999
7.191 13.724 0.25
7.092 13.77 0.27700001
7.1750002 13.754 0.27700001
7.2049999 13.751 0.27700001
7.0830002 13.809999 0.26350001
7.0964999 13.896 0.26550001
7.2270002 16.122999 0.28400001
7.2766666 16.134001 0.27466667
7.335 16.138 0.26999998
7.3740001 16.124668 0.27499998
7.3099999 16.158001 0.255
7.4200001 16.174999 0.25600001
4.7830005 -12.123601 0.32879999
4.8230004 -12.1254 0.31999999
6.7859998 10.6245 0.32499999
6.8254995 10.6245 0.32550001
6.8755002 10.6215 0.32574999
6.7884998 10.669001 0.32600001
6.7879996 10.723 0.32300001
6.7880001 10.752 0.33899999
6.7934999 10.802 0.3285
7.0879998 13.763 0.30399999
7.1140003 13.773001 0.322
7.1706672 13.784666 0.31366667
7.0904999 13.8245 0.31849998
7.0889997 13.8815 0.3195
7.1009998 13.966 0.33500001
7.2420001 16.082001 0.34599999
7.2820001 16.096001 0.34599999
7.3284998 16.0865 0.34599999
7.3835001 16.095501 0.33149999
7.2179999 16.104 0.33050001
7.2740002 16.115 0.31550002
7.3200002 16.106001 0.31600001
7.3520002 16.1 0.31600001
4.7763338 -12.111 0.38433334
4.8274002 -12.1228 0.37900001
6.7895002 10.629499 0.36900002
6.8260002 10.6255 0.36900002
6.8794999 10.627501 0.37
6.7855 10.665 0.36950001
6.7840004 10.718 0.36700004
6.7890005 10.781668 0.37633333
7.1184998 13.792 0.3585
7.0945001 13.8325 0.3725
7.1315002 13.8175 0.38600001
7.1800003 13.8225 0.373
7.0910001 13.885 0.37349999
7.0960002 13.957 0.389
7.1079998 13.979 0.36199999
7.2229996 16.077499 0.37599999
7.2659998 16.059999 0.37599999
7.3190002 16.066 0.377
7.3759999 16.08 0.377
4.8179998 -12.053 0.41299999
4.7389998 -12.037 0.412
4.7732501 -12.030499 0.42349997
4.8253336 -12.030668 0.42799997
6.784667 10.621668 0.42366669
6.8240004 10.622334 0.42433333
6.8813334 10.630834 0.42566666
6.79 10.671333 0.42500001
6.7883334 10.710667 0.42600006
6.7880001 10.772499 0.42749998
6.803 10.776 0.40599999
7.099 13.843 0.414
7.1285 13.841499 0.42750001
7.1715002 13.835 0.4145
7.0955 13.895 0.4285
7.1129999 13.869 0.442
7.165 13.853 0.442
7.2030001 13.867 0.44299999
7.098 13.96 0.41600001
7.0999999 13.964 0.44400001
7.1090002 14.043 0.44600001
7.2220001 16.038 0.43700001
7.276 16.033333 0.42700002
7.3210001 16.033001 0.42250001
7.3643336 16.029667 0.42766666
7.2160001 16.061501 0.40599999
7.2639999 16.056999 0.40700001
7.4089999 16.077 0.40900001
4.7770004 -12.028999 0.46466666
4.8217497 -12.03075 0.46925002
6.79 10.631001 0.479
6.8287501 10.62975 0.47975001
6.8777499 10.62575 0.48025
6.7813334 10.672333 0.48400003
6.7849998 10.7265 0.48199999
6.7880001 10.78375 0.47275001
7.0939999 13.893 0.49599999
7.1243334 13.872667 0.47833335
7.1726665 13.887333 0.48833334
7.099 13.903 0.47
7.1034999 13.972 0.48550001
7.1090002 14.043 0.47299999
7.2174997 15.992001 0.49700001
7.2589998 15.971 0.49700001
7.3170004 15.988501 0.498
7.3670001 15.987 0.498
7.224 16.005501 0.46649998
7.276 16.009001 0.46700001
7.3235002 16.001999 0.4675
7.3759999 16.004999 0.46799999
4.8199997 -12.027 0.50300002
4.8280001 -11.957 0.523
4.7940001 -11.932 0.52200001
4.8383336 -11.941668 0.53766668
6.7904997 10.6315 0.523
6.8190002 10.621334 0.51966667
6.8779998 10.638 0.52719998
6.7833338 10.675333 0.52066672
6.7855 10.726999 0.52649999
6.7893333 10.782667 0.53200001
6.7825003 10.827 0.52950001
7.1209998 13.915 0.52499998
7.1754999 13.904 0.52499998
7.1009998 13.966 0.52600002
7.099 14.023 0.528
7.1020002 14.029 0.5
7.223 15.967 0.52700001
7.2770004 15.974501 0.52750003
7.3260002 15.971 0.528
7.3530002 15.955 0.528
4.8365002 -11.9175 0.57849997
6.7865 10.6255 0.56700003
6.8277502 10.629251 0.56774998
6.882 10.63275 0.56924999
6.7840004 10.676333 0.57233334
6.7856669 10.734 0.56700003
6.7764997 10.775499 0.57200003
6.777 10.817 0.56300002
7.12675 13.927 0.56599998
7.1759996 13.934999 0.56699997
7.2080002 13.936 0.55400002
7.1059999 13.9765 0.56699997
7.0960002 14.018 0.55500001
7.0999999 14.026 0.583
7.1110001 14.1085 0.5715
7.2350001 15.919 0.58700001
7.2869997 15.923 0.58749998
7.3313341 15.934333 0.56766671
7.375 15.931499 0.574
7.2165003 15.9525 0.57200003
7.2705002 15.96 0.55800003
5.3760004 -4.3540001 0.63849998
6.0250001 3.0805001 0.64249998
6.7865 10.63575 0.62199998
6.8288336 10.630834 0.62333333
6.8813996 10.6356 0.62020004
6.7855 10.665 0.62349999
6.7796669 10.718166 0.62533337
6.7849998 10.789 0.60600001
7.1199999 13.974001 0.62224996
7.1716671 13.964999 0.61800003
7.1075001 14.0405 0.62450004
7.1059999 14.099 0.63999999
7.1110001 14.109 0.61299998
7.1919999 15.898 0.64600003
7.2335 15.88 0.64649999
7.2839999 15.879 0.64700001
7.3235002 15.893 0.63300002
7.3565001 15.891001 0.63300002
7.2290001 15.905 0.61699998
7.2804999 15.9085 0.61749995
5.3830004 -4.3515 0.66350001
5.3791671 -4.3429999 0.68066669
5.4060001 -4.3470001 0.68300003
6.0239997 3.0758002 0.67539996
6.0675001 3.0825 0.68800002
6.118 3.108 0.676
6.718667 10.628667 0.67866671
6.7915001 10.6335 0.67700005
6.83325 10.6375 0.6785
6.8704996 10.6355 0.68000001
6.7834997 10.6625 0.6785
6.7859998 10.708 0.66900003
7.1389999 13.981 0.66399997
7.1750002 13.992 0.66500002
7.1155005 14.026499 0.67900002
7.1700001 14.012 0.69299996
7.1110001 14.1085 0.68199998
7.1139998 14.176 0.69800001
7.1269999 14.202 0.67199999
7.2275 15.867 0.67649996
7.2750001 15.86 0.67699999
7.3255 15.862 0.67750001
5.434 -4.3530002 0.70999998
5.3736668 -4.3411117 0.72333336
5.4212222 -4.3432221 0.73000002
6.0246367 3.0712729 0.722
6.0797501 3.0757499 0.72474998
6.1350002 3.0910001 0.74900001
6.7176666 10.613335 0.71433342
6.7803335 10.63 0.72466671
6.8309999 10.634749 0.72275001
6.8850002 10.63775 0.72474998
6.7789998 10.655 0.71100003
7.1233339 14.031668 0.72966671
7.158 14.019 0.72100002
7.2010002 14.042 0.722
7.1129999 14.051 0.74900001
7.1090002 14.105 0.72299999
7.1149998 14.179 0.72600001
7.2272496 15.829499 0.72825003
7.289 15.816 0.736
7.3310003 15.8365 0.72249997
7.3610001 15.828501 0.72299999
7.1719999 15.8545 0.72049999
7.21 15.865 0.70599997
7.2709999 15.852 0.70700002
7.3099999 15.863 0.708
5.4720001 -4.3530002 0.75
5.371273 -4.3383636 0.7736364
5.4225001 -4.3411002 0.77559996
5.4657145 -4.3407145 0.78185713
6.026 3.0746 0.77930003
6.0705004 3.0710001 0.77474999
6.1210003 3.0769999 0.77999997
6.164 3.092 0.77600002
7.1170001 14.059 0.77700001
7.1696663 14.062334 0.76866668
7.1090002 14.105 0.76450002
7.1164999 14.181499 0.76800001
7.1300001 14.271 0.78600001
7.2080002 15.788 0.79400003
7.2750001 15.787 0.796
7.3249998 15.7885 0.79649997
7.1694999 15.8125 0.77974999
7.2325001 15.8055 0.78049999
7.2729998 15.8195 0.7665
7.3150001 15.802 0.76700002
5.3714004 -4.3355994 0.82790011
5.4236999 -4.3374 0.82319993
5.4762225 -4.3417778 0.829
5.5120001 -4.3452497 0.824
6.0269995 3.0777001 0.82609999
6.0775714 3.0727143 0.81800002
6.1193752 3.0695 0.83087504
6.1739998 3.0834999 0.81900001
6.7194996 10.62325 0.82875001
6.7747502 10.62775 0.83099997
6.8324008 10.6328 0.82639998
6.8753333 10.628668 0.82366669
7.1259999 14.078 0.80500001
7.1704998 14.075001 0.80599999
7.1206665 14.108333 0.82466668
7.1690001 14.101 0.83499998
7.1175003 14.1835 0.82350004
7.1175003 14.245501 0.8265
7.165 15.766 0.82300001
7.2139997 15.7655 0.824
7.2839999 15.7715 0.82550001
7.336 15.776 0.82700002
5.3210001 -4.4731002 0.8707
5.3530002 -4.4749999 0.89600003
5.3295383 -4.4248466 0.87269229
5.3590002 -4.448 0.89399999
5.3330002 -4.3692222 0.87455553
5.3530002 -4.3660002 0.88700002
5.3346 -4.3382001 0.87320006
5.3726163 -4.3352304 0.87415391
5.4225001 -4.3367505 0.87337506
5.4746666 -4.3386669 0.87449998
5.5300002 -4.3408885 0.87244445
6.0225997 3.0834 0.87740004
6.0720997 3.0773001 0.8695001
6.1177502 3.072 0.87325001
6.1717501 3.0737498 0.87800002
6.7214999 10.62675 0.87300003
6.7754998 10.629251 0.87474996
6.8239999 10.6235 0.87650001
6.8709998 10.623 0.88166666
7.1339998 14.094 0.861
7.1239996 14.1355 0.87650001
7.1706672 14.125667 0.88199997
7.1114998 14.172 0.87849998
7.1164999 14.245 0.88199997
7.1725001 15.74675 0.86750001
7.2140002 15.729 0.88300002
7.2670002 15.735001 0.884
7.3179998 15.737 0.87049997
7.3499999 15.735 0.88599998
7.2259998 15.754 0.85399997
7.2755003 15.753 0.85500002
5.368556 -4.4680004 0.92711109
5.3724613 -4.4263086 0.92361534
5.3769999 -4.3742309 0.9252308
5.3894997 -4.3381672 0.91916674
5.4285002 -4.3365002 0.92299998
5.4742002 -4.3352003 0.9278
5.5225554 -4.3398886 0.91855556
6.0320005 3.0888333 0.91649997
6.0740914 3.0826368 0.92863631
6.1273999 3.0762002 0.92300004
6.1711669 3.0731668 0.92799997
6.0342727 3.1223638 0.92300004
6.0546665 3.1296668 0.94766665
6.0331664 3.1745002 0.91366673
6.0567503 3.1777499 0.93599999
6.0392499 3.2125001 0.912
6.0606246 3.2272501 0.93187511
6.8150001 10.59 0.90700001
6.7265 10.6355 0.91775
6.7795 10.635 0.91974998
6.8166671 10.620001 0.92399997
6.8716669 10.624334 0.91933334
6.7125001 10.6755 0.91949999
6.704 10.724 0.91149998
6.7389998 10.758 0.93699998
7.1294999 14.17775 0.93449998
7.1660004 14.158 0.93449998
7.1149998 14.241 0.92400002
7.1300001 14.333 0.91500002
7.1950002 15.687 0.94099998
7.2319999 15.693 0.94199997
7.2843332 15.689001 0.93266672
7.3280001 15.687 0.94400001
7.1739998 15.714001 0.92649996
7.2249999 15.715 0.91250002
7.2750001 15.716 0.91399997
7.3379998 15.709 0.91500002
5.3870001 -4.4720001 0.96100003
5.4147782 -4.4727778 0.97522217
5.3969998 -4.4169998 0.95700002
5.4220839 -4.4202504 0.97891676
5.3956671 -4.3693333 0.95300001
5.4276252 -4.3715 0.98149997
5.4284 -4.3379002 0.96620005
5.4678888 -4.3313332 0.98100007
5.5230837 -4.3366666 0.9733333
6.0764999 3.0896668 0.96799994
6.1237006 3.0824001 0.97390002
6.1727495 3.0762501 0.97725004
6.0750003 3.1225002 0.97399998
6.1040001 3.141 0.991
6.0804443 3.1727781 0.96866661
6.1050005 3.1830001 0.99399996
6.08675 3.2207501 0.96837497
6.1106672 3.2176666 0.99300003
6.7350001 10.628 0.95099998
6.7839999 10.6388 0.97100002
6.8248 10.63 0.97240001
6.8830004 10.6355 0.96799994
6.7329998 10.665 0.95300001
6.7690001 10.667334 0.99133337
6.744 10.726 0.95700002
6.757 10.704 0.97899997
6.7719998 10.771 0.98400003
6.7825003 10.828 0.97649997
7.1665001 14.188499 0.97799999
7.1186666 14.228334 0.96966666
7.1275001 14.329 0.97049999
7.2090001 15.644 0.99900001
7.1707497 15.671 0.98475003
7.2249999 15.68 0.97100002
7.2740002 15.678499 0.97249997
7.3210001 15.673 0.97299999
5.4414997 -4.4759998 1.0044999
5.4633746 -4.4746251 1.0305001
5.4416666 -4.4323339 1.005
5.4657497 -4.431375 1.0298749
5.4449997 -4.3695002 1.0079999
5.4717999 -4.3754001 1.0315999
5.4455004 -4.3389997 1.0109999
5.4806666 -4.3345556 1.0255555
5.5230002 -4.331778 1.0205556
6.1290998 3.0878999 1.0179
6.1774001 3.0784001 1.0273
6.098 3.138 1.002
6.1190767 3.1226921 1.0248462
6.1278 3.1741998 1.0233999
6.1384997 3.2235003 1.0216668
6.1535001 3.2220001 1.04
6.7843337 10.637 1.0343333
6.8297997 10.63 1.0256001
6.8803329 10.630833 1.0233333
6.7716665 10.672 1.029
6.7683334 10.722334 1.0246668
6.7790003 10.7815 1.018
6.7825003 10.829 1.0215
7.1333332 14.236667 1.0170001
7.1779995 14.21225 1.02125
7.1220002 14.256 1.036
7.1210003 14.3165 1.026
7.1389999 14.417 1.046
7.1700001 15.632 1.028
7.2360001 15.633 1.029
7.27 15.634 1.03
7.3215003 15.6375 1.0165
7.2284999 15.651 1.0155001
7.2779999 15.652 1.001
5.4902501 -4.4770002 1.0634999
5.4926662 -4.4316669 1.0566667
5.4927497 -4.3845 1.0585001
5.5161252 -4.3755002 1.08225
6.1389999 3.086 1.053
6.1708894 3.088222 1.0754445
6.1429996 3.1260002 1.0563333
6.1627779 3.1243334 1.0795555
6.1662726 3.1774547 1.0710908
6.1764441 3.2248888 1.0707778
6.204 3.2205 1.0965
6.7796669 10.643333 1.0713334
6.8344998 10.6415 1.0775
6.7620001 10.6715 1.0765001
6.802 10.651 1.0880001
6.7680001 10.721 1.0799999
6.7730002 10.772001 1.073
6.7730002 10.813334 1.0760001
7.2509999 15.594 1.0880001
7.3130002 15.583 1.089
7.1703334 15.608665 1.0766667
7.2173338 15.615667 1.0683334
7.2833338 15.616333 1.0696666
7.3280001 15.616 1.061
6.1894002 3.1213999 1.112
6.1894999 3.1655002 1.103
6.1929998 3.201 1.1059999
6.7969999 10.644 1.131
6.8260002 10.649 1.133
6.77075 10.664249 1.1205
6.8185 10.6565 1.1110001
6.8544998 10.6525 1.1235
6.7644997 10.717501 1.1240001
6.77 10.767 1.128
6.7805004 10.825001 1.133
7.1430001 14.299 1.123
7.1824999 14.282499 1.1235
7.1290002 14.332 1.125
7.1329999 14.405 1.13
7.2290001 15.548 1.145
7.2540002 15.531 1.1440001
7.1683331 15.580667 1.1250001
7.2189999 15.572666 1.1256669
7.2845001 15.558001 1.132
6.7740002 10.648 1.153
6.8000002 10.649 1.154
6.8715005 10.63825 1.1734999
6.7684007 10.6648 1.1802
6.8216667 10.655666 1.1706667
6.8540001 10.652 1.1569999
6.7659998 10.719 1.1689999
6.7670002 10.762 1.1725
6.7779999 10.822001 1.178
7.1353335 14.325 1.1620001
7.168334 14.307334 1.1713333
7.1335001 14.406 1.1719999
7.1394997 14.4825 1.177
6.7969999 10.643 1.242
6.8125 10.6475 1.2214999
6.7672501 10.658501 1.2310001
6.8210006 10.655001 1.2150002
6.855 10.653 1.224
6.7580004 10.706333 1.2233334
6.7665 10.761499 1.217
6.7834997 10.830999 1.2235
6.9380002 11.478 1.249
6.96 11.654 1.24
6.9650002 11.73 1.2460001
6.9749999 11.913 1.237
6.973 11.981 1.2420001
6.9689999 12.047 1.247
6.9990001 12.148 1.2309999
6.9949999 12.191 1.234
6.9829998 12.219 1.2359999
6.9790001 12.26 1.239
6.9770002 12.307 1.242
6.9759998 12.378 1.2474999
7.0110002 12.415 1.227
6.9990001 12.494 1.233
7.0079999 12.46 1.23
6.9959998 12.541 1.2359999
6.9879999 12.578 1.238
6.9949999 12.642 1.243
6.9949999 12.694 1.247
7.0430002 12.677 1.223
7.0299997 12.7315 1.2265
7.0219998 12.797 1.2309999
7.0190001 12.874001 1.2365
7.0159998 12.949 1.242
7.0219998 13.014 1.247
7.0644999 13.011 1.222
7.0304999 13.056999 1.237
7.0360003 13.122499 1.2290001
7.0359998 13.205 1.235
7.0300002 13.25 1.238
7.0279999 13.302 1.242
7.1110001 13.3175 1.2195001
7.0300002 13.363 1.2460001
7.0815001 13.375 1.223
7.066 13.432 1.226
7.0580001 13.473 1.229
7.052 13.521 1.232
7.0510001 13.577 1.2359999
7.0570002 13.647 1.2410001
7.1280003 13.637 1.216
7.0489998 13.69 1.244
7.0830002 13.698 1.219
7.1090002 13.691 1.219
7.086 13.762 1.223
7.0780001 13.805 1.226
7.0749998 13.858 1.23
7.072 13.914 1.234
7.0749998 13.979 1.238
7.171 13.986 1.215
7.072 14.031 1.242
7.1139998 14.025 1.2149999
7.152 14.01 1.216
7.085 14.089001 1.2325001
7.0960002 14.143 1.223
7.098 14.209 1.227
7.0970001 14.269 1.232
7.092 14.323 1.235
7.1750002 14.332001 1.2105
7.0910001 14.385 1.239
7.1420002 14.359 1.211
7.1370001 14.414 1.215
7.0939999 14.454 1.244
7.1290002 14.462 1.2180001
7.0970001 14.525 1.249
7.1220002 14.51 1.221
7.1139998 14.558 1.224
7.1149998 14.623 1.228
7.1129999 14.685 1.232
7.2080002 14.686 1.207
7.1090002 14.742 1.2359999
7.1820002 14.7295 1.209
7.151 14.762 1.21
7.1285 14.816 1.2275
7.1285 14.8825 1.232
7.1440001 14.947 1.222
7.131 14.991 1.225
7.1440001 15.085 1.2309999
7.1409998 15.146 1.235
7.2130003 15.127 1.207
7.2509999 15.103 1.207
7.1890001 15.179 1.21
7.1469998 15.229 1.2410001
7.1680002 15.204 1.211
7.165 15.269 1.215
7.152 15.312 1.247
6.8189998 10.638 1.265
6.8653336 10.642334 1.283
6.7490001 10.651 1.285
6.7706671 10.657667 1.2716668
6.817667 10.663 1.2820001
6.8540001 10.652 1.268
6.7644997 10.717 1.28
6.7720003 10.770667 1.274
6.7775002 10.821 1.2674999
6.8959999 11.054 1.2819999
6.8979998 11.1 1.286
6.9109998 11.12 1.265
6.9047499 11.175751 1.281
6.8979998 11.233 1.2970001
6.9143333 11.273001 1.2703333
6.9180002 11.3305 1.2709999
6.9120002 11.373335 1.2703334
6.9160004 11.4405 1.28
6.9184999 11.4925 1.2839999
6.9263334 11.535334 1.2763333
6.9380002 11.57 1.256
6.9364996 11.614 1.2715
6.9326668 11.667999 1.2796667
6.9380002 11.708 1.267
6.9373336 11.769667 1.2883333
6.9559999 11.786 1.25
6.9390001 11.8285 1.2765
6.9499998 11.824 1.253
6.9380002 11.897 1.2819999
6.9549999 11.879 1.257
6.9520001 11.922 1.261
6.9419999 11.952 1.2869999
6.954 11.973 1.265
6.9439998 12.005 1.291
6.9510002 12.016 1.268
6.948 12.059 1.296
6.9639997 12.087 1.2620001
6.9645 12.137501 1.2654999
6.9624996 12.184 1.2695
6.9640002 12.233999 1.2735
6.9584999 12.2735 1.2765
6.9635 12.330999 1.281
6.974 12.399 1.299
6.974 12.4245 1.2635
6.9829998 12.466 1.28
6.9790001 12.5105 1.2709999
6.9794998 12.563499 1.275
6.9889998 12.6315 1.2804999
6.9905 12.687 1.2845
6.9899998 12.739 1.276
6.9990001 12.756 1.252
6.9965 12.806 1.2690001
6.9959998 12.8575 1.273
6.9970002 12.913 1.29
7.0040002 12.927 1.265
6.9980001 12.969 1.294
7.0040002 12.98 1.2690001
7.006 13.039 1.274
7.0155001 13.1115 1.267
7.0155001 13.167 1.271
7.0159998 13.223 1.2750001
7.0194998 13.286 1.28
7.0289998 13.361 1.273
7.0255003 13.4115 1.263
7.0380001 13.493999 1.2695
7.0410004 13.559 1.2750001
7.0410004 13.6175 1.279
7.0450001 13.682 1.27
7.052 13.695 1.299
7.0550003 13.7605 1.263
7.059 13.827 1.2679999
7.0539999 13.877 1.258
7.066 13.902 1.2869999
7.0640001 13.9575 1.2775
7.0664997 14.0215 1.2825
7.0689998 14.09 1.274
7.0669999 14.147 1.278
7.0739999 14.161 1.251
7.0815001 14.238501 1.2709999
7.0845003 14.3085 1.276
7.0895 14.3815 1.2815
7.0929999 14.452 1.272
7.1009998 14.532 1.278
7.1009998 14.595 1.2539999
7.1040001 14.601 1.283
7.1070004 14.673 1.2739999
7.1085 14.7415 1.279
7.1125002 14.816 1.2845
7.1230001 14.904 1.277
7.125 14.9775 1.267
7.1274996 15.051001 1.2725
7.1275001 15.1185 1.277
7.1409998 15.2175 1.2845
7.151 15.311 1.276
7.158 15.395 1.2819999
7.1630001 15.405 1.253
7.1253333 15.487334 1.268
7.1689997 15.4895 1.2739999
6.7969999 10.644 1.331
6.8325 10.639 1.3104999
6.7677503 10.66 1.3199999
6.8150001 10.652 1.322
6.7650003 10.719 1.3255
6.7659998 10.761 1.329
6.7743335 10.817 1.323
6.8863335 11.038333 1.3256667
6.8935003 11.093 1.3195
6.8915 11.133 1.3225
6.8955002 11.1835 1.327
6.9005003 11.236 1.332
6.9029999 11.284332 1.3246667
6.9090004 11.339 1.3175
6.9120002 11.3895 1.3225
6.9175 11.443 1.3275001
6.9130001 11.483 1.3305
6.9184999 11.5385 1.3355
6.9235001 11.591499 1.316
6.9200001 11.631 1.331
6.9273334 11.675334 1.3196667
6.9327502 11.77 1.3317499
6.9335003 11.842 1.314
6.9405003 11.902 1.319
6.947 11.961 1.324
6.9555001 12.024 1.3299999
6.9534998 12.069 1.3334999
6.9545002 12.121 1.313
6.9580002 12.176001 1.3175
6.9645 12.234501 1.323
6.9604998 12.2775 1.3264999
6.9694996 12.3425 1.332
6.9759998 12.404 1.325
6.9780002 12.458 1.3164999
6.9794998 12.5105 1.321
6.9934998 12.587999 1.3280001
6.9849997 12.6245 1.3305
6.9835 12.674 1.334
6.9920001 12.744 1.302
6.9959998 12.752 1.3279999
6.9969997 12.806499 1.3199999
6.9970002 12.861 1.324
6.9980001 12.916 1.342
7.0029998 12.924 1.317
7.0009999 12.9755 1.3335
7.0100002 13.046 1.301
7.0124998 13.0785 1.3164999
7.013 13.108 1.332
7.02 13.1745 1.324
7.0194998 13.2295 1.3285
7.0250001 13.299 1.347
7.027 13.301 1.321
7.0310001 13.365 1.3125
7.0339999 13.427999 1.318
7.0345001 13.4875 1.3225
7.0395002 13.5555 1.3275
7.0450001 13.6245 1.3329999
7.053 13.697 1.326
7.0504999 13.752001 1.3164999
7.046 13.803 1.306
7.0570002 13.823 1.336
7.0635004 13.8965 1.3280001
7.066 13.9615 1.3329999
7.066 14.021 1.324
7.072 14.095 1.329
7.0749998 14.101 1.302
7.0784998 14.171 1.3215001
7.0839996 14.2435 1.3269999
7.0875001 14.313 1.3325
7.0929999 14.388 1.324
7.0959997 14.4585 1.3155
7.0939999 14.519 1.334
7.0999999 14.53 1.306
7.1030002 14.599 1.312
7.1059999 14.606 1.341
7.1085 14.676001 1.332
7.1149998 14.754 1.323
7.1209998 14.833 1.329
7.1225004 14.903 1.3195
7.1285 14.9845 1.326
7.131 15.0575 1.3315001
7.138 15.14 1.323
7.1399999 15.216 1.3279999
7.145 15.298 1.334
7.152 15.311 1.306
7.1575003 15.394 1.327
7.1285 15.436501 1.3435
7.1279998 15.47 1.316
7.152 15.452 1.316
6.7989998 10.6465 1.3765
6.849 10.644 1.357
6.7671671 10.658834 1.3753333
6.8203335 10.654334 1.3706667
6.855 10.654 1.38
6.7615004 10.7125 1.369
6.7674999 10.7635 1.3740001
6.77 10.809 1.3785
6.888 11.084 1.353
6.8990002 11.102 1.378
6.901 11.148 1.359
6.9084997 11.2265 1.378
6.9070001 11.335 1.353
6.9184999 11.377501 1.3685
6.9320002 11.423 1.385
6.9299998 11.479667 1.3743333
6.9272499 11.57525 1.3747499
6.9215002 11.633499 1.3675001
6.9310002 11.697 1.3609999
6.9309998 11.7195 1.3755
6.9250002 11.781 1.368
6.9499998 11.775 1.393
6.934 11.842 1.35
6.9569998 11.836 1.399
6.9419999 11.857 1.376
6.9394999 11.924 1.357
6.9520001 11.922 1.382
6.9629998 11.989 1.388
6.9499998 12.014 1.365
6.9685001 12.072001 1.3835001
6.9635 12.136999 1.364
6.9590001 12.178499 1.3675001
6.9619999 12.23 1.36
6.9775 12.283 1.377
6.967 12.337 1.369
7 12.347 1.396
6.9829998 12.4165 1.3635
6.9860001 12.472 1.3685
6.9790001 12.511 1.359
6.9840002 12.571 1.364
7.0110002 12.568 1.39
6.9840002 12.623 1.368
7.0100002 12.619 1.395
6.9910002 12.689 1.374
6.9980001 12.755 1.354
7.0079999 12.774 1.382
6.9990001 12.81 1.359
6.9970002 12.861 1.363
7.0209999 12.852 1.3890001
7.02 12.93 1.3824999
7.02 13.011 1.376
7.0205002 13.0665 1.3675001
7.0120001 13.106 1.358
7.0290003 13.164499 1.376
7.0250001 13.241 1.369
7.0570002 13.246 1.397
7.026 13.3285 1.3629999
7.0359998 13.432 1.358
7.0510001 13.403 1.383
7.0349998 13.488 1.363
7.0599999 13.477 1.39
7.0479999 13.572 1.37
7.0619998 13.659 1.377
