# .PCD v0.7 - Point Cloud Data file format
VERSION 0.7
FIELDS x y z
SIZE 4 4 4
TYPE F F F
COUNT 1 1 1
WIDTH 1644
HEIGHT 1
VIEWPOINT 0 0 0 1 0 0 0
POINTS 1644
DATA ascii
2.0245717 -2.3279283 -1.5760952
2.0740747 -2.3232253 -1.576925
2.1224592 -2.3253245 -1.5741891
2.1727743 -2.3284838 -1.5743226
2.2256668 -2.3255553 -1.5741946
2.2759032 -2.3277421 -1.5744839
2.3272121 -2.3286669 -1.5746363
2.3729999 -2.3241 -1.5729667
2.4214191 -2.3286128 -1.5714837
2.4745486 -2.3263869 -1.571613
2.5222337 -2.3246 -1.5705334
2.5743442 -2.3228123 -1.5699062
2.622036 -2.3299284 -1.5684286
2.6742413 -2.326345 -1.5684482
2.7231925 -2.3258462 -1.5676923
2.7745717 -2.3198574 -1.5757143
2.8246086 -2.3250005 -1.5798695
2.8765416 -2.3243749 -1.5797919
2.9235001 -2.3244545 -1.5780455
2.9749048 -2.323905 -1.5778095
3.0225501 -2.3279002 -1.5754999
3.0693889 -2.3224447 -1.5755556
3.1201818 -2.3263638 -1.5737728
3.1699998 -2.3221874 -1.572625
3.2231667 -2.3245554 -1.5712223
3.2736316 -2.3258421 -1.5689476
3.3244705 -2.3251762 -1.5683528
3.3726878 -2.3296876 -1.5673751
3.4269497 -2.3247499 -1.5668001
3.4713843 -2.3217695 -1.5640001
3.5256004 -2.3267334 -1.5638002
3.5774288 -2.3225 -1.5619999
3.6269996 -2.3255 -1.5606251
3.6802003 -2.3236668 -1.5602001
3.7219167 -2.3276668 -1.5567501
3.7724285 -2.3225 -1.5568573
3.8290005 -2.3294547 -1.5568182
3.8729169 -2.3234169 -1.5535834
3.9187498 -2.3231251 -1.5529999
3.9727502 -2.319 -1.553
4.0209999 -2.3069999 -1.5523334
4.0680003 -2.3153334 -1.552
4.118 -2.3180001 -1.552
4.1760001 -2.322 -1.551
1.2247427 -2.2760603 -1.5892576
1.325021 -2.2751667 -1.5884584
1.3743336 -2.2756989 -1.5865557
1.4268771 -2.2725437 -1.5839124
1.47782 -2.2744801 -1.58508
1.5272198 -2.2740395 -1.5860002
1.574306 -2.2749591 -1.5834897
1.6233846 -2.2741542 -1.5839038
1.6745999 -2.2729797 -1.5813599
1.725771 -2.2745001 -1.5809793
1.7747502 -2.2756457 -1.5813544
1.823814 -2.2762792 -1.5811397
1.8731115 -2.2757332 -1.5801336
1.9229794 -2.2745211 -1.5794791
1.9748782 -2.2744389 -1.5787072
2.0232627 -2.2751842 -1.5789475
2.0739512 -2.273073 -1.5777072
2.1264613 -2.2764361 -1.577667
2.17507 -2.2743254 -1.5770001
2.2242501 -2.2744725 -1.5764443
2.2744117 -2.2788234 -1.5777942
2.3242164 -2.2742701 -1.5767299
2.3759999 -2.2765296 -1.5771762
2.4248857 -2.2773433 -1.5750287
2.474345 -2.2770002 -1.5740688
2.5226893 -2.273586 -1.5740345
2.5742671 -2.2738333 -1.5743666
2.6235807 -2.2783544 -1.5733225
2.6719313 -2.2752068 -1.5716208
2.7222502 -2.2752857 -1.5715715
2.7766502 -2.2717502 -1.5767
2.8254762 -2.2731907 -1.5785238
2.8745911 -2.2741363 -1.5786364
2.9254346 -2.2736957 -1.5772607
2.9750001 -2.2777503 -1.5773749
3.0225999 -2.2787502 -1.57525
3.0740438 -2.273 -1.5735654
3.1230476 -2.2711904 -1.5725714
3.1759131 -2.2736521 -1.5719999
3.2236497 -2.2746501 -1.5708501
3.2734096 -2.2727275 -1.5705001
3.3239999 -2.2744501 -1.5676
3.3744209 -2.2733159 -1.5663685
3.4293337 -2.2753999 -1.5674667
3.4731176 -2.2768235 -1.5664117
3.5249004 -2.2774999 -1.5655
3.5778747 -2.2796874 -1.5635002
3.625 -2.276 -1.5634375
3.6740625 -2.2750626 -1.5608751
3.7238667 -2.2749333 -1.5609334
3.7771249 -2.2779374 -1.5587499
3.825357 -2.2796431 -1.5563573
3.8718467 -2.274308 -1.5546923
3.9224999 -2.2772 -1.5543
3.9696 -2.2808001 -1.553
4.0103335 -2.2610002 -1.5533333
4.1420002 -2.266 -1.551
4.1500001 -2.2509999 -1.551
2.6239357 -2.2278385 -1.5772905
2.6740334 -2.2243669 -1.5763998
2.724643 -2.2245359 -1.5759286
2.7777619 -2.2294288 -1.5795714
2.8225768 -2.2228847 -1.5798464
2.8754168 -2.2254581 -1.5791249
2.9246089 -2.2245653 -1.5789999
2.9720001 -2.2277584 -1.5761034
3.0229549 -2.2266362 -1.5755454
3.0732381 -2.2247145 -1.5760952
3.1229582 -2.2235 -1.5746249
3.1742501 -2.2256248 -1.573875
3.2226846 -2.2252634 -1.5739999
3.2738752 -2.2253127 -1.5713125
3.3216472 -2.2272942 -1.5694118
3.3722005 -2.2226501 -1.57085
3.4262176 -2.2274785 -1.5679563
3.4818578 -2.221643 -1.5678573
3.5241764 -2.2274115 -1.5671766
3.5744004 -2.2274001 -1.5655502
3.623214 -2.2240002 -1.5635
3.6746874 -2.2250624 -1.5632499
3.7269335 -2.2288001 -1.5618001
3.7753127 -2.2258751 -1.5591252
3.8271875 -2.223 -1.558125
3.871083 -2.2250001 -1.5553334
3.9252312 -2.2296922 -1.5549999
3.973 -2.2279999 -1.5534445
4.0225716 -2.2267144 -1.5520002
4.0675001 -2.23875 -1.552
4.138 -2.217 -1.551
4.1729999 -2.2079999 -1.551
4.2389998 -2.2049999 -1.551
4.2199998 -2.1860001 -1.552
-10.6065 -3.026 -1.5125
-10.556 -3.0120001 -1.534
-10.541 -3.027 -1.533
-10.382334 -3.0203333 -1.5303334
-10.262 -3.0050001 -1.5319999
-10.575167 -2.9771669 -1.5258335
-10.428 -2.9750001 -1.5346668
-10.302 -2.9579999 -1.536
-10.2865 -2.9825001 -1.5345
-10.13325 -2.9767499 -1.5322499
-10.03 -2.9560001 -1.536
-9.9960003 -2.9649999 -1.531
-9.783 -2.9625001 -1.5237499
-9.7262497 -2.9735 -1.52525
-9.675334 -2.9900002 -1.5231667
-10.582749 -2.92875 -1.52525
-10.4855 -2.9219999 -1.5405
-10.449 -2.9419999 -1.536
-10.3375 -2.9194999 -1.5395
-10.299 -2.938 -1.535
-10.18 -2.9230001 -1.5366666
-10.0895 -2.925 -1.543
-10.024 -2.9349999 -1.534
-9.9694996 -2.9284999 -1.5445
-9.927 -2.944 -1.539
-9.8693333 -2.9400001 -1.5426668
-9.842 -2.938 -1.508
-10.51 -2.8786669 -1.5426668
-10.365 -2.878 -1.5415001
-10.345 -2.8729999 -1.539
-10.217 -2.8759999 -1.54
-10.194 -2.8699999 -1.536
-10.1455 -2.8845 -1.549
3.7779999 -2.3315001 -1.5480001
3.865 -2.3110001 -1.548
3.9245 -2.3255 -1.54875
3.9795003 -2.323 -1.5478001
4.0241003 -2.3263998 -1.5461
4.0758185 -2.3226364 -1.5456365
4.1257505 -2.3281667 -1.5445001
4.1774545 -2.3318181 -1.543909
4.2238183 -2.3242729 -1.5431819
4.2702222 -2.3304443 -1.541
4.3222499 -2.3275001 -1.5396667
4.3757 -2.3273001 -1.5389999
4.4163332 -2.3243337 -1.5378335
4.4704165 -2.3287501 -1.5348333
4.5283337 -2.3193336 -1.5330833
4.6259995 -2.3254001 -1.5292
4.6789999 -2.321625 -1.5258749
4.723875 -2.3170002 -1.5231249
4.7795558 -2.3255553 -1.523
4.8227501 -2.3226249 -1.5211251
4.8719001 -2.3236003 -1.5183001
4.9248753 -2.3253751 -1.516875
4.9768753 -2.3182499 -1.516625
5.0765004 -2.32425 -1.5135
3.7060001 -2.296 -1.55
3.8110001 -2.2969999 -1.5470001
3.8889999 -2.279 -1.55
3.9386668 -2.2720001 -1.5490001
3.978143 -2.2698572 -1.5482858
4.0310836 -2.2735002 -1.54725
4.0768886 -2.2694445 -1.5464444
4.1259232 -2.2770772 -1.5461539
4.175364 -2.2754548 -1.5444546
4.2228336 -2.2735 -1.5439169
4.2700005 -2.2795835 -1.5410836
4.320231 -2.2754617 -1.5383847
4.3772001 -2.2745001 -1.5384001
4.4233079 -2.2758465 -1.5373849
4.4738336 -2.2753332 -1.5361665
4.5215001 -2.2735 -1.5335001
4.5713844 -2.2771537 -1.5315386
4.6205554 -2.2739999 -1.5303332
4.6737504 -2.2760832 -1.5304999
4.7212005 -2.2714002 -1.5277001
4.7747498 -2.2793748 -1.5271249
4.8265834 -2.2732501 -1.524
4.8684998 -2.271625 -1.5201252
4.9267006 -2.2742 -1.5201999
4.9809999 -2.2764287 -1.5191429
5.0284286 -2.2787144 -1.5181429
5.0757504 -2.2757499 -1.517125
5.1258001 -2.2792003 -1.5142001
5.172667 -2.274111 -1.516
5.2230005 -2.2730002 -1.5132859
5.27175 -2.2839999 -1.5135
6.2140002 -2.257 -1.511
6.2729998 -2.2657499 -1.50875
6.553 -2.263 -1.503
3.8 -2.237 -1.55
3.8740001 -2.2210002 -1.5485001
3.9435 -2.2255001 -1.548
3.9777498 -2.2125001 -1.5475
4.032167 -2.219667 -1.5485001
4.0830002 -2.22 -1.547375
4.1265006 -2.2260001 -1.5470001
4.1763997 -2.2255001 -1.5469999
4.2264009 -2.227 -1.5452003
4.2768888 -2.2294445 -1.541
4.3285007 -2.2242143 -1.5419285
4.3800998 -2.2244999 -1.5404
4.4295001 -2.2250001 -1.5393751
4.4761 -2.2261002 -1.5389001
4.5241008 -2.2285001 -1.5373001
4.5758333 -2.2252502 -1.5339165
4.6277499 -2.22175 -1.533375
4.6748996 -2.221 -1.5327001
4.7250004 -2.2300003 -1.5317146
4.7721539 -2.227 -1.5290002
4.8313751 -2.2199998 -1.5281249
4.8821111 -2.2295556 -1.5256666
4.9254999 -2.2215002 -1.522625
4.979301 -2.2300999 -1.5184
5.0271664 -2.2235003 -1.5178335
5.0732861 -2.2232857 -1.5187144
5.1211429 -2.2304287 -1.5167145
5.1698337 -2.2238336 -1.5173334
5.2192726 -2.2273636 -1.5098182
5.2750001 -2.20625 -1.5145
5.3234997 -2.2125001 -1.508
6.0890002 -2.2119999 -1.522
6.1270003 -2.2133336 -1.5190001
6.1647501 -2.2207501 -1.5157501
6.2265 -2.2244999 -1.5112499
6.2903337 -2.2306666 -1.507
6.3236003 -2.2288001 -1.5070001
6.3826003 -2.2268 -1.5068001
6.4226665 -2.2183332 -1.5056667
6.461 -2.2189999 -1.5053333
6.5141997 -2.2244 -1.5042
6.5757504 -2.2262499 -1.5045
6.6240001 -2.2297499 -1.502
6.6869998 -2.2179999 -1.501
6.7459998 -2.2249999 -1.501
6.7550001 -2.2019999 -1.501
6.8119998 -2.22 -1.501
4.4790001 -2.1783333 -1.5408334
4.5756664 -2.178417 -1.5380834
4.681375 -2.1787498 -1.5352501
4.7266665 -2.1777775 -1.5345557
4.7761002 -2.1797001 -1.5329999
4.8283639 -2.1742728 -1.531
4.8766661 -2.1747777 -1.5300001
4.9210773 -2.1755385 -1.5227692
4.9762855 -2.1767144 -1.5182859
5.0695715 -2.1810002 -1.5178572
5.1162853 -2.176857 -1.5172858
5.1741252 -2.1776252 -1.516625
5.2249999 -2.188 -1.5185001
5.2565002 -2.1900001 -1.516
5.9324999 -2.161 -1.5185
5.9860001 -2.1623335 -1.5186667
6.0225 -2.16975 -1.5157501
6.085 -2.1860003 -1.5193334
6.1258006 -2.1719999 -1.5175999
6.18925 -2.1805 -1.5180001
6.2249999 -2.1745999 -1.5156001
6.2691436 -2.1741428 -1.5138571
6.3265004 -2.1789999 -1.5112499
6.3793998 -2.1784 -1.5101999
6.4364996 -2.17925 -1.5097499
6.4840002 -2.1764998 -1.50725
6.5306001 -2.177 -1.5070001
6.5770001 -2.1754999 -1.50475
6.6116667 -2.1723335 -1.5043334
6.6572499 -2.17625 -1.5055001
6.7151999 -2.1758001 -1.5044001
6.7754998 -2.1755002 -1.50375
6.8270001 -2.1719999 -1.501
6.2119999 -2.1216667 -1.5183334
6.2814288 -2.1242859 -1.5164286
6.316 -2.1366668 -1.5139999
6.3676672 -2.1273334 -1.5141667
6.4216666 -2.1268334 -1.5111666
6.4603338 -2.1226668 -1.5106667
6.513 -2.12925 -1.51
6.57125 -2.12275 -1.5092499
6.619 -2.1252501 -1.507
6.6789994 -2.1252 -1.5064
6.7235003 -2.1200001 -1.50225
6.79 -2.1277499 -1.5035
6.8379998 -2.1489999 -1.501
6.862 -2.1105001 -1.5039999
6.9210005 -2.1086669 -1.507
6.974 -2.1315 -1.501
7.0009999 -2.1059999 -1.505
7.0599999 -2.1110001 -1.5039999
7.1300001 -2.1040001 -1.5039999
-10.616 -3.029 -1.4744999
-10.594 -3.0026665 -1.4806666
-9.6245003 -3.0202501 -1.49
-9.5909996 -3.0190001 -1.4584999
-10.587334 -2.9705 -1.4783334
-9.7718 -2.9656 -1.4778
-9.7146673 -2.9750001 -1.4736667
-9.6774998 -2.9860001 -1.4735
-9.6196671 -2.9946666 -1.4676666
-8.4200001 -3 -1.471
-9.823 -2.9319999 -1.487
5.2355003 -2.2525001 -1.4909999
5.3277497 -2.2750001 -1.478
5.3670001 -2.2750001 -1.466
5.4215002 -2.2644999 -1.4605
5.4720001 -2.2850001 -1.469
6.5370002 -2.27 -1.5
6.6549997 -2.2659998 -1.4985
5.2354999 -2.2225714 -1.4794285
5.2644377 -2.2212503 -1.4721247
5.3203335 -2.2245557 -1.4640001
5.3720007 -2.2363334 -1.4560001
6.5450001 -2.2479999 -1.5
6.6722503 -2.2294998 -1.4992501
6.7300005 -2.2280002 -1.4976667
6.7853332 -2.2286668 -1.4960001
6.8010001 -2.23 -1.499
6.8650002 -2.2238002 -1.4988
6.9166002 -2.2274001 -1.4958
6.9822502 -2.2285001 -1.4955
7.0419998 -2.2335 -1.4945
7.0544996 -2.21 -1.4955001
7.1037502 -2.22575 -1.4925001
7.1607494 -2.2297499 -1.4894999
7.2307501 -2.2234998 -1.4892499
7.2849998 -2.24 -1.4865
7.3044996 -2.2179999 -1.489
7.3645 -2.22225 -1.4865
7.42975 -2.2275 -1.485
7.4959998 -2.24 -1.484
7.5163336 -2.2176666 -1.4863334
7.579 -2.2275999 -1.4809999
7.6070004 -2.23 -1.475
7.6706004 -2.2308002 -1.4661999
7.7259998 -2.2135 -1.4665
7.7585001 -2.2375 -1.4584999
7.8150001 -2.201 -1.452
5.2670002 -2.2 -1.498
6.8199997 -2.1786668 -1.4996667
6.8797498 -2.16925 -1.498
6.9400001 -2.1813333 -1.4976667
6.9549999 -2.1589999 -1.499
7.0093994 -2.1760001 -1.4976
7.0769997 -2.1767502 -1.49775
7.1274996 -2.1782498 -1.494
7.1877499 -2.18275 -1.4920001
7.2069998 -2.154 -1.494
7.2575002 -2.17625 -1.4915
7.3200002 -2.181 -1.48975
7.3905001 -2.188 -1.4895
7.402 -2.1630001 -1.49
7.4615002 -2.1802502 -1.48825
7.5356669 -2.1800001 -1.4873333
7.5858574 -2.1760001 -1.4801428
7.6273336 -2.1776667 -1.4710001
7.6747499 -2.1690001 -1.4695001
7.7407503 -2.1802499 -1.46375
7.7799997 -2.1684999 -1.4665
7.8204002 -2.1697998 -1.4576
7.8590002 -2.154 -1.4579999
6.8354998 -2.1285 -1.4995
6.8924999 -2.1329999 -1.4985
6.9559999 -2.1259999 -1.4974999
7.0296664 -2.1286669 -1.4986666
7.0847502 -2.1247499 -1.4962499
7.1465001 -2.1430001 -1.4955001
7.1620002 -2.1136668 -1.4966667
7.2220001 -2.1245 -1.49525
7.2743335 -2.1329999 -1.4920001
7.3264999 -2.1307499 -1.49175
7.3625002 -2.1090002 -1.494
7.4160004 -2.1245003 -1.4907501
7.4850001 -2.1373334 -1.4903334
7.5124998 -2.109 -1.494
7.5799999 -2.1230001 -1.4883335
7.6296 -2.1313999 -1.4796
7.6856666 -2.1210003 -1.4786667
7.7329998 -2.1269999 -1.4779999
7.7783332 -2.1198335 -1.4760001
7.8297997 -2.1254001 -1.4630001
7.8625002 -2.1185 -1.4565001
7.4440002 -2.0895 -1.494
7.5926666 -2.0813336 -1.4933333
7.7255001 -2.0885 -1.4890001
12.517 -2.0050001 -1.4579999
13.076 -2.0009999 -1.452
13.16 -1.9910001 -1.461
13.286 -1.9859999 -1.451
16.661499 -1.8215001 -1.4575
16.674 -1.779 -1.4579999
16.629999 -1.716 -1.454
16.657 -1.748 -1.457
-9.5758743 -3.0763752 -1.421
-10.623667 -3.0310001 -1.4263334
-9.5708342 -3.0220001 -1.4263334
-9.7875004 -2.9594998 -1.438
-9.7328005 -2.9690001 -1.4254
-9.6765003 -2.9809999 -1.4235001
-9.625001 -2.9912 -1.4297999
-9.5790005 -2.997 -1.4115
7.8301435 -2.2842858 -1.4277142
7.8710003 -2.2711251 -1.415625
7.7150002 -2.2019999 -1.449
7.7883334 -2.2233334 -1.4486668
7.8330002 -2.22875 -1.44225
7.8786664 -2.2254443 -1.4254445
7.923667 -2.2210002 -1.413
7.7140002 -2.188 -1.449
7.8470001 -2.187 -1.443
7.8815002 -2.1746669 -1.4355001
7.9213996 -2.1736 -1.4194
7.9664001 -2.174 -1.406
12.972 -2.02 -1.441
13.147 -2.0120001 -1.437
13.287 -2.01 -1.428
13.444 -2.01 -1.42
13.634501 -2.026 -1.416
14.241 -2.003 -1.402
12.454 -1.951 -1.428
12.663 -1.961 -1.429
13.184 -1.995 -1.4400001
13.212 -1.951 -1.442
13.3 -1.988 -1.429
13.384 -1.9529999 -1.437
13.459499 -1.9879999 -1.4335001
13.592 -1.96 -1.4349999
13.657 -1.9925001 -1.4300001
13.814334 -1.9836668 -1.4253334
14.015001 -1.9876668 -1.421
14.169 -1.993 -1.42
14.218 -1.975 -1.424
14.342 -1.992 -1.411
14.556 -1.995 -1.406
14.7 -1.9630001 -1.42
12.47 -1.931 -1.429
12.6925 -1.9325 -1.432
13.019501 -1.9349999 -1.4450001
13.165 -1.921 -1.437
13.347 -1.924 -1.433
13.36 -1.903 -1.434
13.5435 -1.9170001 -1.4295
13.7175 -1.9175 -1.423
13.9205 -1.921 -1.419
14.104 -1.921 -1.4124999
14.347 -1.916 -1.411
14.373 -1.944 -1.414
14.616 -1.926 -1.411
14.879499 -1.92 -1.4095
15.233 -1.924 -1.416
15.5665 -1.924 -1.4189999
13.027667 -1.8786666 -1.4450001
13.173 -1.899 -1.437
13.538 -1.881 -1.428
13.747499 -1.8724999 -1.425
13.926001 -1.872 -1.4184999
14.129499 -1.8745 -1.414
14.365 -1.8795 -1.4124999
14.606501 -1.8845 -1.4095
14.892 -1.881 -1.41
14.91 -1.857 -1.4119999
15.221 -1.8815 -1.4145
15.583 -1.857 -1.42
15.6 -1.887 -1.421
16.041 -1.868 -1.4325
15.244 -1.816 -1.416
15.253 -1.845 -1.4170001
15.591 -1.83 -1.42
15.614 -1.804 -1.4220001
16.044001 -1.825 -1.432
16.860001 -1.8279999 -1.4450001
17.117001 -1.826 -1.437
17.399 -1.825 -1.429
17.650999 -1.8200001 -1.419
17.968 -1.823 -1.4119999
16.047001 -1.7970001 -1.432
16.08 -1.773 -1.4349999
16.874001 -1.8 -1.446
16.912001 -1.774 -1.449
17.118999 -1.766 -1.436
17.15 -1.799 -1.439
17.369499 -1.7765 -1.4265
17.6115 -1.7715 -1.415
17.886999 -1.784 -1.406
17.905001 -1.7539999 -1.4069999
18.247999 -1.7869999 -1.402
18.266001 -1.757 -1.403
18.702 -1.799 -1.404
18.757999 -1.772 -1.408
16.870998 -1.7260001 -1.4449999
17.1085 -1.721 -1.4354999
17.368 -1.717 -1.426
17.615999 -1.726 -1.415
17.917999 -1.724 -1.408
18.302999 -1.729 -1.406
18.766001 -1.74 -1.408
18.834999 -1.7130001 -1.413
17.632999 -1.696 -1.416
17.945 -1.6950001 -1.41
18.34 -1.684 -1.4085
18.847 -1.6799999 -1.414
-9.5545006 -3.118 -1.3865
-9.54 -3.1135001 -1.3665
-9.5314999 -3.0734999 -1.37225
-9.5613346 -3.013 -1.3830001
-9.5209999 -3.0220003 -1.373
-3.9143603 -2.8772397 -1.3743598
7.9264441 -2.3228886 -1.3738887
7.9662499 -2.3155 -1.35425
7.8920002 -2.2980001 -1.397
7.9249997 -2.2736669 -1.3877779
7.9718571 -2.2775714 -1.364143
8.0080013 -2.2603335 -1.3596667
7.9307499 -2.22575 -1.3995
7.9721432 -2.225143 -1.3852857
8.0220003 -2.2261429 -1.3657144
8.0559998 -2.207 -1.36
7.9945002 -2.1835001 -1.3935001
24.587999 -1.5319999 -1.367
25.195 -1.525 -1.357
24.032 -1.497 -1.3789999
24.556999 -1.487 -1.3660001
25.17 -1.48 -1.355
24.599001 -1.446 -1.368
25.268 -1.441 -1.3609999
26.607 -1.426 -1.386
27.18 -1.409 -1.368
26.669001 -1.383 -1.3890001
27.163 -1.362 -1.367
26.635 -1.336 -1.387
27.186001 -1.317 -1.368
-14.305 -3.4170001 -1.33
-14.221 -3.4230001 -1.323
-14.289 -3.3870001 -1.302
-9.5179996 -3.152 -1.33
-9.5124998 -3.12325 -1.33675
-9.4803333 -3.1220002 -1.3060001
-9.5115004 -3.086 -1.335
-9.4822502 -3.076 -1.31775
7.9741664 -2.3746667 -1.3296669
8.0162497 -2.3717501 -1.3083751
7.9764009 -2.3342001 -1.3408002
8.0221434 -2.3285713 -1.3211429
8.0625 -2.3164999 -1.3092501
7.9970002 -2.2980001 -1.339
8.0328007 -2.2802 -1.3379999
8.068778 -2.2734444 -1.3227777
8.1103344 -2.2580001 -1.3153334
8.0721664 -2.2268333 -1.3404999
27.259001 -1.461 -1.325
27.278 -1.414 -1.325
27.278 -1.369 -1.325
-14.1585 -3.4732499 -1.28
-14.1655 -3.42225 -1.2795
-14.272 -3.3559999 -1.274
-14.2245 -3.385 -1.284
-14.172 -3.385 -1.267
-9.5010004 -3.165 -1.293
-9.4589996 -3.1689999 -1.252
-8.6210003 -3.175 -1.299
-8.567667 -3.1719999 -1.276
-8.5212498 -3.1759999 -1.2662499
-8.4785566 -3.1877778 -1.2775556
-8.4490004 -3.1949999 -1.278
-9.4620008 -3.1216667 -1.2803334
-9.448 -3.138 -1.2674999
7.994 -2.4030001 -1.299
8.0271664 -2.4258335 -1.2850001
8.0751114 -2.4222224 -1.2636667
8.0732002 -2.3777003 -1.2797
8.1146002 -2.3682001 -1.258
8.0769997 -2.336 -1.28975
8.121335 -2.322778 -1.2762221
8.1606665 -2.3133335 -1.2596667
8.1276007 -2.2822001 -1.2955999
27.405001 -1.515 -1.284
27.406 -1.469 -1.284
27.4 -1.42 -1.283
-29.114 -4.2179999 -1.222
-29.160999 -4.1729999 -1.224
-14.166667 -3.5233333 -1.2346667
-14.15 -3.5369999 -1.217
-14.153666 -3.4676666 -1.224
-14.15 -3.484 -1.2410001
-14.1565 -3.4205 -1.2275
-14.1395 -3.4159999 -1.2265
-8.5019999 -3.2149999 -1.205
-8.4795456 -3.2308185 -1.2278183
-8.4499998 -3.2290001 -1.247
-8.5148335 -3.1863332 -1.2241666
-8.4850006 -3.1923332 -1.2283334
-3.9306297 -3.0243702 -1.2217778
-3.9290388 -2.9744232 -1.2244616
8.1301832 -2.4269092 -1.2271818
8.1657505 -2.4194999 -1.2079999
8.1370001 -2.3840001 -1.244
8.1741114 -2.3757777 -1.2253335
8.2182503 -2.3687501 -1.20925
8.1808338 -2.3370001 -1.2383332
27.410999 -1.564 -1.2359999
27.431 -1.517 -1.237
27.382 -1.467 -1.235
30.007 -1.401 -1.248
29.995001 -1.349 -1.247
-14.165 -3.5272501 -1.17925
-14.15975 -3.4737501 -1.1775
-8.5719995 -3.3440001 -1.155
-8.5176678 -3.3145003 -1.1791667
-8.5194445 -3.2725554 -1.1772223
-8.5197496 -3.2241247 -1.17725
-8.5159998 -3.187 -1.189
-3.9313202 -3.0224402 -1.176
8.177 -2.4579999 -1.192
27.407 -1.61 -1.188
27.423 -1.564 -1.189
27.416 -1.516 -1.188
30.018 -1.4529999 -1.196
29.995001 -1.4 -1.1950001
-14.185 -3.5190001 -1.142
-8.5652504 -3.3117499 -1.12375
-8.5389996 -3.3139999 -1.149
-8.5682859 -3.2742858 -1.1184286
-8.54175 -3.2810001 -1.1442499
-8.5439997 -3.24 -1.147
-3.9371994 -3.0771201 -1.12688
30.02 -1.505 -1.1440001
30.013 -1.452 -1.143
-7.5190001 -3.3640001 -1.091
-7.4808998 -3.3686001 -1.077
-7.4297996 -3.3766 -1.0698
-8.6059999 -3.306 -1.075
-8.6000004 -3.3210001 -1.092
-8.5860004 -3.2980001 -1.089
-3.9584999 -3.1355 -1.0650001
-3.9428263 -3.1239564 -1.0763046
-3.9423635 -3.0753179 -1.0787272
-0.77850002 -3.0465 -1.0964999
30.028999 -1.608 -1.092
30.011 -1.554 -1.091
30.030001 -1.506 -1.092
-7.3024998 -3.4054999 -1.018
-7.2910004 -3.4265714 -1.0267143
-7.4828892 -3.3649998 -1.0208889
-7.428 -3.3757999 -1.0318002
-7.375001 -3.3797996 -1.0217
-7.3260002 -3.3887498 -1.023
-7.2936668 -3.3906667 -1.0320001
-7.48 -3.3464999 -1.0345
-3.9475999 -3.2138002 -1.02
-3.9547145 -3.1638575 -1.0312858
-3.9463334 -3.1773336 -1.0214001
-3.9545555 -3.1307781 -1.0261111
-0.62466669 -3.0913334 -1.0386667
17.646 -2.2590001 -1.017
17.635 -2.2249999 -1.017
17.622499 -2.177 -1.0155001
17.643999 -2.132 -1.016
30.047001 -1.66 -1.04
30.014 -1.607 -1.039
30.007 -1.554 -1.038
-24.4855 -4.2729998 -0.98900002
-24.466 -4.2030001 -0.98699999
-7.3057771 -3.4708889 -0.97766668
-7.2937498 -3.4712501 -0.97000003
-7.3066669 -3.422667 -0.98800004
-7.2928333 -3.4241667 -0.97233331
-7.5065002 -3.3579998 -0.96599996
-7.4720006 -3.3674285 -0.97414291
-7.428 -3.3734999 -0.97974998
-7.3768578 -3.3775718 -0.97642863
-7.3258572 -3.3872857 -0.96942866
-7.2919998 -3.3944001 -0.97460002
-7.4899998 -3.3429999 -0.98500001
-3.947 -3.2690001 -0.95099998
-3.9588668 -3.2274003 -0.97313339
-3.9476666 -3.2251668 -0.97833335
17.6285 -2.2725 -0.98549998
17.642 -2.2260001 -0.986
30.021 -1.711 -0.98699999
30.024 -1.659 -0.98699999
30.031 -1.608 -0.98699999
-24.508999 -4.3429999 -0.92449999
-24.506001 -4.2764997 -0.92400002
-24.483999 -4.2950001 -0.90200001
-24.482666 -4.2206669 -0.93033332
-7.3163333 -3.5246668 -0.9275555
-7.2969999 -3.5120001 -0.90100002
-7.3053751 -3.4749999 -0.925125
-7.2973337 -3.4703331 -0.93233335
-7.3140001 -3.4264998 -0.92699999
-7.291801 -3.4222 -0.92180008
-3.9647999 -3.2751501 -0.92535013
-3.9450002 -3.227 -0.94599998
30.035 -1.7640001 -0.935
30.044001 -1.712 -0.935
30.052999 -1.66 -0.935
-7.3160005 -3.562 -0.8768
-7.3191996 -3.5256002 -0.87540007
-7.3081117 -3.4742222 -0.87977779
-7.2979999 -3.4660001 -0.88499999
-3.9730504 -3.3236001 -0.87220001
-3.9489999 -3.2939999 -0.89899999
30.034 -1.816 -0.88200003
30.040001 -1.765 -0.88200003
30.027 -1.711 -0.88200003
-7.3202496 -3.55825 -0.83749998
-7.31425 -3.5242505 -0.82375002
-3.9860001 -3.408 -0.80500001
-3.9788823 -3.3728237 -0.82152939
-0.84799999 -3.3629999 -0.80500001
30.038 -1.868 -0.82999998
30.030001 -1.8150001 -0.82999998
30.062 -1.766 -0.82999998
-7.323 -3.5556667 -0.77700007
-3.9911001 -3.4230001 -0.77389997
30.044001 -1.924 -0.778
30.039 -1.868 -0.77700001
30.032 -1.8150001 -0.77700001
-5.8703003 -3.6619999 -0.72780001
-5.8226161 -3.6721539 -0.72315389
-5.697 -3.6960001 -0.70700002
-5.9039998 -3.6429999 -0.74699998
-5.8899999 -3.648 -0.72750002
-4.0105 -3.4724998 -0.72899997
-3.9987502 -3.4589999 -0.72424996
-0.65237504 -3.43275 -0.72512501
-0.648 -3.4089999 -0.74800003
30.023001 -1.975 -0.72500002
30.040001 -1.923 -0.72500002
30.035999 -1.868 -0.72500002
-5.7054996 -3.7014999 -0.67799997
-5.6759996 -3.7088749 -0.67912501
-5.6263747 -3.723125 -0.67487496
-5.8650002 -3.6687498 -0.67800003
-5.8282728 -3.6670003 -0.68054551
-5.7755718 -3.6783574 -0.67335719
-5.7273636 -3.6890907 -0.67781824
-5.6807499 -3.69625 -0.67300004
-5.6360002 -3.6989999 -0.65399998
-5.8444996 -3.6485 -0.66299999
-0.65724999 -3.45925 -0.6735
30.021999 -2.029 -0.67199999
30.040001 -1.976 -0.67299998
30.034 -1.923 -0.67199999
-27.752001 -4.7690001 -0.62900001
-5.578167 -3.7730002 -0.61616671
-5.6753745 -3.706625 -0.626625
-5.6261339 -3.7156003 -0.6268
-5.5805836 -3.732167 -0.61650002
-5.9089999 -3.6653335 -0.61433333
-5.8738341 -3.6720834 -0.62591666
-5.8265557 -3.6772225 -0.62455553
-5.7688184 -3.6787274 -0.62609094
-5.7280717 -3.6883574 -0.62464297
-5.6918001 -3.6958001 -0.63260001
-0.66500008 -3.5344288 -0.62671435
30.018 -2.0810001 -0.62
30.016001 -2.0280001 -0.62
-5.5489998 -3.8175001 -0.55949998
-5.559 -3.7833335 -0.58966666
-5.5414004 -3.7787998 -0.56639999
-5.6620002 -3.7064998 -0.57800001
-5.6191998 -3.7086003 -0.57790005
-5.5770001 -3.723 -0.57521427
-5.536818 -3.7397275 -0.5698182
-5.638 -3.7 -0.57200003
-0.66916668 -3.5643334 -0.57816672
-0.667 -3.5469999 -0.57733339
30.021999 -2.1340001 -0.56699997
30.016001 -2.0810001 -0.56699997
-7.475667 -3.9583335 -0.5406667
-7.4393749 -3.9742501 -0.52249998
-7.5786004 -3.9248002 -0.53379995
-7.5279994 -3.9313745 -0.52625
-7.474 -3.9324999 -0.51749998
-7.4406662 -3.9343333 -0.51366663
-7.5875001 -3.8905001 -0.50800002
-5.5284448 -3.8690004 -0.52099997
-5.5211115 -3.8241115 -0.52877778
-5.5085998 -3.7708001 -0.53780001
-5.4885721 -3.7727141 -0.51142859
-0.67387497 -3.619375 -0.527125
-0.67000002 -3.5634999 -0.52525002
30.042 -2.1889999 -0.51499999
30.030001 -2.1340001 -0.51499999
-7.4542003 -4.0272002 -0.4646
-7.4393339 -3.9764166 -0.47641668
-7.5570002 -3.901 -0.49900001
-7.5290003 -3.911 -0.4975
-7.4840002 -3.9119999 -0.495
-7.4367776 -3.9212222 -0.47855559
-7.4767499 -3.8877499 -0.47599998
-5.484714 -3.8711429 -0.47185716
-5.4767776 -3.8263333 -0.48188889
-0.68033338 -3.6906669 -0.48100001
-0.67575002 -3.6288748 -0.476125
30.070999 -2.2449999 -0.463
30.049 -2.1889999 -0.463
-7.4664998 -4.0837498 -0.42150003
-7.4463339 -4.0710006 -0.42899999
-7.4538002 -4.0337996 -0.42920002
-7.44525 -4.0212498 -0.41499999
-7.4552503 -3.9890001 -0.42199999
-7.4381666 -3.9631667 -0.42550001
-5.4749999 -3.901 -0.44100001
-5.4520001 -3.8705001 -0.43799999
-5.4381247 -3.86975 -0.418125
-5.4510002 -3.8410001 -0.449
-0.68742859 -3.7291434 -0.42585716
-0.68060005 -3.6562002 -0.42020002
30.042 -2.296 -0.41
30.041 -2.243 -0.41
-7.4775 -4.07725 -0.3845
-7.454 -4.0336003 -0.38780004
-7.448667 -4.0163336 -0.36833334
-0.69225001 -3.7580001 -0.3655
-0.69 -3.74475 -0.39074999
30.025999 -2.348 -0.35800001
30.042999 -2.296 -0.35800001
-4.0728002 -4.0157008 -0.32425001
-4.0253916 -4.0290003 -0.32360867
-3.98875 -4.0349998 -0.31675002
-4.105 -3.9979999 -0.345
-0.70166671 -3.8443334 -0.31800002
-0.699 -3.829 -0.34200001
-0.69662499 -3.7811248 -0.32737499
30.054001 -2.457 -0.30500001
30.044001 -2.404 -0.30500001
30.02 -2.348 -0.30500001
-4.0050001 -4.0970001 -0.26499999
-3.9930003 -4.0738821 -0.27417645
-2.9541664 -4.0318336 -0.26250002
-2.9197779 -4.0263333 -0.2769444
-2.8767416 -4.0268717 -0.27551609
-2.8259647 -4.0280004 -0.27332145
-2.7737088 -4.0276122 -0.27280647
-0.70528573 -3.8660002 -0.27614287
-0.70174998 -3.8102503 -0.26899999
-0.69999999 -3.802 -0.29899999
-0.69866669 -3.7923334 -0.27533334
30.02 -2.507 -0.25299999
30.076 -2.4590001 -0.25299999
30.009001 -2.401 -0.252
-4.0030003 -4.1090002 -0.235
-3.9944289 -4.1244287 -0.2225
-2.7537999 -4.0668006 -0.2112
-2.7350554 -4.0782223 -0.22688887
-3.003 -4.0190001 -0.205
-2.9718635 -4.0255456 -0.22363636
-2.923862 -4.0234823 -0.2253793
-2.8746791 -4.0251784 -0.22285715
-2.82531 -4.0266552 -0.22355175
-2.7751153 -4.0275774 -0.22153848
-2.7340627 -4.0321879 -0.24000001
-2.1774001 -4.0445337 -0.22766668
-2.1308336 -4.0464168 -0.22258334
-2.0929999 -4.046 -0.20200001
-0.71571428 -3.9652858 -0.227
-0.70762497 -3.880125 -0.22562499
-26.718 -5.2179999 -0.18000001
-26.761 -5.1789999 -0.18099999
-4.0040998 -4.1809001 -0.1789
-3.9970002 -4.1712499 -0.16874999
-2.7790558 -4.1261663 -0.17311111
-2.802 -4.0754995 -0.15899999
-2.7784207 -4.0826845 -0.17784211
-2.1605 -4.0622501 -0.18775
-2.1250002 -4.0571899 -0.17404762
-2.0765452 -4.0630002 -0.17493941
-2.0280285 -4.0675998 -0.17305714
-1.9768753 -4.0752754 -0.17422494
-1.9257027 -4.0787835 -0.17370269
-1.8900001 -4.0812502 -0.15825
-3.052 -4.027 -0.163
-3.0223687 -4.0265789 -0.16910526
-2.9757335 -4.0265336 -0.17433333
-2.9242697 -4.0259228 -0.17307693
-2.8758929 -4.0253572 -0.17092857
-2.8241997 -4.0237198 -0.17599998
-2.7812176 -4.0333476 -0.1835652
-2.1247001 -4.0444007 -0.17999999
-2.09025 -4.0487499 -0.17399999
-1.927 -4.0479999 -0.152
-0.71849996 -3.9795001 -0.175375
30.006001 -2.5599999 -0.2
30.000999 -2.5050001 -0.2
30.01 -2.4530001 -0.2
-26.583 -5.2880001 -0.132
-26.674 -5.2090001 -0.133
-26.629999 -5.2490001 -0.133
-26.745001 -5.1760001 -0.133
-4.0053339 -4.2123337 -0.12033334
-3.997 -4.2045002 -0.13699999
-2.8325002 -4.1663337 -0.11833334
-2.8228886 -4.131278 -0.12538889
-1.8722223 -4.1308889 -0.12799999
-2.8226669 -4.0758576 -0.12785715
-2.796 -4.0815001 -0.146
-2.1085 -4.0587502 -0.14300001
-2.0733333 -4.0573335 -0.12679169
-2.0232184 -4.0636873 -0.12549998
-1.9736665 -4.0716386 -0.12758334
-1.9260608 -4.0787883 -0.1250606
-1.8782498 -4.0806251 -0.12196874
-1.844 -4.0854998 -0.105
-0.72899997 -4.080143 -0.12557144
-2.1123333 -4.048667 -0.139
-2.0778182 -4.0415459 -0.12645455
-2.0339999 -4.0463338 -0.11533334
-1.984 -4.0489998 -0.117
-0.71928579 -3.9852858 -0.1227143
2.414381 -3.9247143 -0.13042857
30.039 -2.6170001 -0.148
30.031 -2.562 -0.148
30.017 -2.507 -0.147
-26.486 -5.3169999 -0.085000001
-26.077999 -5.3280001 -0.082999997
-26.539 -5.2789998 -0.085000001
-26.587 -5.2410002 -0.085000001
-4.0402002 -4.2650003 -0.077200003
-2.8731668 -4.1583338 -0.073333338
-2.849 -4.151 -0.092
-1.8279999 -4.1751251 -0.069124997
-2.8733337 -4.1209335 -0.070799999
-2.8469999 -4.1219997 -0.098000005
-1.857 -4.105 -0.090000004
-1.8260834 -4.1229172 -0.076833338
-0.7179355 -4.1350956 -0.075354837
-0.69999999 -4.1290002 -0.064999998
-2.8463335 -4.0810003 -0.096666664
-2.0675557 -4.0582223 -0.090999998
-1.9735001 -4.0650496 -0.074225001
-1.9257104 -4.0726843 -0.07571052
-1.8742199 -4.0803657 -0.077292681
-1.8285789 -4.0807896 -0.072368413
-0.73049998 -4.0909996 -0.072999999
2.4090002 -3.974889 -0.071555547
30.018 -2.6689999 -0.094999999
30.023001 -2.615 -0.094999999
30.003 -2.559 -0.094999999
-25.971001 -5.3540001 -0.037
-26.438 -5.3070002 -0.037999999
-26 -5.3119998 -0.037
-26.481001 -5.2680001 -0.037999999
-26.101999 -5.2859998 -0.037
-4.0949998 -4.3379998 -0.037
-1.8095 -4.2327499 -0.039999999
-1.7848572 -4.2222857 -0.014285715
-2.9116669 -4.159667 -0.028000001
-2.895 -4.1560001 -0.048999999
-1.8045001 -4.1704998 -0.043000001
-1.7869999 -4.1777501 -0.021625001
-0.727 -4.1529999 -0.028999999
0.19066668 -4.1681666 -0.012666667
-1.804 -4.1094999 -0.034499999
-1.7799 -4.1235003 -0.023199998
-0.719657 -4.1332569 -0.025228573
-0.69966668 -4.1283336 -0.015000001
0.19599999 -4.1490002 -0.003
0.22454545 -4.1449094 -0.01736364
0.27766669 -4.1461668 -0.018666666
0.32464287 -4.1446433 -0.019142857
0.37266669 -4.1453333 -0.028500002
0.42174998 -4.145 -0.0285
-0.73150003 -4.0964999 -0.031999998
2.4091499 -4.0278997 -0.024400001
30.011999 -2.7219999 -0.041999999
30.014 -2.668 -0.041999999
30.004 -2.6129999 -0.041999999
-25.999001 -5.4070001 0.0089999996
-25.983 -5.3559999 0.0089999996
-25.966 -5.3060002 0.0089999996
-26.393 -5.2969999 0.0089999996
-4.1170835 -4.3761668 0.023666669
-4.105 -4.349 0.015
-1.7645 -4.2238336 0.010666667
-1.7417145 -4.217 0.035999998
-0.70914292 -4.231286 0.026428573
0.14 -4.2210002 0.048
0.16466668 -4.2106667 0.021000002
-1.75875 -4.1800003 0.012
-0.72750002 -4.1595001 0.011
0.14139999 -4.1738 0.0418
0.1769643 -4.1641784 0.024499999
0.22569442 -4.1600552 0.023555554
0.27451614 -4.1600318 0.025129031
0.32712501 -4.1599684 0.0263125
0.37244678 -4.1636176 0.026340423
0.41125 -4.1813331 0.017416663
-0.71872973 -4.1346216 0.027189188
-0.69999999 -4.1300001 0.011
0.17961538 -4.1446157 0.035538461
0.22338463 -4.145462 0.031692307
0.27777782 -4.1439447 0.026888886
0.31554544 -4.1444545 0.024454545
0.38849998 -4.145 0.0040000002
0.40700001 -4.1440001 0.011
2.3989999 -4.112 0.046
2.3989999 -4.0650001 0.028999999
2.4049287 -4.0753574 0.02342857
2.396667 -4.0176668 0.031666666
2.4049411 -4.0251179 0.022411764
30.052999 -2.779 0.0099999998
30.056999 -2.7260001 0.0099999998
30.01 -2.668 0.0099999998
-26.030001 -5.461 0.056000002
-26 -5.4070001 0.056000002
-25.992001 -5.3579998 0.056000002
-0.7143333 -4.3074999 0.075000003
-1.73 -4.2529998 0.059999999
-0.70999998 -4.283 0.057
-1.719375 -4.2255001 0.066749997
-0.71033335 -4.2390003 0.075000003
0.11585715 -4.2230005 0.074285723
0.38299999 -4.2030001 0.07
0.094999999 -4.1719999 0.090999998
0.12800001 -4.165174 0.077434786
0.17711538 -4.1563077 0.074730776
0.22445834 -4.1641669 0.071458325
0.27860871 -4.1572165 0.075521737
0.32392105 -4.161448 0.077552646
0.36395654 -4.1743479 0.070826091
1.3834999 -4.19275 0.071500003
1.449 -4.1989999 0.074000001
1.4725716 -4.1965714 0.081428573
1.575 -4.1999998 0.090000004
2.3970001 -4.1570001 0.088
0.12800001 -4.1427698 0.083923079
0.17139131 -4.1451306 0.077999994
0.22568001 -4.1422405 0.081119992
0.27300003 -4.1451926 0.077192307
0.32960001 -4.1464 0.069200002
0.35600001 -4.1500001 0.055
2.3968334 -4.1298332 0.080166668
2.4028573 -4.1212864 0.072857156
2.3977499 -4.0702496 0.069749996
2.4027336 -4.0733337 0.074933343
30.023001 -2.829 0.063000001
30.033001 -2.777 0.063000001
30.054001 -2.7260001 0.063000001
-26.014999 -5.506 0.148
-26.042999 -5.4639997 0.12549999
-26 -5.408 0.102
-0.71399999 -4.3075724 0.12542859
-0.71460003 -4.2644 0.12899999
-0.71099997 -4.2420001 0.1125
0.070666671 -4.2140002 0.12400001
1.3800344 -4.2184834 0.12068965
1.4243333 -4.2123036 0.12357576
1.4730625 -4.2099996 0.12484375
1.5260627 -4.2132812 0.12540624
1.5759689 -4.2176251 0.12549999
1.6183044 -4.2204781 0.13060868
1.654 -4.2309999 0.146
0.32076189 -4.1692858 0.11971428
1.388 -4.1869998 0.104
1.4240001 -4.1983333 0.12766668
1.483143 -4.1960001 0.12242858
1.541 -4.1999998 0.105
1.5699999 -4.1984997 0.1135
1.6160001 -4.1999998 0.12899999
2.3951252 -4.1751881 0.1318125
2.40325 -4.1725006 0.10875
2.6010001 -4.152 0.124
2.3954546 -4.1206369 0.127
2.402 -4.1251249 0.12162499
2.5662501 -4.1125002 0.13275
30.025999 -2.881 0.115
30.058001 -2.832 0.115
30.035 -2.777 0.115
-25.958 -5.494 0.19400001
-0.71474993 -4.3125 0.17900001
1.3905001 -4.2810001 0.1525
1.41225 -4.2720838 0.17425001
2.6433332 -4.2530003 0.18733333
2.6575 -4.25425 0.17199999
1.395 -4.2323337 0.15166667
1.4279064 -4.2186875 0.17187499
1.4721874 -4.2106881 0.17475
1.5248419 -4.2112107 0.17555262
1.5737352 -4.2146182 0.17323531
1.6228919 -4.2145672 0.17329729
1.6663888 -4.2195554 0.17994446
2.3803158 -4.2210531 0.18331578
2.401 -4.2150002 0.18099999
2.6342499 -4.2414999 0.17574999
2.6586668 -4.244 0.17355555
1.4250001 -4.1966 0.16580001
1.4777501 -4.1964169 0.17241666
1.5265 -4.1939998 0.1825
1.572 -4.1929998 0.191
2.3919473 -4.1785264 0.17526315
2.401 -4.198 0.17200001
2.5699999 -4.151 0.17399999
2.55475 -4.1304998 0.17325
30.042999 -2.9349999 0.168
30.027 -2.8800001 0.168
30.021999 -2.8280001 0.168
1.4608001 -4.3606005 0.2378
1.438143 -4.3228569 0.20885715
1.4603333 -4.3178334 0.23400001
1.4414001 -4.2734003 0.20820001
1.467 -4.2725554 0.23555554
2.3894286 -4.2760005 0.22757144
2.6300001 -4.2522855 0.22528572
2.6672504 -4.2574167 0.23375003
3.3426666 -4.2806664 0.23733334
3.3772175 -4.2782612 0.22295654
3.4258893 -4.2754998 0.22577779
1.4447501 -4.2354999 0.20875001
2.3846874 -4.2237501 0.22462501
2.592 -4.2360001 0.242
2.6228125 -4.2401872 0.22706249
2.6615 -4.2437501 0.22225
2.5597501 -4.1832504 0.22400001
30.02 -2.9860001 0.221
29.999001 -2.931 0.22
1.4858572 -4.3617148 0.26757142
1.507 -4.3670001 0.294
2.3854375 -4.3701868 0.27493751
1.4819167 -4.33075 0.26300001
1.5121667 -4.3280001 0.29116666
2.3881767 -4.3244705 0.27329412
3.2916667 -4.3215008 0.29433331
3.3222144 -4.3233571 0.26807144
1.4894286 -4.2735715 0.26400003
2.3881249 -4.2762504 0.27381253
2.592 -4.2519999 0.264
2.6282001 -4.2578006 0.27919999
2.6638 -4.2616 0.26500002
2.7110002 -4.2677498 0.25475001
3.296 -4.2909999 0.292
3.3263848 -4.2746162 0.27738464
3.3751307 -4.2707829 0.2742174
3.4218183 -4.2700462 0.27150002
3.4759996 -4.2744498 0.27480003
3.5249469 -4.2754736 0.27436841
3.5707498 -4.2821665 0.26950002
2.5789373 -4.2336874 0.28143752
2.6210001 -4.239737 0.27673683
2.6617999 -4.2419004 0.27270001
30.042 -3.0380001 0.27399999
30.018 -2.9849999 0.273
2.3864708 -4.4246473 0.32082349
1.5308573 -4.3604288 0.31900001
1.552 -4.3720002 0.34299999
2.3884377 -4.3780627 0.3228125
3.2449999 -4.3579998 0.336
3.2672777 -4.3725562 0.32494441
1.497 -4.3379998 0.30000001
1.5289091 -4.3283639 0.31581822
2.3875003 -4.3252859 0.32614285
3.2479999 -4.3299999 0.34400001
3.2709334 -4.3251333 0.32406667
3.2766666 -4.2729998 0.32708335
3.3244736 -4.2668948 0.32457894
3.3710527 -4.2662106 0.3253158
3.4253044 -4.2728696 0.32613045
3.4689052 -4.2708573 0.32152385
3.5158002 -4.2746 0.31980002
30.028999 -3.141 0.32600001
30.021 -3.0869999 0.32600001
30.021 -3.036 0.32600001
2.3907692 -4.4181542 0.37376922
2.4015002 -4.4295001 0.39449999
3.1930001 -4.4130001 0.39300001
3.2204168 -4.4116669 0.37375003
2.3918669 -4.3738003 0.37346673
3.191 -4.3790002 0.391
3.2237995 -4.3704667 0.37146667
4.9145832 -4.3746667 0.38
5.0960002 -4.3530002 0.37799999
5.1416674 -4.3553333 0.37233335
5.1529999 -4.355 0.38100001
3.1930001 -4.335 0.398
3.2242777 -4.324667 0.37300003
4.8969998 -4.348 0.35800001
4.9259167 -4.3355002 0.37433335
5.0240626 -4.3386874 0.37325001
5.0780001 -4.3458571 0.37071428
5.1110001 -4.3448334 0.37666667
3.5079999 -4.2729998 0.35100001
30.033001 -3.194 0.37900001
30.01 -3.1389999 0.37900001
30.058001 -3.0910001 0.37900001
2.386375 -4.4173751 0.42524999
2.4003334 -4.427 0.42000002
3.145 -4.4109998 0.44800001
3.1754999 -4.4145002 0.42210004
4.9589996 -4.4254999 0.43899998
2.4059999 -4.4000001 0.40599999
3.1756001 -4.3784003 0.42430004
3.2019999 -4.3769999 0.41100001
4.939167 -4.3698335 0.41666669
4.9602861 -4.3775721 0.43271431
3.2130001 -4.3449998 0.40000001
30.009001 -3.2449999 0.43099999
30.007999 -3.1919999 0.43099999
30.030001 -3.141 0.43200001
4.9879999 -4.4708748 0.47474998
5.0113335 -4.48 0.493
3.132375 -4.4131246 0.471625
4.9816251 -4.42625 0.469125
5.0040002 -4.4229999 0.48775002
5.7567 -4.4338999 0.47849998
29.992001 -3.296 0.484
30.013 -3.2449999 0.484
30.02 -3.1930001 0.484
-23.802 -5.8699999 0.52200001
5.0304999 -4.4689999 0.52319998
5.0550003 -4.4720001 0.546
5.7382498 -4.4796667 0.51891673
5.7585001 -4.4674997 0.50650001
30.025 -3.352 0.537
30.011 -3.2980001 0.537
30.030001 -3.247 0.537
-23.826 -5.875 0.565
-23.714001 -5.8920002 0.56300002
5.7393332 -4.511167 0.57333338
5.7510004 -4.541667 0.57133335
5.0759001 -4.4749002 0.57730007
6.4364996 -4.3905001 0.58249998
6.4767776 -4.3906665 0.57200003
6.5258002 -4.3847003 0.57399994
6.5785708 -4.3842859 0.57814288
6.619833 -4.3838339 0.5751667
6.6560001 -4.388 0.56799996
30.041 -3.4070001 0.58999997
30.042 -3.3540001 0.58999997
30.07 -3.3039999 0.59100002
-24.625 -6.027 0.62800002
-23.815001 -5.8730001 0.60799998
-23.735001 -5.8975 0.6275
5.7410002 -4.5582504 0.62825
5.7572498 -4.5715003 0.62375003
5.7509999 -4.5409999 0.61799997
8.5115004 -4.4693336 0.63433331
8.5703993 -4.4544005 0.6322
6.4101253 -4.4200001 0.61449999
8.5109997 -4.4499998 0.60799998
30.016001 -3.457 0.64300001
30.021999 -3.405 0.64300001
30.042999 -3.3540001 0.64300001
5.7554998 -4.5609999 0.66499996
8.5559998 -4.5209999 0.69800001
8.5296011 -4.4786 0.66760004
8.5674286 -4.4684291 0.68457144
8.6373339 -4.4593334 0.66666669
8.6820011 -4.4630003 0.66933334
8.7159996 -4.4619999 0.68900001
8.7719994 -4.4805002 0.67574996
9.2203999 -4.4874005 0.671
9.3850002 -4.4984999 0.68649995
9.4279995 -4.4990001 0.68900001
8.5459995 -4.4489999 0.66100001
8.5769997 -4.4460001 0.69599998
8.6160002 -4.448 0.699
30.003 -3.51 0.69499999
30.044001 -3.46 0.69599998
30.048 -3.408 0.69599998
8.5439997 -4.5630002 0.71499997
8.5626001 -4.5722003 0.72680002
8.566 -4.5205998 0.72539997
9.1935005 -4.5278749 0.722875
9.2080002 -4.513 0.70300001
9.4405003 -4.5050001 0.72650003
9.8674002 -4.5112 0.72859997
9.927 -4.5120001 0.72233337
9.9560003 -4.5180001 0.73100001
8.5776005 -4.4804001 0.72140002
8.6154995 -4.4569998 0.7335
8.6715002 -4.4575 0.71150005
8.7166672 -4.4620004 0.72299999
8.7779999 -4.4743328 0.72766674
8.8404999 -4.4860001 0.741
9.2241669 -4.4911666 0.72150004
9.2806664 -4.4883337 0.72500002
9.3190002 -4.4873333 0.72733331
9.382 -4.4975004 0.72249997
8.5690002 -4.4419999 0.713
8.6169996 -4.448 0.71600002
8.6569996 -4.4499998 0.736
30.000999 -3.5639999 0.74800003
30.037001 -3.5139999 0.74900001
30.047001 -3.46 0.74900001
8.5906668 -4.574667 0.75866669
8.6076679 -4.5646667 0.78233337
9.1892004 -4.5745997 0.77579999
9.2010002 -4.5689998 0.77600002
9.7288008 -4.5757995 0.78600001
8.5834999 -4.5355 0.75099999
8.6161442 -4.5237141 0.77485722
9.1918745 -4.5271254 0.77687496
9.2060003 -4.5120001 0.75700003
9.4399996 -4.5050001 0.75400001
9.7312002 -4.5272002 0.77759999
9.7590008 -4.5113335 0.77499998
9.8313999 -4.5113997 0.77980006
9.8870001 -4.5079999 0.764
9.9274998 -4.5155001 0.77649999
9.9764996 -4.5170002 0.77950001
10.017 -4.5250001 0.75400001
8.599 -4.4949999 0.75
8.8120003 -4.4720001 0.764
8.8734999 -4.4835 0.77750003
9.2208328 -4.4896669 0.77516675
9.2730007 -4.4846668 0.77833337
9.3250008 -4.4899998 0.77349997
9.3770008 -4.4946671 0.76800001
9.4224997 -4.4960003 0.77999997
9.7770004 -4.4990001 0.77600002
9.1828003 -4.6076002 0.82699996
9.6859999 -4.6009998 0.829
9.7119999 -4.6129999 0.81300002
8.6350002 -4.5722499 0.81550002
8.6617498 -4.5669999 0.83474994
9.1838341 -4.5701671 0.82933331
9.6837492 -4.5792499 0.84250003
9.7127495 -4.5722499 0.81599998
8.6407499 -4.5219998 0.81
9.1879997 -4.5227499 0.825625
9.441 -4.5050001 0.80900002
9.6945 -4.5325003 0.84600002
9.7174292 -4.5214291 0.82614291
9.75 -4.507 0.81199998
9.8360004 -4.5050001 0.83700001
9.8710003 -4.5109997 0.82949996
9.9257498 -4.5145001 0.81449997
9.7684994 -4.4949999 0.82200003
29.989 -3.6159999 0.801
30.056999 -3.5710001 0.80199999
30.028 -3.513 0.801
9.1837997 -4.5759997 0.87279999
9.668601 -4.5762 0.87220001
30.018999 -3.6719999 0.85399997
30.007 -3.618 0.85399997
30.032 -3.5669999 0.85399997
30.000999 -3.724 0.90700001
30.017 -3.6719999 0.90700001
30.061001 -3.6240001 0.90799999
12.504 -4.6009998 0.98299998
12.329 -4.585 0.99400002
12.518 -4.5695 0.9835
30.052999 -3.7839999 0.96100003
30.066 -3.7320001 0.96200001
12.483 -4.618 1.029
12.514667 -4.6129999 1.0153334
12.513 -4.5674996 1.01775
12.9915 -4.5755 1.0285001
13.059 -4.573 1.033
30.033001 -3.836 1.0140001
30.02 -3.78 1.013
30 -3.9389999 1.066
30.014 -3.888 1.066
30.031 -3.836 1.067
-21.489 -6.4299998 1.1440001
30.016001 -3.9949999 1.12
30.004 -3.9400001 1.119
30.025 -3.8889999 1.12
-21.235001 -6.4359999 1.17
-20.992001 -6.4429998 1.196
-21.413 -6.3660002 1.178
-21.358999 -6.3909998 1.176
-21.252001 -6.3990002 1.17
-20.375 -6.369 1.163
-20.335333 -6.3830004 1.1863334
-20.415001 -6.3439999 1.165
15.7165 -4.7270002 1.1819999
15.731 -4.6719999 1.1815
15.763 -4.6210003 1.1835001
30.011999 -4.0469999 1.173
30.035999 -3.997 1.174
30.032 -3.9430001 1.173
-21.155001 -6.4109998 1.243
-21.139999 -6.4070001 1.204
-21.073 -6.428 1.2195001
-20.981001 -6.4400001 1.234
-20.313 -6.428 1.235
-21.315001 -6.3779998 1.212
-21.2215 -6.3899999 1.227
-20.3335 -6.3759999 1.2359999
-20.487 -6.3260002 1.206
-20.3755 -6.3310003 1.2184999
15.724 -4.7140002 1.211
15.753 -4.723 1.242
15.735 -4.6880002 1.211
15.770332 -4.6783333 1.233
16.065001 -4.6329999 1.204
16.174 -4.6339998 1.2410001
16.225666 -4.6279998 1.2250001
16.375 -4.6290002 1.225
30.002001 -4.099 1.226
29.999001 -4.046 1.225
30.034 -3.997 1.226
-20.320999 -6.5089998 1.275
-20.337 -6.4749999 1.275
-19.247 -6.4619999 1.284
-19.165001 -6.4720001 1.279
-21.066999 -6.4260001 1.277
-20.327 -6.4330001 1.274
-18.372999 -6.4200001 1.299
-18.311001 -6.434 1.295
-18.162001 -6.4169998 1.286
15.966499 -4.8169999 1.2739999
15.797 -4.7059999 1.274
15.808 -4.7389998 1.275
29.997999 -4.152 1.279
30.007999 -4.0999999 1.279
30.007 -4.0469999 1.278
-20.365 -6.5619998 1.316
-20.084999 -6.5510001 1.336
-20.017 -6.5669999 1.332
-20.445 -6.5489998 1.3200001
-20.207001 -6.5110002 1.3430001
-20.148001 -6.5310001 1.339
-19.129333 -6.5223331 1.3370001
-20.312 -6.467 1.311
-20.289 -6.4990001 1.347
-19.114666 -6.4676666 1.3233334
-17.915001 -6.4699998 1.3380001
-19.247 -6.4250002 1.319
-19.188 -6.4429998 1.316
-19.128 -6.4229999 1.347
-18.323 -6.402 1.33
-18.128 -6.4050002 1.317
-18.058001 -6.415 1.313
-18.018 -6.401 1.3430001
-17.996 -6.4285002 1.3255
-18.360001 -6.3779998 1.331
-18.183001 -6.3889999 1.3200001
-18.094999 -6.3940001 1.348
15.983 -4.8530002 1.349
16 -4.8579998 1.322
15.973 -4.8189998 1.3335
15.918 -4.7719998 1.313
15.951 -4.7820001 1.345
30.007999 -4.2069998 1.332
30.01 -4.1539998 1.332
30.027 -4.1020002 1.3329999
-19.912001 -6.5710001 1.399
-19.875999 -6.559 1.36
-19.827 -6.5809999 1.358
-20.309999 -6.506 1.386
-20.243 -6.5229998 1.382
-20.136 -6.5279999 1.376
-20.045 -6.5380001 1.37
-19.962 -6.5489998 1.365
-19.129999 -6.5349998 1.385
-17.75 -6.5159998 1.395
-20.348 -6.4780002 1.35
-19.1145 -6.474 1.3824999
-17.879999 -6.4580002 1.369
-17.830999 -6.4749999 1.3660001
-17.783501 -6.4755001 1.3795
-17.728001 -6.473 1.392
-19.207001 -6.4120002 1.351
-17.993999 -6.428 1.376
-17.929001 -6.4400001 1.372
-17.834999 -6.441 1.399
-18.233999 -6.3709998 1.357
-18.129999 -6.3699999 1.35
-18.0165 -6.3829999 1.3765
15.984 -4.8540001 1.3789999
15.969 -4.8179998 1.377
30.042 -4.263 1.387
29.997 -4.2049999 1.385
29.999001 -4.152 1.385
-19.972 -6.552 1.4400001
-19.886 -6.5630002 1.434
-17.773001 -6.559 1.431
-20.129 -6.5250001 1.4119999
-20.083 -6.5500002 1.41
-19.955 -6.5469999 1.402
-19.118 -6.5310001 1.419
-17.733999 -6.5100002 1.426
-19.098 -6.487 1.4170001
-17.702 -6.4629998 1.423
-17.961 -6.4159999 1.4069999
-17.889 -6.4260001 1.402
-17.799 -6.4289999 1.429
-17.75 -6.4460001 1.426
15.994 -4.8569999 1.409
19.357 -4.8210001 1.436
19.330999 -4.7789998 1.434
19.314499 -4.7214999 1.4315
30.011999 -4.3130002 1.439
30 -4.257 1.438
30.011 -4.2069998 1.438
-17.73 -6.5430002 1.477
-17.702999 -6.4990001 1.457
-17.663 -6.4840002 1.487
-4.310667 -5.9863334 1.4836667
-4.2764001 -5.9770002 1.4707001
-4.2244167 -5.9798331 1.4749167
19.372501 -4.8785 1.4735
19.358 -4.822 1.471
19.351 -4.7839999 1.47
29.997999 -4.362 1.492
30.033001 -4.3150001 1.493
-4.3449998 -6.0640001 1.546
-4.3240004 -6.0235004 1.523
-4.2798748 -6.0147505 1.52775
-4.2277141 -6.0105715 1.532143
-4.1921248 -6.0241251 1.52075
-4.3109999 -5.9949999 1.503
-4.2743335 -5.9943333 1.5120001
-4.2150002 -5.9926672 1.5046667
19.349001 -4.8899999 1.507
19.364668 -4.8703337 1.5310001
19.356501 -4.8210001 1.5235
29.996 -4.4159999 1.545
29.990999 -4.3610001 1.544
-18.087 -6.711 1.592
-18.055 -6.6989999 1.556
-17.142 -6.6669998 1.5829999
-17.066999 -6.6719999 1.577
-17.003 -6.6810002 1.572
-4.454 -6.0809999 1.576
-4.4226665 -6.0833335 1.5716667
-4.3740001 -6.0770001 1.575
-4.3320003 -6.0613337 1.5796669
-4.2150002 -6.0676665 1.5890001
-4.1929998 -6.0710001 1.5776249
-4.414 -6.0157499 1.5732499
-4.3734999 -6.0267501 1.5764999
-4.3422003 -6.0336003 1.5888001
-4.2753334 -6.0332227 1.5723333
-4.2259002 -6.0369 1.5726
-4.1943336 -6.0383334 1.559
-4.434 -5.9879999 1.571
-4.3663335 -5.9613338 1.5713334
-4.3334999 -5.9714999 1.5892498
19.365002 -4.8765001 1.5779999
30 -4.4699998 1.599
29.979 -4.4130001 1.597
-17.856001 -6.7680001 1.609
-17.772999 -6.7705002 1.6194999
-17.688 -6.7729998 1.63
-18.025999 -6.7249999 1.622
-17.978001 -6.7420001 1.618
-17.933001 -6.7249999 1.648
-17.880501 -6.7410002 1.6275001
-17.801001 -6.7459998 1.638
-16.976501 -6.7049999 1.6185
-16.942501 -6.7265 1.6164999
-18.038 -6.6929998 1.622
-17.013 -6.651 1.604
-16.9925 -6.677 1.619
-17.089001 -6.6459999 1.61
-17.0205 -6.6370001 1.6359999
-4.2020001 -6.1560001 1.6390001
-4.1958747 -6.1237502 1.6224999
-4.3198338 -6.0698333 1.6203334
-4.2741008 -6.0654001 1.6251999
-4.2198892 -6.0672221 1.6257778
-4.1952 -6.0862002 1.6234
-4.3203001 -6.0279002 1.6216999
-4.2550001 -6.0500002 1.6
-4.2389998 -6.0489998 1.6109999
-16.926001 -6.822 1.699
-17.823502 -6.7725 1.674
-17.736 -6.7909999 1.6670001
-17.681 -6.77 1.696
-17.625999 -6.7849998 1.6745
-16.9585 -6.7835002 1.668
-16.9445 -6.7785001 1.6984999
-18.087502 -6.7110004 1.677
-18.024 -6.7244997 1.6719999
-17.966 -6.7379999 1.6849999
-17.895 -6.7470002 1.679
-16.962999 -6.7350001 1.6670001
-16.937 -6.724 1.696
-16.962 -6.665 1.6800001
-16.945499 -6.6925001 1.6795
-7.711 -6.3334002 1.6720002
-4.2055001 -6.1725001 1.6805
-4.1976671 -6.188333 1.6766666
-4.2796669 -6.1076674 1.6946667
-4.2142501 -6.1164999 1.678
-4.1974006 -6.1308002 1.6695999
-4.3122997 -6.0770001 1.6715001
-4.2748332 -6.0893335 1.668
-4.2199998 -6.0846248 1.6643749
-4.1975002 -6.0924997 1.6815
30.011 -4.5770001 1.653
30.021 -4.526 1.653
30.01 -4.4710002 1.652
-16.978001 -6.8429999 1.7359999
-17.825001 -6.756 1.707
-17.749001 -6.7620001 1.701
-16.952 -6.7989998 1.732
-16.948999 -6.763 1.7309999
-17.896999 -6.7480001 1.7130001
-16.941 -6.7259998 1.729
-7.7047501 -6.3852501 1.7262501
-7.6960001 -6.3670001 1.727
-4.207572 -6.2205715 1.7242858
-4.3340001 -6.1620002 1.74
-4.2063994 -6.1761999 1.7228001
-4.1989999 -6.1750002 1.711
-4.3174996 -6.11625 1.72025
-4.2732506 -6.1234999 1.7225001
-4.2214546 -6.12391 1.7250001
-4.198 -6.1346664 1.7120001
22.759001 -4.8660002 1.716
29.983 -4.6259999 1.705
30.000999 -4.5749998 1.706
30.007999 -4.5240002 1.706
-16.9585 -6.8185 1.7815
