# .PCD v0.7 - Point Cloud Data file format
VERSION 0.7
FIELDS x y z
SIZE 4 4 4
TYPE F F F
COUNT 1 1 1
WIDTH 1617
HEIGHT 1
VIEWPOINT 0 0 0 1 0 0 0
POINTS 1617
DATA ascii
6.6218004 -0.8768 -1.5084
6.6709995 -0.87549996 -1.5051668
6.7205 -0.87175 -1.5057499
6.7610006 -0.87099999 -1.5023334
6.809 -0.8646667 -1.5043334
6.868 -0.86400002 -1.5046667
6.9195004 -0.86650002 -1.505
6.9569998 -0.85900003 -1.507
7.0184999 -0.86000001 -1.507
7.0669999 -0.85900003 -1.5039999
7.1155 -0.8585 -1.5015
7.2090001 -0.86299998 -1.508
7.2694998 -0.86399996 -1.507
7.3334999 -0.8585 -1.507
7.3889999 -0.85799998 -1.5039999
7.4225001 -0.87549996 -1.5045
7.4720001 -0.86799997 -1.508
7.5279999 -0.86750001 -1.5055
7.6114998 -0.87699997 -1.5079999
7.6844997 -0.87199998 -1.5085
7.7263336 -0.87000006 -1.5026668
7.8699999 -0.86449999 -1.5015
7.9250002 -0.87099999 -1.505
7.9703331 -0.88300008 -1.5063334
8.0389996 -0.87599999 -1.505
8.0670004 -0.89399999 -1.51
8.1153336 -0.87966669 -1.5043334
8.1809998 -0.87733334 -1.5016668
8.2623329 -0.8713333 -1.5013335
8.3430004 -0.89399999 -1.501
8.3576679 -0.86666667 -1.5033333
8.5190001 -0.87599999 -1.5015
8.6110001 -0.87049997 -1.5020001
8.7115002 -0.86549997 -1.5035
8.79 -0.88099998 -1.501
8.8030005 -0.85100001 -1.503
8.8896666 -0.87533331 -1.5020001
8.9857502 -0.87650001 -1.50225
9.0836668 -0.87833333 -1.5023334
9.1773338 -0.87099999 -1.5010002
9.2790003 -0.88099998 -1.501
9.3830004 -0.88999999 -1.501
9.7723341 -0.87533331 -1.5103334
9.8570004 -0.88266671 -1.506
9.9653339 -0.87466669 -1.5046667
10.071 -0.884 -1.502
2.8863914 -0.81513041 -1.5346522
2.9255216 -0.81726086 -1.5296088
2.961148 -0.82425922 -1.5187407
3.0336666 -0.82966673 -1.5176667
3.087667 -0.81083333 -1.5215
3.1275451 -0.81900001 -1.5255001
3.1783543 -0.82649994 -1.5188544
3.4261427 -0.82042861 -1.5116191
3.4758184 -0.82359099 -1.5106819
3.5258 -0.82614994 -1.5108999
3.5747826 -0.82360882 -1.5098697
3.6245265 -0.82289469 -1.5084736
3.6735263 -0.82421052 -1.5084735
3.7266319 -0.82363153 -1.5092632
3.7741497 -0.82615006 -1.50815
3.8282993 -0.82495004 -1.5069
3.8744669 -0.82646674 -1.5059334
3.9230003 -0.82410002 -1.50535
3.9724002 -0.82713342 -1.5040667
4.0232306 -0.8232308 -1.5032308
4.0747781 -0.82988888 -1.5031111
4.1293335 -0.82166672 -1.5016668
4.1869998 -0.84299999 -1.501
5.6619997 -0.80149996 -1.517
5.744 -0.80299997 -1.501
5.7550001 -0.80433339 -1.5253334
5.8093333 -0.80133331 -1.518
5.8889999 -0.80199999 -1.517
5.901 -0.80400002 -1.531
5.9833336 -0.80400002 -1.518
6.0430002 -0.801 -1.522
6.0700002 -0.80500001 -1.517
6.1370001 -0.81300002 -1.511
6.191 -0.81 -1.501
6.2849998 -0.82200003 -1.512
6.3256006 -0.8132 -1.5148001
6.3848 -0.82300007 -1.5126001
6.4239998 -0.82433337 -1.51
6.47475 -0.82874995 -1.5127499
6.5260005 -0.82460004 -1.5117999
6.5840006 -0.82460004 -1.5102
6.6389999 -0.81966674 -1.5106667
6.6804004 -0.82479995 -1.5102
6.7329998 -0.81299996 -1.5065
6.777667 -0.8263334 -1.5086668
6.8342505 -0.82499999 -1.5044999
6.8889999 -0.81949997 -1.5035
6.9286003 -0.82019997 -1.5043999
6.9860001 -0.84350002 -1.506
7.0029998 -0.81400001 -1.5023334
7.0675001 -0.82774997 -1.5037498
7.1243339 -0.81966662 -1.5020001
7.1865001 -0.82875001 -1.50225
7.257 -0.80400002 -1.503
7.3080001 -0.83600003 -1.501
7.4429998 -0.82499999 -1.501
7.5120001 -0.84600002 -1.502
7.5799999 -0.83999997 -1.501
7.6533332 -0.83399999 -1.5013335
7.73 -0.82249999 -1.50225
7.8816671 -0.82700002 -1.503
7.948 -0.838 -1.501
7.9580002 -0.81199998 -1.503
8.0314999 -0.81900001 -1.5025001
8.1059999 -0.82700002 -1.501
8.2030001 -0.81550002 -1.5039999
8.2700005 -0.82225001 -1.50175
8.3535004 -0.82300001 -1.5015
8.4406662 -0.8263334 -1.5020001
8.4499998 -0.81800002 -1.5039999
8.5286674 -0.8253333 -1.5023334
8.6226673 -0.81900001 -1.503
8.7060003 -0.82666671 -1.5023334
8.8080006 -0.82100004 -1.5036666
8.8935003 -0.83700001 -1.5025001
8.9049997 -0.81400001 -1.5039999
8.9914999 -0.83000004 -1.503
9.0129995 -0.80800003 -1.506
9.0860004 -0.847 -1.502
9.1059999 -0.81599998 -1.505
9.184 -0.815 -1.5095
9.2299995 -0.81099999 -1.5089999
9.2819996 -0.83200002 -1.501
9.3245001 -0.81050003 -1.516
9.3865004 -0.833 -1.501
9.4370003 -0.81199998 -1.526
9.5273342 -0.81333339 -1.5173334
9.6164999 -0.81800002 -1.5115
9.7030001 -0.81599998 -1.516
9.7860003 -0.82400006 -1.5116667
9.8763342 -0.83133334 -1.5083334
9.9390001 -0.801 -1.517
9.9720001 -0.83050001 -1.505
10.007 -0.80699998 -1.51
10.073333 -0.82966673 -1.5023334
10.313 -0.81199998 -1.501
2.8872194 -0.77469993 -1.53336
2.9288862 -0.77504539 -1.5221367
3.0822999 -0.77270001 -1.5190001
3.1247187 -0.77290624 -1.5224688
3.1738861 -0.77697736 -1.5165454
4.0759096 -0.76554555 -1.5087272
4.1289096 -0.75881821 -1.5121819
4.1837497 -0.75350004 -1.5222499
4.2293339 -0.75216669 -1.5270002
4.27775 -0.75475001 -1.5315
4.5890002 -0.76499999 -1.501
4.6273332 -0.77100009 -1.5316668
4.6940002 -0.77366674 -1.526
4.7199998 -0.77459997 -1.5306
4.7638335 -0.77683342 -1.5161667
4.8177142 -0.77814287 -1.5202858
4.87925 -0.78049999 -1.524
4.9089999 -0.78275001 -1.52125
4.9727149 -0.78271431 -1.5271429
5.0286002 -0.78439999 -1.5262001
5.0640001 -0.78499997 -1.5225
5.1223998 -0.78759998 -1.5328001
5.1775002 -0.78675002 -1.5410001
5.2183328 -0.7856667 -1.5317777
5.2788749 -0.78875005 -1.531875
5.3208752 -0.78549993 -1.53475
5.3735561 -0.78100002 -1.5367777
5.4238887 -0.78633338 -1.5306667
5.4719172 -0.78216666 -1.5343332
5.5280004 -0.78280002 -1.5384001
5.5683336 -0.79150003 -1.5268334
5.6301999 -0.78920001 -1.5370001
5.6808004 -0.778 -1.5438
5.7205 -0.78925002 -1.53475
5.7666001 -0.77539998 -1.5424
5.8225999 -0.78259999 -1.5426
5.8771248 -0.78062499 -1.538625
5.9223337 -0.78349996 -1.5391667
5.9783335 -0.78016675 -1.5421667
6.0124998 -0.77574998 -1.5385
6.0682855 -0.78428578 -1.5338571
6.1221247 -0.77574998 -1.5341874
6.1732855 -0.77557147 -1.5187144
6.2185998 -0.77960002 -1.5161999
6.2658 -0.77420002 -1.518
6.3200002 -0.77640003 -1.5170001
6.369833 -0.77550006 -1.5153334
6.4262009 -0.77540004 -1.5136001
6.4823332 -0.7755 -1.5140002
6.5342498 -0.77474999 -1.51275
6.5766668 -0.773 -1.5113335
6.61975 -0.77899998 -1.51125
6.6759996 -0.77380002 -1.5104001
6.725666 -0.76999998 -1.5083334
6.7729998 -0.78039998 -1.5074
6.8400002 -0.77340001 -1.5070001
6.9072499 -0.77224994 -1.5065
6.9602499 -0.778 -1.505
7.0194998 -0.77224994 -1.50475
7.0735002 -0.77824998 -1.5035
7.1357498 -0.77199996 -1.5035
7.1890001 -0.78433335 -1.5016668
7.1999998 -0.75999999 -1.503
7.2613335 -0.77933335 -1.5033333
7.3199997 -0.773 -1.5023334
7.3894997 -0.78649998 -1.503
7.4450002 -0.79250002 -1.501
7.5225 -0.7615 -1.502
7.5913334 -0.77466667 -1.5023334
7.6680002 -0.76933336 -1.5033334
7.7316666 -0.77600002 -1.5016668
7.7540002 -0.75099999 -1.505
7.81075 -0.77674997 -1.5027499
7.8905001 -0.77750003 -1.5035
7.9029999 -0.75099999 -1.52
7.95925 -0.77775002 -1.506
8.0155001 -0.76899999 -1.5055001
8.0703335 -0.77166671 -1.5133333
8.1270008 -0.77925003 -1.5079999
8.1809998 -0.76300001 -1.5140001
8.2156668 -0.77600002 -1.511
8.2625008 -0.778 -1.507
8.3155003 -0.76849997 -1.5165
8.3759995 -0.78850001 -1.505
8.4210005 -0.77033329 -1.518
8.4735003 -0.76749998 -1.5220001
8.5249996 -0.787 -1.5085
8.5826674 -0.7693333 -1.5213335
8.632 -0.79000002 -1.5039999
8.6695004 -0.76950002 -1.526
8.7320004 -0.79100001 -1.5135
8.7544994 -0.7615 -1.525
8.8380003 -0.77633333 -1.5236667
8.8669996 -0.79500002 -1.513
8.9344997 -0.77675003 -1.5202501
9.0196667 -0.77600002 -1.5223334
9.0909996 -0.79900002 -1.5190001
9.1379995 -0.76966667 -1.5263333
9.2360001 -0.77766675 -1.5256667
9.3439999 -0.76999998 -1.527
9.3509998 -0.77100003 -1.528
9.4490004 -0.77899998 -1.527
9.4624996 -0.77950001 -1.529
9.5353336 -0.76899999 -1.524
9.5924997 -0.78200001 -1.516
9.6009998 -0.75700003 -1.517
9.6949997 -0.79900002 -1.515
9.7145004 -0.77450001 -1.518
9.7989998 -0.77200001 -1.513
9.8330002 -0.77550006 -1.518
9.8850002 -0.76200002 -1.5089999
9.9020004 -0.77999997 -1.511
9.9856672 -0.76899999 -1.506
10.079 -0.77633333 -1.5020001
2.8877714 -0.7310856 -1.5337713
2.9262106 -0.72844738 -1.5267631
2.9624243 -0.72412121 -1.5213335
3.0264001 -0.71859998 -1.5208
3.0837777 -0.73844451 -1.5194446
3.1245379 -0.73184609 -1.5236923
3.1739411 -0.73238236 -1.5201175
3.2271333 -0.7252 -1.5268002
3.2740002 -0.72650003 -1.526
3.3227272 -0.72954553 -1.5262728
3.3751433 -0.73300004 -1.526643
3.4246664 -0.7369048 -1.5226667
3.4728751 -0.73650002 -1.5204374
3.5274618 -0.73884612 -1.5246922
3.5730667 -0.73946679 -1.5238667
3.6243849 -0.73969245 -1.5252309
3.6717148 -0.74100006 -1.5235715
3.7274618 -0.7423076 -1.5223075
3.7806001 -0.74520004 -1.5215
3.8263752 -0.74449998 -1.5227499
3.8761668 -0.74433339 -1.5270834
3.91675 -0.74675 -1.51525
3.966167 -0.74749994 -1.527
4.0220003 -0.74825001 -1.53125
4.0834002 -0.74840003 -1.5325999
4.132 -0.75 -1.5420001
4.2884998 -0.74300003 -1.517
4.3410001 -0.74000001 -1.5140001
4.3885002 -0.74349999 -1.5215
4.4029999 -0.74199998 -1.518
5.4320002 -0.71100003 -1.55
5.6129999 -0.73500001 -1.549
5.7360001 -0.72500002 -1.55
5.7714996 -0.7295 -1.549
5.8100004 -0.72350001 -1.5480001
5.8703337 -0.72266674 -1.5493333
5.9327502 -0.72025001 -1.55
5.9833336 -0.73966664 -1.5493333
6.0255003 -0.72300005 -1.5487499
6.0646 -0.72780001 -1.5474
6.1314998 -0.72568756 -1.53925
6.1731253 -0.72550005 -1.5243748
6.2356672 -0.73699999 -1.5213335
6.2748337 -0.72066677 -1.5226667
6.3311996 -0.72540003 -1.5206001
6.3722496 -0.72424996 -1.5187501
6.4266663 -0.72483337 -1.5176667
6.4775 -0.72749996 -1.5170001
6.5183997 -0.7234 -1.5146
6.5654998 -0.72275007 -1.5155001
6.6153998 -0.72940004 -1.5124
6.6740007 -0.72466671 -1.5158333
6.7136669 -0.72100008 -1.5126667
6.7699995 -0.72916669 -1.5128335
6.8140001 -0.71675003 -1.5127499
6.8675003 -0.73175001 -1.50975
6.9185996 -0.72140002 -1.5154001
6.9737501 -0.73049998 -1.51
7.0240002 -0.72350001 -1.51425
7.0771995 -0.72299999 -1.5162001
7.1270003 -0.72320002 -1.5138
7.1835003 -0.72724998 -1.5124999
7.2287502 -0.71000004 -1.525
7.2692499 -0.72999996 -1.5107499
7.3292499 -0.72950006 -1.513
7.3773336 -0.71466672 -1.5216668
7.4232497 -0.72574997 -1.515
7.493 -0.73250002 -1.516
7.5302501 -0.71974999 -1.51975
7.5640001 -0.71950001 -1.5235
7.6227999 -0.73280001 -1.5158001
7.6984997 -0.7385 -1.5154999
7.7133331 -0.71099997 -1.5296668
7.7820005 -0.72666669 -1.5246667
7.8390002 -0.727 -1.526
7.8530002 -0.71899998 -1.524
7.9212503 -0.72175002 -1.5265
7.9619999 -0.70099998 -1.53
8.007 -0.73299998 -1.525
8.0830002 -0.72549999 -1.5320001
8.1030006 -0.72000003 -1.5285001
8.17875 -0.72675002 -1.528
8.2646675 -0.72666663 -1.529
8.3295002 -0.72500002 -1.52575
8.4134998 -0.73250002 -1.5265
8.4736671 -0.73000002 -1.5270002
8.5094995 -0.70950001 -1.528
8.5839996 -0.72299999 -1.526
8.6219997 -0.727 -1.5325
8.6634998 -0.73800004 -1.5245
8.7054996 -0.71099997 -1.5315
8.7686672 -0.72299999 -1.527
8.8439999 -0.73699999 -1.524
8.8870001 -0.71700001 -1.531
8.9355001 -0.72899997 -1.524
8.9630003 -0.70700002 -1.528
9.0334997 -0.73699999 -1.5245
9.0679998 -0.71499997 -1.53
9.1420002 -0.71350002 -1.526
9.1619997 -0.73900002 -1.53
9.2455006 -0.73749995 -1.527
9.2679996 -0.71499997 -1.53
9.3470001 -0.72049999 -1.527
9.3660002 -0.722 -1.53
9.4350004 -0.727 -1.524
9.4694996 -0.73000002 -1.53
9.5300007 -0.70899999 -1.522
9.552 -0.736 -1.526
9.6149998 -0.72399998 -1.5186667
9.7173338 -0.73166674 -1.5173334
9.8143339 -0.72099996 -1.5150001
9.8940001 -0.72650003 -1.51
9.9029999 -0.72799999 -1.511
9.9899998 -0.73400003 -1.507
10.018 -0.71799999 -1.511
10.091 -0.72299999 -1.5039999
10.102 -0.72399998 -1.505
10.195 -0.713 -1.501
3.0114999 -0.66624999 -1.5342499
5.3629999 -0.67299998 -1.55
5.5100002 -0.662 -1.55
5.625 -0.66600001 -1.55
5.6929998 -0.67900002 -1.5480001
5.777 -0.68300003 -1.549
5.8200002 -0.68800002 -1.55
5.8753333 -0.68066669 -1.5493333
5.9269996 -0.68000001 -1.5480001
5.9883337 -0.67233336 -1.5486667
6.0322495 -0.67550004 -1.5492499
6.0757504 -0.68025005 -1.5487499
6.1308751 -0.67837501 -1.5425001
6.165 -0.67937499 -1.534
6.2327499 -0.68675005 -1.525
6.2919998 -0.68199998 -1.5335
6.3147502 -0.68725002 -1.5272501
6.3779998 -0.69150001 -1.5250001
6.4099998 -0.68900001 -1.527
6.4755001 -0.68725002 -1.536
6.5316668 -0.67900008 -1.5469999
6.5714288 -0.67657149 -1.5418572
6.6282496 -0.67200005 -1.54075
6.6818004 -0.67839998 -1.5438
6.7318001 -0.67880005 -1.5378001
6.7813334 -0.67733335 -1.5433334
6.8285003 -0.680125 -1.538875
6.8866668 -0.66799998 -1.5373334
6.9260001 -0.68366671 -1.5383333
6.96875 -0.67875004 -1.5367501
7.0165 -0.68025005 -1.5375
7.0623336 -0.67633337 -1.5376667
7.1110001 -0.67075002 -1.535
7.1742005 -0.67520005 -1.5332
7.2189999 -0.67449999 -1.5320001
7.2682495 -0.67250001 -1.52925
7.3389997 -0.67900002 -1.5305001
7.3936667 -0.67300004 -1.5286667
7.4299998 -0.67449999 -1.529
7.4713335 -0.67566669 -1.5310001
7.5279999 -0.676 -1.5286667
7.5959997 -0.67550004 -1.5285001
7.6155 -0.67700005 -1.5325
7.6640005 -0.67466676 -1.5283334
7.7320004 -0.67350006 -1.528
7.7934999 -0.6645 -1.526
7.8070002 -0.68699998 -1.529
7.8745003 -0.67150003 -1.5272499
7.9429998 -0.685 -1.526
7.9545002 -0.66400003 -1.5285001
8.0233335 -0.67699999 -1.527
8.1142502 -0.67725003 -1.52975
8.168334 -0.67433333 -1.5253334
8.2609997 -0.67475003 -1.5274999
8.3360004 -0.67333335 -1.5263333
8.4245005 -0.67275 -1.527
8.5213337 -0.67300004 -1.5296667
8.5904999 -0.67799997 -1.5265
8.6029997 -0.67900002 -1.529
8.6774998 -0.662 -1.526
8.6999998 -0.68699998 -1.53
8.7736664 -0.67699999 -1.5273333
8.8747501 -0.67649996 -1.5287499
8.9460001 -0.69 -1.525
8.9570007 -0.667 -1.527
9.0446663 -0.68166673 -1.5256667
9.1356659 -0.67200005 -1.524
9.2350006 -0.67900002 -1.5245
9.2519999 -0.68099999 -1.527
9.3513336 -0.67133331 -1.527
9.4399996 -0.66100001 -1.524
9.4560003 -0.68700004 -1.527
9.5390005 -0.66733336 -1.5226667
9.6226673 -0.67300004 -1.5196667
9.7200003 -0.6796667 -1.5173334
9.8173332 -0.66900003 -1.5146666
9.8959999 -0.69199997 -1.51
9.9025002 -0.66600001 -1.51
9.9899998 -0.68099999 -1.506
10.008 -0.68199998 -1.5089999
10.095 -0.67000002 -1.5036666
10.204 -0.67699999 -1.5015
3.0019999 -0.64499998 -1.544
5.4400001 -0.64399999 -1.55
5.665 -0.64999998 -1.55
5.822 -0.64700001 -1.549
5.9450002 -0.63999999 -1.548
5.9960003 -0.63999999 -1.5495
6 -0.625 -1.55
6.079 -0.63800001 -1.5485001
6.118 -0.64200002 -1.5470001
6.1729999 -0.64200002 -1.549
6.4180002 -0.60100001 -1.55
6.5619998 -0.62133336 -1.5486667
6.6114998 -0.62424994 -1.54825
6.6720004 -0.63183337 -1.5463333
6.7215004 -0.6225 -1.546
6.7692003 -0.63060004 -1.5428001
6.8245006 -0.62 -1.5415
6.8823333 -0.62733334 -1.5396667
6.9283996 -0.62799996 -1.5381999
6.9800005 -0.62766665 -1.536
7.0196667 -0.61433333 -1.536
7.0687494 -0.63200003 -1.535
7.1143336 -0.61366671 -1.5350001
7.1684999 -0.625 -1.5335
7.2217498 -0.62949997 -1.53175
7.2847495 -0.62199998 -1.5320001
7.3473334 -0.62966669 -1.5313333
7.3509998 -0.62099999 -1.5319999
7.4133334 -0.62600005 -1.5320001
7.4772501 -0.62475002 -1.5307499
7.5377502 -0.62950003 -1.52975
7.6132503 -0.6225 -1.53125
7.67875 -0.6275 -1.5304999
7.7403336 -0.62600005 -1.5286667
7.8162503 -0.625 -1.5295
7.8849998 -0.62333339 -1.5286667
7.9667501 -0.62274998 -1.5297501
8.0339994 -0.62774998 -1.52825
8.1040001 -0.62633336 -1.527
8.1776667 -0.63166666 -1.5263333
8.2040005 -0.60399997 -1.531
8.2709999 -0.62400001 -1.5286669
8.3479996 -0.63 -1.528
8.3584995 -0.63049996 -1.53
8.4396667 -0.62133336 -1.529
8.5303335 -0.62800002 -1.5306667
8.6077499 -0.62624997 -1.5285
8.6940002 -0.625 -1.528
8.7140007 -0.62599999 -1.5319999
8.7849998 -0.62325001 -1.52825
8.8783331 -0.62199998 -1.5286669
8.9633331 -0.62800002 -1.5273333
9.0480003 -0.6415 -1.526
9.0664997 -0.611 -1.5285001
9.1546669 -0.62466669 -1.527
9.2445002 -0.6225 -1.525
9.2519999 -0.648 -1.527
9.3616667 -0.62199998 -1.5276666
9.4709997 -0.62900007 -1.529
9.5375004 -0.625 -1.5225
9.6153336 -0.62133336 -1.5176667
9.6969995 -0.60900003 -1.513
9.71 -0.63600004 -1.5155001
9.8120003 -0.625 -1.5135
9.9083328 -0.62233335 -1.5103334
9.9949999 -0.62766671 -1.506
10.098 -0.634 -1.5039999
10.104 -0.61699998 -1.5039999
10.207 -0.63199997 -1.502
3.0156667 -0.59566665 -1.5320001
6.5609999 -0.57500005 -1.5473335
6.6227498 -0.57525003 -1.5467501
6.6659999 -0.58200002 -1.5450001
6.7220001 -0.58074999 -1.5452501
6.7771664 -0.56916666 -1.5421667
6.8320003 -0.58166671 -1.54
6.8699999 -0.5726667 -1.54
6.9172502 -0.57850003 -1.5389999
6.9634995 -0.57000005 -1.5397501
7.0212007 -0.57840002 -1.5370001
7.0629997 -0.57200003 -1.536
7.1244998 -0.57025003 -1.5362501
7.1719999 -0.574 -1.5335
7.2367501 -0.57924998 -1.5344999
7.29175 -0.57075 -1.5325
7.3549995 -0.57550001 -1.5320001
7.4184999 -0.58050001 -1.53225
7.4815001 -0.57174999 -1.531
7.541667 -0.583 -1.5300001
7.5500002 -0.55699998 -1.531
7.616334 -0.57499999 -1.531
7.6792502 -0.57325 -1.5297501
7.7414999 -0.57749999 -1.528
7.756 -0.57850003 -1.5309999
7.8243332 -0.57700008 -1.5303334
7.8952503 -0.57500005 -1.53
7.9726667 -0.57300007 -1.5303333
8.0475006 -0.5715 -1.53
8.0545006 -0.57200003 -1.5315
8.1274996 -0.57725 -1.531
8.1940002 -0.58899999 -1.529
8.2154999 -0.56849998 -1.5325
8.2872505 -0.57349998 -1.531
8.37325 -0.57950008 -1.5317501
8.4560003 -0.57800001 -1.5316666
8.5373344 -0.58300006 -1.5306667
8.5559998 -0.55400002 -1.534
8.6300001 -0.57433337 -1.5320001
8.6969995 -0.59399998 -1.528
8.7080002 -0.5715 -1.53
8.7959995 -0.58499998 -1.53
8.8074999 -0.5625 -1.5315
8.8815002 -0.583 -1.5285001
8.9099998 -0.56099999 -1.534
8.9796677 -0.58099997 -1.5293335
9.0666666 -0.57033336 -1.5280001
9.1619997 -0.5763334 -1.5276668
9.2714996 -0.57499999 -1.5292501
9.3753338 -0.57300001 -1.5296667
9.4753332 -0.57866669 -1.529
9.5383339 -0.58266664 -1.5220001
9.5600004 -0.551 -1.525
9.6253338 -0.57133335 -1.5186667
9.7240009 -0.57666671 -1.517
9.8180008 -0.58233333 -1.5139999
9.9169998 -0.57100004 -1.5116667
10.016666 -0.57633334 -1.5090001
10.099 -0.59899998 -1.5039999
10.109 -0.57300001 -1.5044999
10.211 -0.588 -1.502
10.328 -0.55900002 -1.501
3.0090001 -0.53799999 -1.55
6.4744997 -0.51950002 -1.55
6.5180001 -0.51700002 -1.548
6.5704999 -0.52675003 -1.549
6.6226001 -0.5248 -1.5487999
6.6665006 -0.52249998 -1.5467499
6.7175002 -0.52649999 -1.5465
6.7634997 -0.52974999 -1.54475
6.8082495 -0.52100003 -1.54225
6.8625002 -0.52525008 -1.54175
6.9162498 -0.52925003 -1.5415
6.9639997 -0.5205 -1.5387501
7.0220003 -0.52474999 -1.53925
7.0737505 -0.52850002 -1.5374999
7.1297503 -0.51999998 -1.5365
7.1865001 -0.52400005 -1.5355
7.2439995 -0.5303334 -1.5350001
7.277 -0.52450001 -1.535
7.3109999 -0.52649999 -1.536
7.3694997 -0.52425003 -1.53425
7.434 -0.52850002 -1.5342499
7.4926672 -0.52633333 -1.5323334
7.5637503 -0.52425003 -1.5337499
7.6275001 -0.52875 -1.533
7.6919999 -0.51300001 -1.5319999
7.7020001 -0.53350002 -1.534
7.7810001 -0.52525002 -1.5352501
7.835 -0.52900004 -1.5320001
7.8959999 -0.52600002 -1.529
7.9259996 -0.528 -1.535
7.9893336 -0.53200001 -1.533
8.007 -0.505 -1.536
8.0626669 -0.52266669 -1.5326667
8.1403332 -0.52766669 -1.5326667
8.2197504 -0.52525002 -1.5325
8.2980003 -0.523 -1.5319999
8.3024998 -0.52349997 -1.533
8.3816662 -0.528 -1.5323334
8.4735003 -0.52625 -1.53425
8.5450001 -0.51550001 -1.5319999
8.5509996 -0.53799999 -1.533
8.6306677 -0.52833337 -1.5313333
8.7157497 -0.52575004 -1.531
8.7910004 -0.53799999 -1.528
8.8064995 -0.51550001 -1.531
8.8900003 -0.53600001 -1.5295
8.9069996 -0.514 -1.533
8.9812508 -0.52575004 -1.529
9.0793343 -0.52333337 -1.5300001
9.175334 -0.52900004 -1.5296667
9.2833338 -0.51900005 -1.5306667
9.3843336 -0.52433336 -1.5306667
9.4769993 -0.53799999 -1.5285001
9.5019999 -0.514 -1.533
9.5570011 -0.51733339 -1.5246668
9.6415005 -0.52999997 -1.5209999
9.6590004 -0.50599998 -1.523
9.7356672 -0.52666664 -1.518
9.8306675 -0.53233337 -1.5153334
9.9310007 -0.52033335 -1.5133333
10.012333 -0.52466667 -1.5079999
10.114333 -0.52999997 -1.5053334
10.228001 -0.51800001 -1.5036668
3.02 -0.472 -1.5265
6.5760002 -0.47466668 -1.5493333
6.6296668 -0.47066671 -1.5493333
6.678 -0.47600001 -1.5487499
6.7200003 -0.47874999 -1.5462501
6.7750001 -0.47660002 -1.5464
6.8295002 -0.4745 -1.5465
6.882 -0.47799999 -1.5455
6.9197502 -0.48049998 -1.5415
6.9830003 -0.4725 -1.5425
7.0245004 -0.47499999 -1.5387499
7.0783339 -0.4806667 -1.538
7.1309996 -0.46649998 -1.539
7.1735001 -0.49150002 -1.539
7.2263999 -0.47199997 -1.5381999
7.2639999 -0.47799999 -1.538
7.3109999 -0.48125002 -1.5350001
7.3785 -0.47275001 -1.53575
7.441 -0.47866666 -1.5353334
7.474 -0.47149998 -1.535
7.5093336 -0.48300001 -1.5356668
7.5777502 -0.47174999 -1.5357499
7.6416664 -0.47733337 -1.5346668
7.658 -0.47 -1.538
7.7137499 -0.47975001 -1.5352499
7.7849998 -0.47766668 -1.5356667
7.8369999 -0.47999999 -1.5319999
7.8613334 -0.47266668 -1.536
7.9197497 -0.47850001 -1.53325
7.9969997 -0.48300001 -1.534
8.0089998 -0.463 -1.536
8.0690002 -0.47325 -1.533
8.1429996 -0.49900001 -1.533
8.1543341 -0.47100002 -1.5346668
8.2290001 -0.47533333 -1.5336666
8.3209991 -0.47325 -1.536
8.3880005 -0.48433337 -1.5333333
8.3999996 -0.456 -1.535
8.4733334 -0.47466668 -1.5339999
8.5600004 -0.47933334 -1.5339999
8.6322498 -0.47549999 -1.5312499
8.7310009 -0.47333333 -1.533
8.8223343 -0.47833332 -1.5333333
8.8966675 -0.48233336 -1.5303334
8.908 -0.45199999 -1.5319999
8.9850006 -0.47149998 -1.5295
9.0010004 -0.472 -1.5319999
9.0865002 -0.477 -1.5304999
9.1029997 -0.47799999 -1.533
9.1873341 -0.48166665 -1.531
9.2890005 -0.47166666 -1.5313333
9.3870001 -0.48449999 -1.5309999
9.3999996 -0.461 -1.533
9.4864998 -0.48949999 -1.53
9.5254993 -0.47549999 -1.528
9.5585003 -0.4605 -1.5239999
9.6459999 -0.47299999 -1.521
9.6574993 -0.47350001 -1.5225
9.7390003 -0.49399999 -1.5190001
9.7614994 -0.47 -1.5220001
9.8404999 -0.4905 -1.5165
9.8570004 -0.46599999 -1.5190001
9.9386673 -0.47 -1.5139999
10.026667 -0.47366667 -1.5093334
10.118334 -0.47800002 -1.5053333
10.217 -0.47400001 -1.5020001
6.6350002 -0.44299999 -1.55
6.6870003 -0.42900002 -1.55
6.7376671 -0.42633337 -1.5493333
6.7819996 -0.42300001 -1.5472499
6.82725 -0.42574999 -1.5447501
6.8769999 -0.4285 -1.5439999
6.9252 -0.42580006 -1.5416
6.9836669 -0.42900002 -1.5420001
7.0234003 -0.42199999 -1.5404
7.0976667 -0.43599999 -1.5410001
7.1347499 -0.41325003 -1.53925
7.1669998 -0.44 -1.544
7.2077498 -0.42374998 -1.5387501
7.2642503 -0.42699999 -1.53775
7.3242497 -0.43050003 -1.5369999
7.3887501 -0.4215 -1.5369999
7.4489999 -0.44400001 -1.536
7.4586668 -0.41866669 -1.5380001
7.5249996 -0.42899999 -1.5385
7.5869999 -0.426 -1.5373334
7.6529999 -0.42250001 -1.5365
7.7194996 -0.42624998 -1.5362501
7.7886672 -0.43666667 -1.5356667
7.802 -0.41100001 -1.538
7.8645 -0.42074999 -1.5365
7.93225 -0.42425001 -1.5355
7.9934998 -0.42750001 -1.533
8.0155001 -0.4285 -1.5369999
8.0723333 -0.42466664 -1.5333333
8.1617508 -0.42225 -1.5352499
8.2375002 -0.42625001 -1.535
8.3163338 -0.42333335 -1.5343335
8.3905001 -0.43349999 -1.533
8.4020004 -0.41299999 -1.535
8.4752502 -0.4235 -1.5335
8.5637503 -0.428 -1.5342499
8.6375008 -0.42399999 -1.5315
8.6499996 -0.42500001 -1.534
8.734333 -0.42900002 -1.5333333
8.8132496 -0.42500001 -1.53125
8.9086676 -0.42200002 -1.5320001
8.9949999 -0.41 -1.531
9.0055008 -0.43400002 -1.5325
9.0870008 -0.43033335 -1.5300001
9.1832495 -0.42649999 -1.5297499
9.2896671 -0.42366666 -1.531
9.3839998 -0.43599999 -1.53
9.4069996 -0.41299999 -1.533
9.4955006 -0.4325 -1.531
9.5125008 -0.417 -1.5335
9.569334 -0.41933334 -1.5256667
9.6633339 -0.42366669 -1.5236667
9.7480001 -0.42699999 -1.5190001
9.7595005 -0.42750001 -1.5209999
9.8396673 -0.43099999 -1.5163333
9.9490004 -0.43599999 -1.515
9.9870005 -0.41999999 -1.521
10.024 -0.42150003 -1.5090001
10.072 -0.42399999 -1.516
10.115499 -0.42550001 -1.505
10.164 -0.42699999 -1.512
10.212 -0.447 -1.501
10.299 -0.433 -1.5140001
10.4 -0.43700001 -1.51
3.0173001 -0.37600002 -1.5299
3.052 -0.37099999 -1.546
5.927 -0.36500001 -1.548
6.1490002 -0.37900001 -1.549
6.1500001 -0.35699999 -1.549
6.6389999 -0.37400001 -1.55
6.6849999 -0.38800001 -1.549
6.7405 -0.37325001 -1.5492499
6.7880001 -0.37599999 -1.5480001
6.8362498 -0.37850001 -1.5465
6.8835001 -0.37824997 -1.54475
6.9278007 -0.37059999 -1.5441999
6.98525 -0.37474999 -1.5415001
7.0397501 -0.3775 -1.541
7.0893335 -0.37800002 -1.539
7.1030002 -0.38699999 -1.5420001
7.1636004 -0.37540001 -1.5392001
7.212667 -0.368 -1.5393333
7.2692499 -0.377 -1.53825
7.3309999 -0.38025004 -1.5380001
7.3915 -0.37074998 -1.5369999
7.447 -0.3865 -1.5355
7.4624996 -0.361 -1.538
7.5290003 -0.37725002 -1.539
7.58775 -0.38050002 -1.5365
7.6490002 -0.377 -1.535
7.665 -0.36866665 -1.5386667
7.72925 -0.37375 -1.5374999
7.793334 -0.38366669 -1.536
7.8070002 -0.35699999 -1.539
7.8713331 -0.37400001 -1.5373334
7.9380007 -0.37700003 -1.536
7.9679999 -0.35100001 -1.541
8.0225 -0.37400001 -1.5374999
8.0906668 -0.37466669 -1.5363334
8.1009998 -0.38499999 -1.538
8.1653347 -0.37333333 -1.5356668
8.2433338 -0.37700003 -1.5356667
8.319334 -0.38033336 -1.5346665
8.3500004 -0.352 -1.54
8.4077492 -0.37699997 -1.536
8.4855003 -0.38050002 -1.535
8.5019999 -0.359 -1.538
8.5733337 -0.37633333 -1.5353334
8.6400003 -0.38699999 -1.5320001
8.6619997 -0.36500001 -1.536
8.7295008 -0.37575001 -1.5357499
8.8340006 -0.37233335 -1.5396669
8.8719997 -0.359 -1.541
8.9174995 -0.38349998 -1.533
8.9804993 -0.37849998 -1.5355
9.0209999 -0.37200001 -1.5345
9.0880003 -0.39899999 -1.53
9.1133337 -0.368 -1.5340002
9.1990004 -0.38699999 -1.5319999
9.2110004 -0.37200001 -1.534
9.293334 -0.375 -1.5366668
9.3920002 -0.37099999 -1.5395
9.4230003 -0.38 -1.536
9.5185003 -0.37599999 -1.5345
9.5733337 -0.36933336 -1.5263333
9.6485004 -0.36400002 -1.521
9.658 -0.38999999 -1.522
9.7473335 -0.37600002 -1.5190001
9.824667 -0.37933335 -1.5136666
9.9220009 -0.38266668 -1.511
10.008334 -0.36866671 -1.5063334
10.0935 -0.37150002 -1.501
10.118 -0.373 -1.505
6.434 -0.31799999 -1.549
6.4889998 -0.32100001 -1.55
6.5310001 -0.31200001 -1.548
6.5776668 -0.31366667 -1.5476668
6.6263332 -0.31566668 -1.5466666
6.68325 -0.32425001 -1.5480001
6.7347498 -0.32699999 -1.5474999
6.7856669 -0.32700002 -1.5469999
6.8238001 -0.32500002 -1.5427999
6.86625 -0.32124999 -1.5397501
6.927 -0.32374999 -1.54075
6.9759998 -0.31999999 -1.5389999
7.0262003 -0.33180001 -1.54
7.0885 -0.33125001 -1.53825
7.125 -0.31433332 -1.5326667
7.1830001 -0.32349998 -1.53575
7.2349997 -0.32525 -1.5337501
7.2870002 -0.33000001 -1.5323334
7.323667 -0.33133334 -1.5316668
7.3800001 -0.32550001 -1.5339999
7.4330001 -0.31466669 -1.5316666
7.475667 -0.32533336 -1.5316668
7.5149999 -0.331 -1.535
7.5602498 -0.3265 -1.53075
7.6340003 -0.32300001 -1.5316666
7.6949997 -0.31849998 -1.53
7.7350001 -0.34099999 -1.538
7.7716665 -0.315 -1.5313333
7.8380003 -0.32233334 -1.5350001
7.8739996 -0.33999997 -1.5375
7.9213333 -0.32100004 -1.5323334
7.9959998 -0.317 -1.5319999
8.0120001 -0.338 -1.535
8.0806675 -0.32733333 -1.5340002
8.1355 -0.32249999 -1.5295
8.1719999 -0.324 -1.5369999
8.2336674 -0.31900001 -1.5333333
8.2770004 -0.33500001 -1.5339999
8.3074999 -0.322 -1.5320001
8.3806677 -0.32466668 -1.5303334
8.4716663 -0.32833335 -1.5319999
8.5469999 -0.31600001 -1.53
8.5523338 -0.32633334 -1.5313333
8.6375008 -0.32699999 -1.5309999
8.6540003 -0.30500001 -1.534
8.7233334 -0.3226667 -1.5303334
8.8113346 -0.32599998 -1.5303333
8.8910007 -0.3285 -1.528
8.9020004 -0.329 -1.53
8.9825001 -0.33149999 -1.528
9.0065002 -0.317 -1.5319999
9.0836668 -0.31966668 -1.529
9.184001 -0.32333335 -1.529
9.2756672 -0.32633334 -1.5280001
9.3813334 -0.33000001 -1.529
9.4823332 -0.33333334 -1.5280001
9.560667 -0.31933331 -1.5236667
9.6389999 -0.32200003 -1.5190001
9.7323341 -0.32499999 -1.5163333
9.8286667 -0.32833332 -1.5136666
9.909667 -0.33066666 -1.5090001
10.009 -0.32499999 -1.5065
10.093 -0.301 -1.501
10.113501 -0.3285 -1.5039999
10.34 -0.32699999 -1.501
6.4405003 -0.27950001 -1.55
6.4860001 -0.27566668 -1.549
6.5295 -0.28325 -1.54775
6.5795002 -0.27375001 -1.5472499
6.6272502 -0.27574998 -1.54625
6.6903338 -0.28433335 -1.5490001
6.7234001 -0.27399999 -1.5442001
6.7764001 -0.27599999 -1.5444001
6.8182502 -0.27175 -1.5412501
6.8655 -0.27350003 -1.5392499
6.9212503 -0.27575001 -1.5392499
6.9665003 -0.27724999 -1.5367501
7.026 -0.27950001 -1.5365
7.0755997 -0.27519998 -1.5346
7.1357498 -0.27149999 -1.53475
7.1897497 -0.2735 -1.5335
7.2433333 -0.27766669 -1.5320001
7.2750001 -0.27649999 -1.5315001
7.3040004 -0.27533334 -1.5316666
7.3712502 -0.28025001 -1.5320001
7.4355001 -0.26975 -1.5320001
7.4954996 -0.278 -1.5304999
7.5110002 -0.266 -1.534
7.5737495 -0.27450001 -1.53325
7.6435003 -0.27700001 -1.5335
7.7150002 -0.27974999 -1.5337501
7.7873335 -0.27533334 -1.5343332
7.8460002 -0.27700001 -1.531
7.8520002 -0.2775 -1.533
7.9272499 -0.27325001 -1.533
7.9899998 -0.28200001 -1.531
8.0106678 -0.27333334 -1.5343332
8.0782509 -0.278 -1.53325
8.1330004 -0.287 -1.529
8.1595001 -0.26699999 -1.5339999
8.2330008 -0.27633333 -1.533
8.3130007 -0.27900001 -1.5326667
8.3920002 -0.27399999 -1.5325
8.4064999 -0.27450001 -1.535
8.4705 -0.27675003 -1.5315001
8.5600004 -0.27200001 -1.5323334
8.6459999 -0.2825 -1.5325
8.6499996 -0.25999999 -1.533
8.7326679 -0.27700001 -1.5316666
8.8129997 -0.27966666 -1.5306667
8.8950005 -0.26699999 -1.528
8.9130001 -0.27766666 -1.5316668
8.9914999 -0.26200002 -1.529
9.0100002 -0.28600001 -1.5319999
9.0903339 -0.27233335 -1.5296668
9.184 -0.26700002 -1.529
9.1999998 -0.292 -1.5319999
9.2836666 -0.278 -1.529
9.3793335 -0.28066665 -1.5280001
9.4849997 -0.2755 -1.5285
9.5650005 -0.26933333 -1.524
9.6394997 -0.271 -1.5190001
9.6520004 -0.27200001 -1.521
9.7325001 -0.27399999 -1.516
9.75 -0.27399999 -1.5190001
9.8236675 -0.27633333 -1.513
9.9160004 -0.2786667 -1.5096668
9.9969997 -0.28099999 -1.5039999
10.0125 -0.28149998 -1.506
10.099 -0.28400001 -1.501
10.112 -0.26699999 -1.503
10.228 -0.25099999 -1.502
6.3940001 -0.228 -1.55
6.4905 -0.2255 -1.5495
6.5844998 -0.22875001 -1.5479999
6.6370006 -0.2244 -1.5482
6.6848001 -0.226 -1.5472001
6.7290001 -0.22175001 -1.545
6.7807503 -0.22324999 -1.54475
6.8346667 -0.227 -1.5446668
6.8700004 -0.22600001 -1.543
6.9302502 -0.228 -1.54075
6.9820004 -0.2295 -1.5395
7.0293331 -0.23333333 -1.5370001
7.0836 -0.2218 -1.5388001
7.1330004 -0.22175001 -1.534
7.1925001 -0.22999999 -1.5339999
7.2242503 -0.22775 -1.5339999
7.2509999 -0.21250001 -1.533
7.3055 -0.227 -1.53175
7.3907499 -0.2295 -1.536
7.4460001 -0.211 -1.534
7.4545002 -0.2315 -1.5355
7.5152502 -0.22025001 -1.5345
7.5792503 -0.22174999 -1.534
7.6490002 -0.21699999 -1.534
7.6550002 -0.22633335 -1.5353334
7.7189999 -0.226 -1.5345
7.7893333 -0.23466668 -1.5343335
7.802 -0.208 -1.5369999
7.8632498 -0.22974999 -1.5345
7.9335003 -0.23199999 -1.534
7.9724998 -0.2265 -1.5344999
8.0055008 -0.22 -1.533
8.0876675 -0.22900002 -1.5346668
8.1470003 -0.245 -1.531
8.1700001 -0.21700001 -1.5356668
8.2397499 -0.226 -1.534
8.3222504 -0.22825001 -1.5342499
8.3920002 -0.223 -1.5319999
8.4015007 -0.223 -1.534
8.4823341 -0.22499999 -1.5333333
8.5716667 -0.22733334 -1.5343335
8.6490002 -0.214 -1.5319999
8.665 -0.23750001 -1.5355
8.7410002 -0.23166667 -1.533
8.8184996 -0.22575 -1.531
8.9123335 -0.22 -1.5313333
8.9969997 -0.23800001 -1.53
9.0084991 -0.214 -1.5315
9.1066666 -0.22466668 -1.5319999
9.1940002 -0.227 -1.53
9.2135 -0.22749999 -1.5335
9.2800007 -0.22866666 -1.5283334
9.3826666 -0.23100001 -1.5283334
9.4764996 -0.22499999 -1.5265
9.5713339 -0.21866667 -1.525
9.6570005 -0.22066668 -1.5216668
9.7306671 -0.222 -1.5160002
9.824667 -0.22400001 -1.513
9.9150009 -0.22633335 -1.5093334
10.011001 -0.22833334 -1.506
10.113001 -0.2305 -1.5035
6.5366669 -0.17900001 -1.5483334
6.5895 -0.1885 -1.549
6.6357498 -0.17199999 -1.5475
6.6907501 -0.17300001 -1.54825
6.7330003 -0.17399999 -1.54575
6.7807498 -0.17524999 -1.5445001
6.8240004 -0.17649999 -1.5415001
6.8807497 -0.17774999 -1.5420001
6.9365001 -0.17925 -1.5417501
6.97225 -0.18025 -1.5370001
7.0365996 -0.1754 -1.5384001
7.0812497 -0.17024998 -1.5352499
7.1376667 -0.16533333 -1.5346668
7.1862497 -0.1725 -1.5352499
7.2367496 -0.18325001 -1.533
7.2579999 -0.155 -1.534
7.3189998 -0.17575 -1.5339999
7.3894997 -0.1645 -1.5355
7.4150004 -0.18900001 -1.536
7.4596667 -0.17666666 -1.5363334
7.5223331 -0.17366669 -1.5353334
7.5890002 -0.162 -1.536
7.6020002 -0.182 -1.538
7.653667 -0.17666666 -1.5346668
7.7372503 -0.1715 -1.53775
7.7979999 -0.19400001 -1.536
7.8059998 -0.16600001 -1.5370001
7.8762503 -0.17449999 -1.5367501
7.9450002 -0.197 -1.536
7.9526668 -0.169 -1.5373333
8.0232506 -0.17775001 -1.5362499
8.083334 -0.18600002 -1.5336666
8.1029997 -0.15800001 -1.5369999
8.168334 -0.17333333 -1.5346668
8.2563343 -0.17533335 -1.5370001
8.3250008 -0.17666666 -1.5343335
8.3934994 -0.1855 -1.5319999
8.4090004 -0.163 -1.535
8.4816666 -0.17966668 -1.533
8.5662498 -0.17375 -1.5332501
8.6370001 -0.16 -1.53
8.6585007 -0.191 -1.534
8.7382498 -0.17699999 -1.5325
8.819334 -0.171 -1.531
8.9139996 -0.17300001 -1.5313333
9.0073338 -0.17466667 -1.531
9.0939999 -0.184 -1.53
9.1020002 -0.16 -1.531
9.194334 -0.17800002 -1.5303333
9.29 -0.1875 -1.5295
9.302 -0.164 -1.5319999
9.3876677 -0.18133335 -1.529
9.4850006 -0.18333334 -1.5280001
9.5813341 -0.16833334 -1.5263333
9.6599998 -0.16933334 -1.5220001
9.7410002 -0.1795 -1.517
9.7559996 -0.154 -1.5190001
9.8330002 -0.17233334 -1.5139999
9.923667 -0.17433333 -1.51
10.016666 -0.17533335 -1.5063334
10.124333 -0.17733333 -1.5046667
10.229334 -0.17900001 -1.5023334
6.4400001 -0.116 -1.549
6.4809999 -0.12800001 -1.5470001
6.5334997 -0.123 -1.5469999
6.5910001 -0.12425 -1.5489999
6.6384997 -0.125 -1.5480001
6.6830001 -0.12575001 -1.546
6.7329998 -0.13266668 -1.5453334
6.7818003 -0.12400001 -1.5470001
6.8334999 -0.1285 -1.5434999
6.8852496 -0.12925 -1.5427499
6.9300003 -0.13633335 -1.54
6.9794002 -0.12720001 -1.541
7.034667 -0.12166667 -1.5376667
7.0839996 -0.1235 -1.5389999
7.1245003 -0.1025 -1.538
7.1559997 -0.12766668 -1.5383333
7.2134004 -0.1188 -1.535
7.2580004 -0.12933335 -1.5340002
7.3372498 -0.12449999 -1.53775
7.3976669 -0.12766668 -1.5366666
7.4159999 -0.119 -1.54
7.4622498 -0.1265 -1.5367501
7.5332499 -0.1275 -1.53775
7.5966673 -0.122 -1.5366666
7.6030002 -0.149 -1.538
7.66225 -0.12975 -1.5362499
7.7313337 -0.124 -1.536
7.79 -0.111 -1.534
7.8050003 -0.132 -1.5365
7.8786669 -0.12600002 -1.5373334
7.9650002 -0.12766667 -1.5393333
8.0233335 -0.12800001 -1.5363333
8.0957499 -0.12200001 -1.5357502
8.1782494 -0.12349999 -1.5365
8.2419996 -0.146 -1.534
8.2556677 -0.11733334 -1.5363334
8.3284998 -0.12549999 -1.535
8.4090004 -0.12674999 -1.53475
8.4923344 -0.13033333 -1.5346668
8.5010004 -0.121 -1.536
8.5733328 -0.122 -1.5343335
8.6630011 -0.12300001 -1.5346668
8.7420006 -0.1165 -1.5325
8.7539997 -0.139 -1.535
8.8250008 -0.12466666 -1.5320001
8.9153337 -0.12633334 -1.5313333
9.0110006 -0.12733334 -1.5316666
9.0900002 -0.12800001 -1.529
9.1105003 -0.12899999 -1.5325
9.198 -0.138 -1.531
9.2110004 -0.114 -1.533
9.2880001 -0.123 -1.529
9.3070002 -0.147 -1.5319999
9.3794994 -0.124 -1.5274999
9.4099998 -0.149 -1.533
9.4953337 -0.13366668 -1.5293335
9.5039997 -0.101 -1.531
9.5856667 -0.11800002 -1.527
9.6630001 -0.119 -1.5220001
9.7370005 -0.12 -1.516
9.7544994 -0.12 -1.5190001
9.8365002 -0.1125 -1.5145
9.8500004 -0.138 -1.516
9.9346676 -0.122 -1.5116668
10.024334 -0.12300001 -1.5073333
10.135667 -0.12433334 -1.5063334
10.2335 -0.134 -1.5025001
10.251 -0.108 -1.505
6.4936671 -0.071333334 -1.5496668
6.541667 -0.079333335 -1.549
6.5929999 -0.078000002 -1.5495
6.6364999 -0.078500003 -1.54725
6.6866674 -0.077000007 -1.5466669
6.7309999 -0.080600008 -1.5470001
6.7830005 -0.079999998 -1.54425
6.8348002 -0.074999996 -1.544
6.8852005 -0.075000003 -1.5422001
6.9296007 -0.075600006 -1.5398
6.9819999 -0.082000002 -1.5387499
7.0349998 -0.066799998 -1.5403999
7.0900002 -0.070999995 -1.5369999
7.1212502 -0.074249998 -1.5370001
7.1806002 -0.073200002 -1.5354
7.211 -0.052999999 -1.5369999
7.2629995 -0.072499998 -1.5350001
7.3337502 -0.073250003 -1.53675
7.3930001 -0.079999998 -1.536
7.4105 -0.067000002 -1.539
7.46175 -0.074500002 -1.53625
7.5239997 -0.074750006 -1.5355
7.59025 -0.07525 -1.5352499
7.65975 -0.075999998 -1.53575
7.7372499 -0.076749995 -1.5375
7.8059998 -0.077250004 -1.5367501
7.8744998 -0.078000002 -1.536
7.95575 -0.078749999 -1.53775
8.03475 -0.078999996 -1.53825
8.1090002 -0.072666667 -1.538
8.1883335 -0.073333338 -1.5386667
8.2546673 -0.074000001 -1.536
8.3293333 -0.07433334 -1.5350001
8.4090004 -0.075000003 -1.5346668
8.4926672 -0.075999998 -1.5343335
8.5734997 -0.076499999 -1.534
8.6009998 -0.077 -1.539
8.6706676 -0.077333331 -1.536
8.7399998 -0.078000002 -1.533
8.7579994 -0.077500001 -1.5355
8.8356667 -0.078333333 -1.5333333
8.9263334 -0.079333335 -1.5333333
9.0106659 -0.079999998 -1.5316666
9.1046677 -0.081 -1.5313333
9.1914997 -0.090000004 -1.53
9.2040005 -0.064999998 -1.5319999
9.2939997 -0.082000002 -1.53
9.3070002 -0.082499996 -1.5320001
9.3806667 -0.082666665 -1.5276668
9.4836674 -0.067333333 -1.5276668
9.5959997 -0.068000004 -1.528
9.6040001 -0.068000004 -1.53
9.6850004 -0.068333343 -1.5256667
9.7489996 -0.068000004 -1.518
9.7764997 -0.069000006 -1.5225
9.8753338 -0.069333337 -1.5203333
9.9420004 -0.086999997 -1.513
9.9910002 -0.061499998 -1.5204999
10.031 -0.088 -1.5089999
10.062 -0.052999999 -1.513
10.120501 -0.079999998 -1.513
10.171 -0.054000001 -1.512
10.216 -0.071000002 -1.518
10.259501 -0.072000004 -1.507
10.3255 -0.081499994 -1.507
10.3605 -0.063000001 -1.503
10.475 -0.092 -1.501
10.608 -0.093000002 -1.501
10.776 -0.093999997 -1.506
5.0320001 -0.0049999999 -1.5470001
5.1009998 -0.0070000002 -1.549
6.4369998 -0.003 -1.548
6.4916668 -0.0135 -1.5488334
6.5355 -0.0099999998 -1.5475
6.585834 -0.011666667 -1.5478333
6.6419997 -0.019874999 -1.548375
6.6911249 -0.02 -1.547875
6.7376251 -0.02 -1.5461249
6.7839999 -0.020125 -1.54475
6.8272853 -0.015714286 -1.5420002
6.8840003 -0.015714288 -1.542143
6.9355717 -0.015714286 -1.5408571
6.9855714 -0.015857143 -1.5397143
7.0398579 -0.016000001 -1.5384287
7.0926003 -0.018200001 -1.5376
7.1304288 -0.011142856 -1.5362858
7.1540003 -0.0275 -1.5374999
7.21 -0.016000001 -1.5365714
7.2675719 -0.016142858 -1.5355715
7.3285718 -0.016142856 -1.5357143
7.382833 -0.012000001 -1.5335001
7.4396667 -0.028000003 -1.5363334
7.4631996 -0.014199999 -1.5364
7.5155001 -0.012166666 -1.5335
7.5718579 -0.016428571 -1.5334287
7.6364007 -0.0188 -1.5336001
7.6757503 -0.023250001 -1.5355
7.711 -0.0088 -1.5322001
7.7758574 -0.016571429 -1.5328573
7.8317499 -0.023250001 -1.5314999
7.8674998 -0.0165 -1.535
7.9240007 -0.012333333 -1.5316666
7.9749999 -0.025 -1.5339999
8.0130005 -0.018833335 -1.5343335
8.0743999 -0.0089999996 -1.5316
8.1105003 -0.037 -1.5385
8.1595001 -0.014833334 -1.533
8.2298336 -0.012333333 -1.5336666
8.2670002 -0.038000003 -1.5385001
8.319334 -0.014833334 -1.5331666
8.3834991 -0.0135 -1.5337499
8.4137506 -0.024499999 -1.5355
8.4812002 -0.008799999 -1.5328001
8.5286665 -0.031000001 -1.536
8.5773335 -0.017666668 -1.5345
8.6429996 -0.0060000001 -1.531
8.6730003 -0.033333331 -1.536
8.7382002 -0.014 -1.5319999
8.7624998 -0.026500002 -1.5365
8.8344011 -0.020400003 -1.533
8.8540001 -0.021 -1.5369999
8.9284 -0.020400001 -1.5338
8.9750004 -0.021 -1.5420001
9.0218 -0.0208 -1.5333999
9.0810003 -0.021 -1.544
9.1099997 -0.022 -1.53225
9.1555004 -0.019000001 -1.54
9.2172012 -0.022 -1.5338
9.2779999 -0.025 -1.5355
9.3185997 -0.018999999 -1.534
9.3889999 -0.0305 -1.529
9.4120007 -0.003 -1.5325
9.4794998 -0.025500001 -1.5265
9.5166664 -0.009333333 -1.5326667
9.5840006 -0.024333334 -1.5266666
9.6049995 -0.003 -1.53
9.6949997 -0.018666668 -1.527
9.7060003 -0.022 -1.529
9.7939997 -0.026000001 -1.525
9.8140001 -0.013499999 -1.5285
9.8885002 -0.02025 -1.5222499
9.9807501 -0.02025 -1.51875
10.082 -0.020250002 -1.5162499
10.17575 -0.02025 -1.5124999
10.27575 -0.020500001 -1.50875
10.368999 -0.020500001 -1.5042499
10.489 -0.021666666 -1.5026667
10.610666 -0.02 -1.5020001
12.845 -0.027000001 -1.501
5.0700002 0.0020000001 -1.549
5.1059999 0.0175 -1.54825
6.441 0.0049999999 -1.549
6.4970002 0.0049999999 -1.55
6.54 0.033 -1.5485001
6.58775 0.02225 -1.5477499
6.6403332 0.024000002 -1.5480001
6.6808 0.019200001 -1.5477999
6.7316666 0.019000001 -1.5468334
6.791667 0.028666666 -1.5463333
6.8413334 0.029333334 -1.5453334
6.8741999 0.020000001 -1.5452
6.9246669 0.025999999 -1.5426667
6.9775 0.017999999 -1.54425
7.0265999 0.022799999 -1.5434
7.0830002 0.0232 -1.5427999
7.1300001 0.012 -1.5455
7.1705995 0.021000002 -1.5414001
7.2210002 0.021199999 -1.5386001
7.2788005 0.021800002 -1.5382001
7.3268008 0.0218 -1.5346
7.3900003 0.015333335 -1.5350001
7.4193335 0.032333337 -1.5363334
7.467 0.022400001 -1.5345999
7.5192499 0.02 -1.53425
7.5769997 0.022599999 -1.5328001
7.6440001 0.02 -1.5326667
7.6514997 0.027000001 -1.534
7.7148004 0.023600001 -1.5326
7.7821999 0.023800001 -1.5320001
7.8415003 0.028000001 -1.5295
7.8553333 0.021333333 -1.5323334
7.9169998 0.024000002 -1.5304
7.9887495 0.0185 -1.52975
8.0240002 0.0285 -1.5295
8.0696669 0.022 -1.5306667
8.1604996 0.019000001 -1.53325
8.2440004 0.023000002 -1.5340002
8.25 0.0089999996 -1.535
8.3172493 0.019749999 -1.533
8.3929996 0.0089999996 -1.5315
8.4119997 0.030499998 -1.5355
8.4904995 0.020500001 -1.5345
8.566 0.020499999 -1.5325
8.6479998 0.0099999998 -1.5319999
8.6583338 0.024333334 -1.5336666
8.7406673 0.02 -1.5323334
8.7539997 0.025 -1.535
8.8274002 0.017000001 -1.5322001
8.9196005 0.017400002 -1.5321999
8.9969997 0 -1.529
9.0219994 0.022 -1.5337499
9.1171999 0.017999999 -1.5333999
9.2173996 0.018200001 -1.5336001
9.2889996 0 -1.529
9.3112497 0.023 -1.533
9.4168005 0.0186 -1.5336
9.5261993 0.018999999 -1.5344
9.5939999 0.028000001 -1.528
9.6213341 0.013333334 -1.5326667
9.6990004 0 -1.528
9.7148008 0.019400001 -1.5304002
9.7964993 0.0060000001 -1.5255001
9.8125 0.022000002 -1.528
9.8966675 0.0083333338 -1.5236667
9.9106665 0.025333334 -1.526
9.9890003 0.02 -1.52
10.001333 0.014333333 -1.5220001
10.0834 0.0148 -1.5167999
10.107 0.029999999 -1.52
10.188201 0.015000001 -1.5143999
10.213 0.029999999 -1.518
10.278833 0.017833333 -1.5093334
10.381167 0.017999999 -1.506
10.484501 0.0075000003 -1.5025001
10.50625 0.02375 -1.5057501
10.6184 0.0122 -1.5028
10.741333 0.0099999998 -1.5013335
10.757 0.032000002 -1.503
10.8865 0.023499999 -1.5025001
11.017 0.033 -1.501
11.162 0.034000002 -1.501
11.62 0.035999998 -1.501
5.0409999 0.079999998 -1.55
5.0700002 0.054000001 -1.549
5.1289997 0.068499997 -1.548
6.487 0.061000001 -1.548
6.5889997 0.056000002 -1.5480001
6.6430001 0.077 -1.54875
6.68925 0.068499997 -1.5474999
6.7314005 0.079599999 -1.5474
6.7936006 0.075800002 -1.5470001
6.8406668 0.076000005 -1.5453334
6.8790002 0.067400001 -1.5434
6.9382496 0.071500003 -1.5420001
6.9835 0.071999997 -1.539
7.0298338 0.072666667 -1.5408335
7.0970001 0.0735 -1.5385001
7.123333 0.075666666 -1.5396667
7.1586666 0.072000004 -1.5386666
7.2162499 0.074749999 -1.5379999
7.2744999 0.075499997 -1.53725
7.3317499 0.075999998 -1.536
7.3917499 0.076749995 -1.5350001
7.4624996 0.077500001 -1.5362499
7.5222502 0.078500003 -1.5350001
7.5757499 0.078999996 -1.5325
7.6409998 0.072999999 -1.5319999
7.6549997 0.0735 -1.5350001
7.7179999 0.073666669 -1.5333333
7.7713332 0.07433334 -1.5300001
7.8439999 0.075000003 -1.53
7.8509998 0.075499997 -1.5315
7.927 0.076000005 -1.5323334
7.9924998 0.077 -1.5304999
8 0.077 -1.5319999
8.0804996 0.071000002 -1.533
8.16675 0.071500003 -1.5344999
8.2390003 0.079333335 -1.533
8.2510004 0.050999999 -1.535
8.3280001 0.072999999 -1.53475
8.4165001 0.074000001 -1.536
8.4920006 0.074500002 -1.5350001
8.507 0.075000003 -1.5369999
8.5777502 0.075499997 -1.5350001
8.6630001 0.076499999 -1.5344999
8.7559996 0.069666669 -1.5350001
8.8426666 0.070666671 -1.5350001
8.9363327 0.071333334 -1.5346668
9.0353336 0.072333336 -1.5356668
9.1273336 0.072999999 -1.5353334
9.2399998 0.074000001 -1.5376667
9.3190002 0.075000003 -1.5340002
9.4400005 0.075499997 -1.5374999
9.4530001 0.075999998 -1.539
9.5489998 0.059999999 -1.538
9.5700016 0.088333331 -1.5356667
9.6149998 0.069499999 -1.5320001
9.6959991 0.069499999 -1.527
9.7150002 0.094999999 -1.53
9.8266668 0.079333335 -1.5303333
9.9136667 0.080000006 -1.5263333
10.009001 0.081 -1.523
10.106334 0.081666671 -1.5196667
10.2055 0.074000001 -1.5165
10.309 0.075000003 -1.5139999
10.421499 0.076000005 -1.512
10.525 0.076499999 -1.5085
10.639999 0.068333335 -1.506
10.762 0.069333337 -1.5040001
10.892 0.070000008 -1.503
11.0325 0.080500007 -1.5025001
11.160999 0.081499994 -1.501
11.315001 0.082499996 -1.5015
11.463 0.093999997 -1.501
11.624001 0.075499997 -1.501
11.781 0.097000003 -1.501
12.119 0.079000004 -1.501
6.5945001 0.13699999 -1.5495
6.6416664 0.12066667 -1.5486667
6.6902499 0.1275 -1.5479999
6.7380004 0.126 -1.5463333
6.7753997 0.13020001 -1.5452
6.8379998 0.1244 -1.5446
6.8936667 0.11300001 -1.5446666
6.9355001 0.12325 -1.5442499
6.9835 0.127 -1.54275
7.0328002 0.1182 -1.54
7.099 0.1295 -1.539
7.1193333 0.12533334 -1.5389999
7.1640005 0.118 -1.54
7.2135 0.125 -1.5375
7.2767496 0.1265 -1.53775
7.3267498 0.12750001 -1.5350001
7.3883338 0.13500002 -1.5350001
7.4029999 0.109 -1.538
7.4573336 0.12300001 -1.5353334
7.5183334 0.12433334 -1.5346668
7.5776668 0.125 -1.533
7.640667 0.122 -1.5319999
7.6550002 0.113 -1.535
7.71 0.121 -1.5320001
7.7782502 0.122 -1.5315
7.8410001 0.12324999 -1.5297501
7.9200001 0.12449999 -1.531
7.9925003 0.112 -1.5304999
8.0039997 0.14 -1.533
8.0854998 0.127 -1.5337499
8.1703339 0.12166667 -1.5350001
8.2460003 0.1155 -1.5345
8.2510004 0.13699999 -1.536
8.3290005 0.124 -1.5350001
8.4090004 0.12533334 -1.5346668
8.4876661 0.12633334 -1.5340002
8.5773335 0.12800001 -1.5350001
8.6640005 0.12933335 -1.5346668
8.7662506 0.12324999 -1.5369999
8.8414993 0.1245 -1.5345
8.8535004 0.125 -1.5365
8.9420004 0.126 -1.536
9.0343342 0.11933334 -1.5356668
9.1329994 0.12099999 -1.536
9.224 0.122 -1.5350001
9.3316679 0.12333333 -1.5363334
9.4445 0.12549999 -1.538
9.4560003 0.125 -1.54
9.5480003 0.127 -1.538
9.559 0.127 -1.54
9.6183338 0.12800001 -1.5323334
9.7276669 0.12933333 -1.5323334
9.8300009 0.13100001 -1.5306667
9.9133339 0.13166668 -1.5263333
10.014999 0.1245 -1.524
10.114 0.12549999 -1.5215
10.206667 0.118 -1.5170001
10.297 0.101 -1.512
10.3125 0.1285 -1.5145
10.410667 0.12066667 -1.5103334
10.528334 0.12233334 -1.5090001
10.643333 0.12366667 -1.5063334
10.764999 0.125 -1.5046667
10.8925 0.127 -1.5035
10.904 0.127 -1.505
11.026333 0.12833333 -1.5020001
11.166 0.13 -1.501
11.618 0.13600001 -1.501
11.788 0.138 -1.502
12.118 0.1 -1.501
6.5359998 0.199 -1.549
6.5933332 0.16966668 -1.5496668
6.6407499 0.17300001 -1.5487499
6.6939998 0.17450002 -1.549
6.73525 0.17575 -1.54625
6.7856669 0.18300001 -1.5456667
6.8347497 0.178 -1.5445001
6.8864007 0.17400001 -1.5431999
6.9334002 0.175 -1.541
6.9867501 0.17025 -1.5402501
7.0419998 0.178 -1.5396667
7.0827498 0.1635 -1.539
7.1245003 0.1865 -1.5385
7.153667 0.17233334 -1.538
7.2130003 0.176 -1.53775
7.2672501 0.17725 -1.5362499
7.3269997 0.17899999 -1.5352499
7.383667 0.17400001 -1.5343332
7.4456668 0.17566667 -1.5333333
7.4735003 0.15700001 -1.5320001
7.5116668 0.17266667 -1.5333333
7.5722499 0.17225 -1.5320001
7.6372499 0.1735 -1.5314999
7.697 0.17733334 -1.5296667
7.71 0.168 -1.5319999
7.7709999 0.17649999 -1.5302498
7.8363338 0.185 -1.529
7.8765001 0.1585 -1.53
7.914 0.18000001 -1.53
7.9873333 0.175 -1.5296668
8.0756674 0.17700002 -1.5319999
8.1595001 0.1715 -1.5335
8.2340002 0.17324999 -1.53225
8.3232498 0.175 -1.5342499
8.3940001 0.177 -1.5320001
8.4029999 0.177 -1.534
8.4863338 0.171 -1.5339999
8.5736675 0.17300001 -1.5343332
8.6656666 0.175 -1.5353334
8.7650003 0.17733334 -1.5373334
8.8439999 0.17900001 -1.535
8.8579998 0.17899999 -1.5375
8.9370003 0.189 -1.535
8.9530001 0.16500001 -1.538
9.0419998 0.17500001 -1.5369999
9.1333342 0.169 -1.5366666
9.241333 0.17133334 -1.538
9.3336668 0.17266667 -1.5370001
9.4430008 0.175 -1.5383333
9.5469999 0.177 -1.538
9.5594997 0.177 -1.54
9.623333 0.17833333 -1.5333333
9.7223339 0.18033335 -1.5316668
9.8169994 0.1735 -1.529
9.9195004 0.175 -1.5274999
9.9980001 0.186 -1.522
10.014 0.1595 -1.5239999
10.108334 0.17 -1.5206668
10.208334 0.17199999 -1.5173334
10.307334 0.17333333 -1.5139999
10.409 0.17500001 -1.5103334
10.529 0.17733334 -1.5090001
10.636999 0.17 -1.5055001
10.661 0.198 -1.5089999
10.76 0.17199999 -1.5039999
10.8875 0.1745 -1.5025001
11.018499 0.17649999 -1.501
11.1735 0.169 -1.5025001
