# .PCD v0.7 - Point Cloud Data file format
VERSION 0.7
FIELDS x y z
SIZE 4 4 4
TYPE F F F
COUNT 1 1 1
WIDTH 1642
HEIGHT 1
VIEWPOINT 0 0 0 1 0 0 0
POINTS 1642
DATA ascii
-4.0015001 -4.0570002 -0.14399999
-3.9900625 -4.0795627 -0.12412499
-3.0697646 -4.0184116 -0.11623529
-3.0266333 -4.0234337 -0.1239
-2.974381 -4.0226192 -0.12661904
-2.9259167 -4.0222921 -0.12400001
-2.874917 -4.0222502 -0.12720835
29.997999 0.26100001 -0.147
30.014 0.31400001 -0.147
-4.0068002 -4.2090001 -0.076200001
-3.9965 -4.204 -0.081500001
-4.003778 -4.1757779 -0.082666673
-3.9959998 -4.1691666 -0.066000007
-4.0023336 -4.1276665 -0.075666666
-3.9946156 -4.1224613 -0.073923081
-3.175 -4.0770001 -0.071999997
-2.8702226 -4.0702782 -0.075611115
-3.154 -4.0430002 -0.057999998
-3.1171 -4.0254998 -0.072799996
-3.0771818 -4.0206366 -0.075681821
-3.0267081 -4.0203338 -0.074874997
-2.9754484 -4.0199656 -0.079413787
-2.9255185 -4.0211477 -0.07644444
-2.8789308 -4.0285864 -0.081482753
29.971001 0.20999999 -0.093999997
29.978001 0.26100001 -0.093999997
-4.0539999 -4.2800002 -0.011
-4.0370002 -4.2616668 -0.036333334
-4.0062499 -4.2107501 -0.021000002
-3.9980001 -4.2054996 -0.041000001
-4.0041995 -4.1740003 -0.023
-3.9961429 -4.172286 -0.027428573
-2.9196427 -4.1263571 -0.018999999
-3.2165 -4.0644999 -0.011750001
-3.1900001 -4.0664997 -0.045500003
-2.918889 -4.0756669 -0.021277778
-2.8952501 -4.0725002 -0.048
-3.0763099 -4.0186553 -0.027655179
-3.0250006 -4.0186162 -0.026923083
-2.9744003 -4.0183334 -0.025800005
-2.9246001 -4.026 -0.02853333
29.992001 0.15899999 -0.041999999
29.973 0.20999999 -0.041999999
-4.0550003 -4.2810001 0.030000001
-4.0433331 -4.2686667 0.021333335
-4.0050001 -4.2132502 0.024750002
-4 -4.2080002 0.025
-2.9673078 -4.1228461 0.035076924
-2.9423752 -4.127625 0.01075
-2.968158 -4.0726318 0.031894736
-2.9445999 -4.0768003 0.0076000006
-1.963125 -4.0469999 0.019999998
-1.9331667 -4.0410004 0.034000002
-1.8940001 -4.0339999 0.043000001
-0.9053334 -3.9221666 0.028500002
-0.87737852 -3.9204865 0.029918917
-0.90100002 -3.8970001 0.0040000002
-0.86933339 -3.8952498 0.009833334
29.959999 0.108 0.0099999998
29.948 0.15899999 0.0099999998
-4.12325 -4.3722496 0.064750001
-4.0565004 -4.2825003 0.081499994
-4.0426669 -4.2683334 0.072666667
-3.0110002 -4.1259999 0.081111111
-2.9884002 -4.1317997 0.060799997
-1.957 -4.0580001 0.050999999
-1.9229996 -4.0614762 0.069285728
-1.8738111 -4.0621624 0.071216218
-1.8247859 -4.0723095 0.073976189
-1.7760971 -4.0757318 0.073878057
-1.922125 -4.0461249 0.070250005
-1.8765 -4.0474005 0.078499995
-1.839 -4.046 0.097000003
-0.90628576 -3.9610004 0.087000005
-0.8734799 -3.9594798 0.083319999
-0.82550019 -3.9622502 0.083678573
-0.90679997 -3.941 0.064200006
-0.87616658 -3.9367504 0.063791662
-0.82547617 -3.941714 0.06166666
30.009499 0.059500001 0.061999999
29.999001 0.109 0.061999999
29.968 0.15899999 0.061999999
-20.353001 -6.5159998 0.12
-1.7145 -4.1009998 0.1085
-1.9030001 -4.0637503 0.10924999
-1.8695908 -4.0608182 0.12104547
-1.8219088 -4.0650902 0.12436363
-1.7772163 -4.0767293 0.12359461
-1.7269716 -4.079143 0.12405714
-1.6769716 -4.0813713 0.12445714
-1.6405001 -4.0857496 0.13700001
-1.8728335 -4.0485001 0.1245
-1.8391666 -4.0491667 0.13033333
-0.91262496 -4.0154996 0.132
-0.87012506 -4.0063748 0.139375
-0.82473344 -4.0105333 0.14013334
-0.90762502 -3.9853752 0.11512499
-0.87407893 -3.9842372 0.12205261
-0.82599998 -3.9871764 0.11747057
-0.77713335 -3.9853673 0.11580001
30.015333 0.016666668 0.115
29.992001 0.057999998 0.115
30.000999 0.061999999 0.115
29.982 0.109 0.115
-20.339249 -6.5317497 0.17550001
-1.6 -4.1599998 0.198
-1.6234999 -4.1187501 0.16662499
-1.597 -4.1199999 0.192
-1.8608888 -4.0666666 0.16211112
-1.8200312 -4.0641875 0.17009377
-1.7738464 -4.0711284 0.17382054
-1.7253255 -4.0752335 0.1743256
-1.6750698 -4.0789533 0.17244188
-1.6286858 -4.0846 0.17608571
-1.5913334 -4.0803332 0.192
-0.81800002 -4.0567999 0.19520001
-0.7687273 -4.0572734 0.19336362
-1.8214999 -4.045125 0.17475002
-1.722 -4.0489998 0.16500001
-0.90300006 -4.0353336 0.18366668
-0.87453192 -4.0277019 0.17680848
-0.82620931 -4.0283256 0.17348838
-0.7773847 -4.0325379 0.17033334
-0.884 -3.9974999 0.15700001
30.011499 -0.0405 0.167
29.983999 0.02 0.167
30.012501 0.015000001 0.167
29.990002 0.059 0.167
-20.346001 -6.5929999 0.23199999
-20.357 -6.5180001 0.23199999
-20.333 -6.5489998 0.23199999
-20.392 -6.4899998 0.23199999
-1.5776666 -4.176333 0.22422224
-1.57075 -4.1341248 0.22525001
-1.546 -4.1040001 0.248
-1.7256758 -4.0740266 0.22313513
-1.6737999 -4.0759006 0.22482502
-1.6248891 -4.0812001 0.22595556
-1.5787777 -4.088222 0.2287222
-1.55 -4.092 0.23999999
-0.91557145 -4.0818572 0.21914285
-0.87630308 -4.067152 0.23003033
-0.82494581 -4.0694599 0.22551355
-0.77455556 -4.0755334 0.22397782
-0.87560004 -4.0442004 0.2076
-0.83399999 -4.0472498 0.2085
30.044001 -0.086000003 0.22
30.039 -0.039999999 0.22
30.025 0.0040000002 0.22
-20.326 -6.6269999 0.26899999
-20.345501 -6.573 0.26899999
-1.5367143 -4.2244287 0.27914286
-1.553 -4.1833334 0.255
-1.53075 -4.17875 0.280875
-1.5293078 -4.1247697 0.27500001
-0.96483326 -4.1113338 0.29183334
-0.93481815 -4.126091 0.28054547
-0.86886668 -4.104867 0.28493333
-0.82242316 -4.1120386 0.28334615
-0.77516228 -4.1156211 0.28018913
-0.72715229 -4.125391 0.27304348
-0.97133338 -4.0950003 0.29466665
-0.90500003 -4.0882854 0.27042857
-0.87976474 -4.0890288 0.26994118
-0.83056515 -4.0893912 0.26099998
-0.77546161 -4.0945382 0.25546151
29.968 -0.138 0.271
29.974001 -0.086000003 0.27200001
29.999001 -0.048 0.27200001
30.013 -0.032000002 0.27200001
-20.345001 -6.6724997 0.32550001
-20.34 -6.6315002 0.32499999
-20.356001 -6.5960002 0.34400001
-20.341667 -6.5656672 0.31866667
-1.5125715 -4.2342858 0.31171432
-1.4862857 -4.2242856 0.33714288
-1.5103334 -4.188333 0.30900002
-1.4894286 -4.1801429 0.3297143
-0.96128577 -4.1785717 0.32878575
-0.94042104 -4.1701579 0.32447368
-0.76300001 -4.151 0.34900001
-0.90985727 -4.1145716 0.32685715
-0.87543595 -4.1111026 0.32569227
-0.8251459 -4.1205425 0.32624999
-0.77487218 -4.1242976 0.32514894
-0.72690916 -4.1305008 0.32484093
-0.977 -4.0970001 0.30500001
-0.905375 -4.0924997 0.32437497
-0.86839992 -4.0957003 0.32619998
29.965 -0.19 0.324
29.966 -0.138 0.324
29.962999 -0.086000003 0.324
-20.337 -6.6700001 0.38100001
-20.372999 -6.6420002 0.382
-1.4636 -4.2263999 0.36399999
-1.4415001 -4.2250004 0.38916668
-1.4601429 -4.1800003 0.361
-0.96149999 -4.173625 0.37718749
-0.94181246 -4.1663752 0.37374997
-0.71100003 -4.1550002 0.38600001
-0.91527271 -4.1220908 0.37454548
-0.72642106 -4.128027 0.37447366
29.971001 -0.243 0.37599999
29.966999 -0.19 0.37599999
29.976999 -0.138 0.37599999
-20.327999 -6.6669998 0.419
-1.4169092 -4.2280002 0.41954544
-0.71759999 -4.2403998 0.42379999
-0.95999998 -4.1729994 0.41099998
-0.94533336 -4.1693339 0.40866667
-0.19166666 -4.1733332 0.41400003
30.025 -0.29499999 0.42899999
29.969999 -0.244 0.428
30 -0.19 0.42899999
-20.542999 -6.8559999 0.49900001
-20.403999 -6.849 0.49599999
-19.271 -6.6939998 0.47
-0.71960002 -4.2742996 0.47970006
-0.71700001 -4.2379999 0.454
-0.25799999 -4.2259998 0.49200001
30.002001 -0.34900001 0.48100001
30.007999 -0.29499999 0.48100001
29.993 -0.244 0.48100001
-21.007999 -6.9720001 0.54900002
-20.379 -6.881 0.53299999
-20.411499 -6.8319998 0.53399998
-19.209999 -6.7115002 0.52250004
-19.268 -6.6919999 0.52399999
-0.72049999 -4.3035002 0.52950001
-0.72000003 -4.2751112 0.52466667
-0.71899998 -4.2480001 0.51899999
30.009001 -0.40099999 0.53399998
29.990999 -0.34799999 0.53299999
29.993 -0.29499999 0.53299999
-21.077 -6.954 0.55000001
-20.945 -6.9099998 0.58499998
-20.367001 -6.9159999 0.57099998
-20.362 -6.875 0.56999999
-20.388 -6.8245001 0.57099998
-19.212 -6.7870002 0.57599998
-19.2225 -6.7340002 0.5765
-19.278 -6.6960001 0.57700002
-0.72000003 -4.3010001 0.583
-0.71920002 -4.2783999 0.5735001
29.948999 -0.45199999 0.58499998
29.959999 -0.40000001 0.58499998
29.989 -0.34799999 0.58600003
-20.392 -7.0040002 0.64700001
-20.376667 -6.9726667 0.62166667
-20.372999 -6.9180002 0.60900003
-20.348 -6.9099998 0.64499998
-20.3675 -6.8769999 0.62699997
-19.188499 -6.816 0.62950003
-19.218666 -6.7766666 0.62400001
-19.216999 -6.7259998 0.63533336
-0.72100002 -4.3060002 0.61500001
29.972 -0.505 0.63800001
29.974001 -0.45100001 0.63800001
29.979 -0.40000001 0.63800001
-20.391001 -7.0040002 0.685
-20.306999 -7.0149999 0.68300003
-20.408001 -6.9699998 0.685
-20.402 -6.928 0.685
-19.204 -6.8590002 0.68400002
-19.188 -6.816 0.68300003
-19.194 -6.7810001 0.68300003
29.982 -0.505 0.69
29.972 -0.45300001 0.69
-20.353001 -6.9520001 0.72100002
-20.313999 -6.9780002 0.72000003
-20.250999 -6.9949999 0.71799999
-19.225 -6.8660002 0.72000003
-19.176001 -6.8870001 0.71899998
-19.207001 -6.823 0.71899998
-19.202 -6.7839999 0.71799999
29.98 -0.55699998 0.74199998
29.964001 -0.505 0.74199998
-20.171501 -6.9685001 0.77149999
-19.172501 -6.9230003 0.77250004
-19.226999 -6.8670001 0.75599998
-19.161999 -6.8815002 0.77149999
-18.257999 -6.8099999 0.75599998
-18.140499 -6.8199997 0.76800001
-18.08 -6.8150001 0.78299999
-18.274 -6.7789998 0.79000002
-18.212999 -6.7930002 0.78799999
1.9612499 -4.2177501 0.78662497
2.0190001 -4.2020006 0.77566665
2.0811429 -4.2045717 0.78114295
2.1251667 -4.2045002 0.76833338
2.17925 -4.2063751 0.77362502
2.2102001 -4.2112002 0.78660005
1.9414446 -4.1899996 0.76266664
1.9767241 -4.1900005 0.77082753
2.0256896 -4.1906209 0.77617246
2.0729229 -4.1928458 0.77238464
2.1219599 -4.1926794 0.77688003
2.1654761 -4.194191 0.77847618
2.2 -4.1950002 0.79400003
29.996 -0.61000001 0.79500002
29.978001 -0.55699998 0.79500002
-19.174999 -6.9809999 0.82700002
-19.179001 -6.9260001 0.82599998
-19.181999 -6.8889999 0.82599998
-18.054001 -6.823 0.83249998
-18.044001 -6.802 0.815
-18.224001 -6.7600002 0.82200003
-18.174999 -6.7789998 0.81999999
-18.108999 -6.79 0.81699997
-18.049 -6.7680001 0.84799999
1.9815001 -4.22575 0.82158339
2.01425 -4.2102499 0.8405
2.1174998 -4.2034998 0.82249999
2.1764998 -4.2079997 0.82774997
2.2240002 -4.2072005 0.8203001
2.2583334 -4.211 0.84066671
2.4055002 -4.2198749 0.82362503
2.48 -4.204 0.81488895
2.5287142 -4.211143 0.8263334
1.985 -4.1902723 0.80981821
2.0237501 -4.1882501 0.82565618
2.0741613 -4.1884189 0.82283866
2.1247244 -4.1915169 0.82586211
2.1726923 -4.1928844 0.82507694
2.218647 -4.1954117 0.83323526
2.4245002 -4.1898575 0.82342869
2.4707224 -4.194777 0.82727784
2.5125 -4.1975002 0.82550001
29.99 -0.66299999 0.847
29.993999 -0.61000001 0.84799999
-19.190001 -7.0244999 0.86400002
-19.175667 -6.9750004 0.88600004
-18.042 -6.8715 0.86699998
-18.057667 -6.8303332 0.87233341
2.0212667 -4.2709336 0.87533331
2.316 -4.27 0.88300002
2.3940623 -4.2773123 0.87731248
1.998 -4.2340002 0.852
2.0306666 -4.2235832 0.87700003
2.1710002 -4.21 0.87000006
2.227 -4.2010002 0.8775
2.2686665 -4.2066669 0.86922222
2.306 -4.2329998 0.89399999
2.39675 -4.227375 0.87612498
2.4047692 -4.2220006 0.87092316
2.4842501 -4.2057495 0.87099993
2.5246315 -4.2075262 0.87526309
2.575542 -4.215333 0.87625015
2.6259201 -4.2243991 0.87572014
2.6594002 -4.2366004 0.87379998
2.7428575 -4.2214293 0.89242864
2.77525 -4.2189584 0.87316674
2.8266003 -4.2095599 0.87408
2.8733335 -4.2138095 0.8740952
2.0347857 -4.1882858 0.86578572
2.0736969 -4.1852121 0.87433326
2.1225002 -4.1868434 0.87540632
2.1750627 -4.1893444 0.87549996
2.2234616 -4.1915383 0.87311542
2.2633336 -4.1905556 0.88611114
2.3970001 -4.1880002 0.89499998
2.423286 -4.1894999 0.87471437
2.4705455 -4.1929092 0.87490916
2.5187776 -4.1951108 0.87611109
2.743 -4.1939998 0.89300001
2.7761667 -4.1995001 0.88116664
2.8199999 -4.1989999 0.85600001
29.974001 -0.66299999 0.89899999
-19.222 -7.0560002 0.93699998
-19.277 -7.0370002 0.93900001
-19.200001 -7.0469999 0.89999998
-18.044001 -6.908 0.91799998
-18.054001 -6.8759999 0.91799998
-18.058001 -6.842 0.917
2.0408573 -4.3175716 0.91142857
2.0630832 -4.3150001 0.93508333
2.3893077 -4.3223848 0.92361534
2.0366001 -4.2804003 0.90980005
2.0680001 -4.2708888 0.93155557
2.349 -4.2579999 0.92799997
2.3908126 -4.2799377 0.92418748
2.4048002 -4.2818003 0.92500001
2.677 -4.2529998 0.94099998
2.7212353 -4.2737064 0.92047065
2.0480001 -4.224 0.90399998
2.197 -4.2080002 0.90600002
2.2579999 -4.2027502 0.90849996
2.3163753 -4.2131252 0.91987497
2.3965836 -4.2305002 0.92358327
2.4052222 -4.2221112 0.92344445
2.4693334 -4.2023335 0.91866672
2.5303848 -4.2057686 0.92461532
2.5740459 -4.211091 0.92513627
2.6232221 -4.2167039 0.92407411
2.6811111 -4.240222 0.93344444
2.7201536 -4.2199235 0.92742324
2.7753749 -4.2066255 0.92324996
2.8243127 -4.2062502 0.92262501
2.87448 -4.2136397 0.92556
2.9216998 -4.2186999 0.92594999
2.9665337 -4.2248669 0.91860008
2.4246788 -4.1868935 0.92528582
2.4752223 -4.190815 0.92544436
2.5190001 -4.1939998 0.92572719
2.592 -4.1999998 0.94199997
2.72825 -4.1955004 0.92891669
2.7810001 -4.196084 0.92250001
2.8260002 -4.1973333 0.92033333
2.9289999 -4.1999998 0.90399998
30.02 -0.71799999 0.90100002
-19.257 -7.0300002 0.97399998
-18.112 -6.9710002 0.99000001
-18.124001 -6.9390001 0.99000001
-18.051001 -6.9109998 0.95200002
-18.056999 -6.8774996 0.96850002
2.0871112 -4.3185558 0.96844453
2.1076 -4.3182001 0.98839998
2.0920002 -4.2746668 0.96133339
2.3916249 -4.267375 0.95925003
2.4025002 -4.2755003 0.96700001
2.6860001 -4.2519999 0.95999998
2.9590001 -4.2589998 0.98100001
2.5756087 -4.2111735 0.9716087
2.6236 -4.2150402 0.97555995
2.6760001 -4.2213335 0.97133338
2.7219999 -4.2059999 0.97322232
2.7740002 -4.2056665 0.97233331
2.8282273 -4.2084093 0.97404546
2.8763683 -4.2112632 0.97352642
2.9205456 -4.2209091 0.96881819
2.7229447 -4.1960001 0.97738892
2.7740669 -4.1947336 0.9750666
2.8213334 -4.1956663 0.97733331
2.8543334 -4.1973333 0.972
2.905 -4.1960001 0.96499997
30.000999 -0.77100003 0.95300001
29.989 -0.71700001 0.95200002
29.996 -0.66299999 0.95200002
-18.113001 -6.9710002 1.024
-18.124001 -6.9390001 1.024
2.1334615 -4.3171539 1.0237693
2.9000001 -4.2210002 1.005
29.999001 -0.82300001 1.005
29.982 -0.76999998 1.0039999
29.976999 -0.71600002 1.0039999
-18.1175 -6.973 1.075
-18.091 -6.9980001 1.091
2.655 -4.2849998 1.053
30.004 -0.875 1.058
29.993 -0.82300001 1.057
29.98 -0.76999998 1.057
30.007 -0.92799997 1.11
29.99 -0.875 1.11
29.978001 -0.82200003 1.109
29.997999 -0.98000002 1.1619999
30.011999 -0.92799997 1.163
29.997999 -0.875 1.1619999
30.014 -1.033 1.216
30.011999 -0.98000002 1.215
30.062 -0.92900002 1.217
30.021 -1.033 1.268
30.003 -0.98000002 1.268
29.997 -1.084 1.3200001
30.030001 -1.033 1.321
-16.688 -7.1680002 1.372
-16.633499 -7.1789999 1.3840001
-16.561001 -7.1820002 1.395
30.004 -1.135 1.373
30.01 -1.085 1.373
-16.705999 -7.1760001 1.437
-16.658001 -7.1550002 1.401
-16.645 -7.184 1.433
-16.594999 -7.197 1.429
5.8000002 -4.3530002 1.437
5.8670001 -4.355 1.448
5.7406669 -4.3393335 1.426
5.7727146 -4.3417144 1.4238572
5.8250995 -4.3422999 1.4252001
29.969999 -1.186 1.424
29.99 -1.135 1.425
-16.610001 -7.1690001 1.461
-16.551001 -7.178 1.457
-16.511999 -7.1609998 1.485
5.7354164 -4.3755832 1.4740834
5.8860002 -4.3540001 1.464
5.9914999 -4.3515 1.474
5.7364292 -4.338572 1.4754287
5.7786665 -4.338778 1.4754444
5.8249998 -4.3400002 1.4764999
5.8702221 -4.3423333 1.4761112
5.9233336 -4.3443336 1.4746668
5.9705997 -4.3460002 1.4739999
29.968 -1.237 1.476
29.98 -1.187 1.477
5.7328458 -4.4269233 1.5221539
5.7344999 -4.3760834 1.5272501
5.9853334 -4.3526669 1.5243334
5.7366667 -4.3416667 1.5188334
5.7730002 -4.3343005 1.5221001
5.8248749 -4.3362498 1.52775
5.8766251 -4.3410001 1.5222501
5.9211435 -4.3411431 1.525143
5.9688001 -4.3443999 1.5242001
29.98 -1.291 1.529
29.957001 -1.237 1.528
-4.4225001 -5.7694998 1.572
-4.3714004 -5.7760005 1.5668
-4.3158569 -5.7798572 1.5827143
-4.3000002 -5.7649999 1.595
-4.427 -5.7335 1.567
-4.332571 -5.7272859 1.5721428
-4.2932501 -5.7242503 1.59375
-4.4115 -5.6719999 1.5669999
-4.3752499 -5.6867499 1.5650001
-4.323 -5.6703334 1.5683334
-4.2934284 -5.6729999 1.5868572
5.7257276 -4.4733644 1.5729091
5.7328005 -4.4308 1.5711001
5.7519999 -4.4439998 1.599
5.7263856 -4.3776922 1.5741539
5.9699998 -4.3509998 1.571
5.9247503 -4.3424997 1.5755
5.9709997 -4.343143 1.5778573
29.995001 -1.3430001 1.5829999
29.995001 -1.2920001 1.5829999
-7.7579999 -6.1939998 1.646
-4.291625 -5.8244996 1.624375
-4.2902222 -5.7744446 1.6261111
-4.2812858 -5.721715 1.624
5.7228751 -4.5132499 1.6264999
5.7245002 -4.473 1.6235
5.7331824 -4.4283638 1.6245455
29.988001 -1.395 1.635
29.976 -1.342 1.6339999
29.98 -1.291 1.6339999
-7.757 -6.3039999 1.6569999
-7.6989999 -6.302 1.6849999
-7.7685003 -6.2790003 1.6559999
-7.7083335 -6.278667 1.6656666
-7.6933336 -6.2743335 1.6693333
-7.7709999 -6.2375002 1.652
-7.6896667 -6.2231669 1.6753334
-4.2962503 -5.8709998 1.68325
-4.2908573 -5.8248577 1.6744286
-4.2891426 -5.783143 1.6720002
5.7240005 -4.5114288 1.6734287
5.72475 -4.4723334 1.6741667
29.957001 -1.4450001 1.686
29.990999 -1.395 1.688
29.983 -1.342 1.687
-7.7069998 -6.3373337 1.72
-7.6946669 -6.335 1.7293334
-7.704 -6.2610002 1.7260001
-7.6945 -6.2866669 1.7181667
-4.3026667 -5.882 1.7366667
-4.2945004 -5.8692498 1.716
-4.2943335 -5.8311667 1.7186668
5.7228332 -4.5093336 1.7225001
29.957001 -1.4960001 1.738
29.971001 -1.4450001 1.739
29.983 -1.395 1.74
-14.462999 -7.2694998 1.7775
-14.446 -7.277 1.791
-13.024 -7.0510001 1.77
-12.977 -7.0653334 1.775
-12.9335 -7.0755 1.775
-12.886499 -7.079 1.7835
-13.397 -7.013 1.7539999
-13.26 -7.0009999 1.766
-13.224001 -7.0213332 1.7720001
-13.175501 -7.0295 1.7720001
-13.13 -7.02 1.78
-13.074 -7.0293331 1.7833333
-13.0205 -7.0349998 1.7955
-7.70575 -6.3744998 1.7832499
-7.6989999 -6.3909998 1.766
-7.7090001 -6.3319998 1.7970001
-7.6963329 -6.3213329 1.767
-7.691 -6.2800002 1.7706668
-4.3299999 -5.8905001 1.762
29.983999 -1.548 1.793
29.99 -1.497 1.793
29.955 -1.444 1.791
-14.473 -7.2589998 1.821
-14.435 -7.2709999 1.818
-14.391 -7.2800002 1.814
-14.343 -7.2870002 1.809
-12.863 -7.0510001 1.8049999
-12.824667 -7.0699997 1.8110001
-12.77 -7.0735002 1.8225
-12.715 -7.0766668 1.8336667
-12.665 -7.086 1.837
-12.629 -7.0949998 1.834
-13.095 -7.0009999 1.801
-13.0285 -7.0094995 1.8210001
-12.974334 -7.014667 1.8326668
-12.919666 -7.0336666 1.8186667
-12.888 -7.0359998 1.8329999
-12.849 -7.0440001 1.829
-12.7725 -7.046 1.847
-7.7151995 -6.4276004 1.8304001
-7.7054996 -6.3855 1.816
-7.6900001 -6.3610001 1.816
-7.7049999 -6.3286667 1.8320001
-7.698 -6.3339996 1.8225
5.7940001 -4.6900001 1.831
5.8200717 -4.6797142 1.8245716
5.8559999 -4.6550002 1.8099999
5.796 -4.6420002 1.824
5.8189096 -4.6232724 1.8292727
5.8645 -4.6370001 1.809
5.8150001 -4.5893335 1.8333334
29.981001 -1.6 1.845
29.978001 -1.548 1.845
29.948 -1.495 1.8430001
-12.67 -7.0609999 1.862
-12.625 -7.0644999 1.87
-12.568 -7.0730004 1.8718001
-12.509666 -7.0756664 1.8873333
-12.473 -7.0929999 1.868
-12.433001 -7.0854998 1.888
-12.806999 -7.0209999 1.862
-12.7185 -7.0310001 1.8785
-12.688499 -7.0424995 1.8759999
-12.65 -7.0500002 1.885
5.7943006 -4.7265005 1.8741001
5.8055 -4.7150002 1.858
5.7976665 -4.6760001 1.8733333
5.8038001 -4.6705999 1.8712
5.7950001 -4.6322498 1.87375
5.806715 -4.6258574 1.8727144
29.976 -1.651 1.898
29.985001 -1.6 1.898
29.945 -1.546 1.895
-12.4755 -7.1094999 1.9454999
-12.416 -7.118 1.939
-12.358 -7.1149998 1.932
-12.321501 -7.1079998 1.902
-12.2805 -7.1129999 1.9225
-12.174334 -7.1223335 1.9276667
-12.608 -7.0549998 1.932
-12.58 -7.0679998 1.929
-12.544 -7.0770001 1.926
-12.479 -7.0819998 1.9184999
-12.414 -7.0890002 1.911
-12.378 -7.0970001 1.908
-12.279 -7.0839996 1.9455
-12.225 -7.0949998 1.9400001
-12.628 -7.0380001 1.9069999
-12.583 -7.0409999 1.902
5.7844615 -4.7714615 1.9263079
5.7898993 -4.7277999 1.9303999
5.8056669 -4.7153335 1.9203334
5.7946663 -4.676167 1.9208333
5.8049998 -4.6816001 1.9228001
29.945 -1.702 1.948
29.938999 -1.598 1.948
-12.685 -7.1279998 1.997
-12.632 -7.1269999 1.9910001
-12.588 -7.1300001 1.9859999
-12.535 -7.1145 1.9655
-12.485 -7.1300001 1.973
-12.16525 -7.1167502 1.97225
-12.125999 -7.1359997 1.969
-12.624 -7.0929999 1.962
-12.581 -7.098 1.957
-12.365499 -7.0755 1.9679999
-12.315 -7.0609999 1.974
-12.260668 -7.0683336 1.9756668
-12.224501 -7.0804996 1.977
-12.1745 -7.0799999 1.983
5.7826252 -4.8272505 1.9742501
5.802 -4.8309999 1.995
5.7844443 -4.7741113 1.9688889
5.8109999 -4.7540002 1.997
5.7902002 -4.723 1.9682
29.972 -1.651 1.95
-12.153 -7.223 2.0409999
-12.162001 -7.1785002 2.0325
-12.149 -7.1630001 2.0109999
-12.176 -7.1234999 2.0239999
-11.4705 -7.1324997 2.0345001
-12.189001 -7.0840006 2.0183334
5.7979999 -4.8790002 2.0020001
5.8215003 -4.8772502 2.0204999
5.8227997 -4.8270001 2.0180001
5.8271995 -4.7862 2.0146
9.1724997 -4.4373331 2.0256667
9.2040005 -4.4300003 2.0149999
9.2686005 -4.4290004 2.0208001
9.3264999 -4.4285002 2.0180001
9.3894997 -4.4385004 2.03
29.995001 -1.756 2.0050001
29.961 -1.702 2.0020001
29.933001 -1.648 2
-13.143 -7.355 2.0940001
-13.077 -7.3629999 2.0865002
-13.402 -7.3179998 2.096
-13.332 -7.3249998 2.0879998
-13.277 -7.3400002 2.082
-13.1905 -7.3369999 2.098
-12.178 -7.2090001 2.0680001
-12.221 -7.178 2.096
-12.1835 -7.1700001 2.066
-11.504 -7.1110001 2.073
-11.4305 -7.1075001 2.0630002
-11.371 -7.112 2.056
-11.327499 -7.112 2.062
-11.281334 -7.1200004 2.0766668
-11.232666 -7.1256666 2.0783334
-11.454 -7.0809999 2.0880001
-11.405 -7.0780001 2.0810001
-11.384 -7.092 2.0799999
-11.320999 -7.0900002 2.0873334
9.1707773 -4.4725556 2.0774443
9.1853333 -4.4305005 2.0763335
9.2360001 -4.4250002 2.085
9.2666006 -4.4278007 2.0688
9.3326674 -4.4316664 2.066
9.3889999 -4.4380002 2.0766666
9.4173336 -4.4309998 2.0813334
29.962999 -1.806 2.0550001
29.971001 -1.7539999 2.056
29.948 -1.702 2.0539999
-13.223 -7.3099999 2.1010001
-13.061 -7.309 2.1070001
-13.0205 -7.3310003 2.1040001
-12.436 -7.3330002 2.1359999
-11.224251 -7.1715002 2.1247499
-11.224334 -7.1206665 2.1243334
-11.374001 -7.0727501 2.1127498
-11.3075 -7.072 2.1275001
-11.276 -7.0929999 2.1129999
-11.233667 -7.080667 2.1220002
9.1692858 -4.5280004 2.1247144
9.1694002 -4.4758 2.1257999
9.1708336 -4.4365005 2.1298332
9.2247505 -4.4250002 2.12025
9.2763329 -4.4239998 2.1296668
9.328001 -4.429667 2.1210001
9.3894997 -4.4384999 2.1240001
9.4184999 -4.4315 2.1290002
29.969 -1.859 2.108
30.007 -1.809 2.1110001
29.969 -1.7539999 2.108
-12.478001 -7.3874998 2.184
-12.45 -7.4000001 2.194
-12.451 -7.342 2.1900001
-12.440001 -7.3163333 2.1693335
-12.434999 -7.2744999 2.1694999
-11.223666 -7.2213335 2.1726668
-11.223 -7.171 2.17225
-11.221001 -7.118 2.1633334
9.1723328 -4.5753336 2.1740003
9.1662493 -4.5267501 2.1767499
9.1700001 -4.4820004 2.1708333
9.3846664 -4.4363332 2.1700001
29.993999 -1.86 2.1630001
29.957001 -1.806 2.1600001
-12.4105 -7.4060001 2.2280002
-12.3715 -7.4119997 2.2234998
-12.067 -7.402 2.2449999
-12.49 -7.3800001 2.2235
-12.426001 -7.3760004 2.2319999
-12.275 -7.369 2.2449999
-12.207 -7.3720002 2.237
-12.093 -7.3889999 2.2479999
-12.443667 -7.3190002 2.23
-11.249 -7.256 2.243
-11.231667 -7.2263336 2.2216668
-11.2215 -7.184 2.2205
9.1905003 -4.6210003 2.2255001
9.2060003 -4.6290002 2.2290001
9.1721668 -4.5788336 2.224
9.1668577 -4.5238576 2.2277145
30.002001 -1.915 2.2160001
29.959 -1.858 2.2130001
-12.318 -7.3509998 2.25
-12.292 -7.3649998 2.299
-12.2365 -7.3605003 2.2779999
-12.18 -7.3653336 2.2663333
-12.122334 -7.3686666 2.2673335
-12.072 -7.3769999 2.2690001
-12.327002 -7.3373337 2.2666669
-12.266 -7.349 2.2679999
-11.298 -7.316 2.28
-11.2865 -7.2805004 2.2870002
-11.259 -7.2350001 2.2909999
-11.214 -7.2059999 2.2579999
-4.3696671 -6.4350004 2.2786665
-4.326375 -6.4324999 2.2753749
9.1849995 -4.618 2.2709999
9.1675005 -4.5796666 2.2730002
30.013 -1.969 2.27
29.993 -1.914 2.2690001
-12.1325 -7.3702502 2.3152499
-11.316501 -7.36975 2.3232498
-12.164 -7.3460002 2.3050001
-11.305 -7.3204999 2.3169999
-11.29 -7.2643332 2.3299999
-4.4130001 -6.4905 2.3315001
-4.3642001 -6.4574008 2.3194001
-4.3276672 -6.4659996 2.3358333
-4.2758002 -6.4700999 2.3271999
-4.3250003 -6.4496665 2.309
-4.2870002 -6.4499998 2.323
9.1827497 -4.6122499 2.3169999
29.968 -2.02 2.3199999
30.009001 -1.969 2.323
-11.315001 -7.4203334 2.3726668
-11.319 -7.3715 2.3724999
-11.303667 -7.329 2.3623333
-11.306 -7.2930002 2.3635001
-9.9069996 -7.2290001 2.3859999
-9.8970003 -7.2480001 2.3870001
-4.414 -6.5159998 2.375
-4.388 -6.5029998 2.3829999
-4.3060002 -6.5040002 2.3989999
-4.2682734 -6.5160913 2.3805456
-4.401 -6.4970002 2.3540001
-4.3660002 -6.4882503 2.3715
-4.3237143 -6.4875712 2.3762856
-4.276 -6.4833336 2.3586669
29.979 -2.073 2.3740001
29.976999 -2.02 2.3729999
-9.8675003 -7.2665 2.4064999
-9.8379993 -7.2709999 2.4355001
-9.9134998 -7.2075005 2.418
-9.8846664 -7.2220001 2.4113336
-9.8319998 -7.2270002 2.4294999
-9.468667 -7.2346668 2.441
-9.9785004 -7.1882496 2.4260001
-9.925333 -7.1893339 2.4286666
-9.868 -7.1875 2.4414999
-9.8310003 -7.1999998 2.437
-4.4134998 -6.5404997 2.4190001
-4.3705001 -6.5221672 2.4268334
-4.3330002 -6.5198574 2.4242857
-4.279778 -6.5297785 2.4257779
29.999001 -2.128 2.428
29.941 -2.0699999 2.4230001
29.962999 -2.0190001 2.425
-10.2715 -7.3315001 2.49
-9.8360004 -7.309 2.473
-9.809 -7.276 2.4760001
-9.7822008 -7.2221999 2.4714
-9.6079998 -7.2179999 2.4909999
-9.5550003 -7.2309999 2.4619999
-9.5146675 -7.2173338 2.4680002
-9.4540005 -7.2069998 2.464
-9.4307499 -7.2272501 2.4732499
-9.3748569 -7.2310004 2.4785717
-9.3360004 -7.2459998 2.471
-9.5229998 -7.1890006 2.4873333
-9.4779997 -7.198 2.4879999
-9.4274998 -7.1995001 2.4910002
-4.3829999 -6.5570002 2.493
-4.3185 -6.5605001 2.4905
-4.2770905 -6.5724545 2.4728181
-4.3751669 -6.5415001 2.4651668
-4.3304286 -6.5409999 2.4725716
-4.2969999 -6.54 2.4584999
12.572001 -4.4419999 2.4820001
30.032 -2.1830001 2.484
29.987 -2.1270001 2.48
29.982 -2.073 2.4790001
-10.302 -7.3270001 2.5050001
-10.267667 -7.3106666 2.5286667
-10.234 -7.3049998 2.5380001
-9.8540001 -7.349 2.503
-9.8199997 -7.3239999 2.517
-9.7790003 -7.2799997 2.516
-9.7489996 -7.2709999 2.543
-9.3657999 -7.2736001 2.5354002
-9.3380003 -7.2989998 2.5209999
-9.7530003 -7.2480001 2.5179999
-9.4499998 -7.204 2.506
-9.3737497 -7.2227497 2.52825
-9.375 -7.198 2.5139999
-4.2779999 -6.6251998 2.5278001
-4.4195004 -6.5929999 2.52425
-4.3722 -6.5741997 2.5276
-4.3275003 -6.5797501 2.5255001
-4.2818751 -6.5821247 2.514375
12.488667 -4.4780002 2.5253334
12.482 -4.4346671 2.5213335
12.523001 -4.4204998 2.5240002
12.559 -4.421 2.5179999
12.62 -4.4295001 2.5180001
12.562 -4.3969998 2.5409999
30.004999 -2.2349999 2.5350001
29.99 -2.1800001 2.533
29.959999 -2.125 2.5309999
-10.716 -7.454 2.5869999
-10.673 -7.4510002 2.5799999
-10.6285 -7.4614997 2.5855
-10.58 -7.4776669 2.5836668
-10.547 -7.473 2.562
-10.768667 -7.434 2.5933332
-10.666 -7.4190001 2.598
-10.528 -7.4050002 2.598
-9.3772497 -7.3235002 2.5795
-9.4020004 -7.27 2.5929999
-9.3826675 -7.2733335 2.5756669
-9.3899994 -7.2224998 2.563
-4.4749999 -6.658 2.5739999
-4.277 -6.6697998 2.5698001
-4.4300003 -6.6323333 2.5796666
-4.3844004 -6.6176004 2.5874002
-4.321125 -6.6108751 2.5761251
-4.2860003 -6.6284442 2.5753336
-4.3695002 -6.5880003 2.552
-4.3494997 -6.5944996 2.5580001
12.449 -4.5289998 2.553
12.478 -4.5275002 2.5704999
12.501 -4.5240002 2.5869999
12.48975 -4.4827499 2.57025
12.48625 -4.4320002 2.5657499
29.948999 -2.283 2.5829999
29.98 -2.233 2.586
29.999001 -2.181 2.5869999
-10.665 -7.4460001 2.6010001
-10.526 -7.4310002 2.5999999
-9.434 -7.322 2.6270001
-8.0809994 -7.2364998 2.6355
-8.0342503 -7.2270002 2.6352501
-7.9852505 -7.2272496 2.6364999
-7.947 -7.23 2.6400001
-4.2803335 -6.7156668 2.6166668
-4.4379997 -6.6606669 2.6300001
-4.355 -6.6539998 2.6440001
-4.3140001 -6.6535001 2.6360002
-4.2845001 -6.6743746 2.6253748
-4.4029999 -6.6259999 2.6140001
-4.375 -6.6337152 2.6265714
-4.3275714 -6.6325712 2.6154284
-4.2859998 -6.6479998 2.6300001
12.511 -4.5760002 2.6400001
12.485001 -4.5343332 2.6166668
12.501 -4.5229998 2.635
12.489 -4.4863334 2.6140001
12.5065 -4.4635 2.632
29.976999 -2.339 2.6389999
29.995001 -2.2869999 2.6400001
29.993999 -2.234 2.6400001
-9.0727501 -7.4145002 2.6742501
-9.1260004 -7.3920002 2.691
-9.0360003 -7.3979998 2.698
-8.1029997 -7.2189999 2.6670001
-8.0290003 -7.2030001 2.6500001
-7.9559999 -7.2129998 2.6589999
-7.9263334 -7.2116671 2.672667
-8.1009998 -7.1919999 2.6819999
-8.0530005 -7.1739998 2.6700001
-8.0283995 -7.1773996 2.6700001
-7.9768333 -7.1815004 2.6735001
-7.9365001 -7.1767502 2.6837502
-4.2915001 -6.7735004 2.6738334
-4.46 -6.7119999 2.6949999
-4.2867999 -6.7213998 2.6720002
-4.3251247 -6.6705008 2.67575
-4.2923331 -6.6876669 2.6754999
12.484 -4.6277499 2.6749997
12.4965 -4.5949998 2.6750002
12.526667 -4.5740004 2.6836667
12.4845 -4.5170002 2.6669998
12.505 -4.5500002 2.661
29.993 -2.3929999 2.694
29.982 -2.3399999 2.6919999
29.981001 -2.286 2.6919999
-9.7294998 -7.5380001 2.7305
-9.6313343 -7.5293341 2.7343335
-9.5959997 -7.5019999 2.747
-9.5300007 -7.5159998 2.737
-9.4706669 -7.5193338 2.7416668
-9.7165003 -7.474 2.7420001
-9.6630001 -7.4864998 2.734
-9.6190004 -7.4920001 2.7490001
-9.5579996 -7.4990001 2.7390001
-9.0710001 -7.401 2.704
-9.0120001 -7.4039998 2.7160001
-8.9619999 -7.4250002 2.7166667
-9.1540003 -7.388 2.717
-9.1136665 -7.3646674 2.7280002
-9.0723343 -7.3706675 2.7250001
-9.027667 -7.3826666 2.7293334
-8.9762001 -7.3905997 2.7326
-7.8860002 -7.302 2.72
-7.9580002 -7.2649999 2.707
-7.9316001 -7.2718005 2.7196
-7.8881998 -7.2779999 2.7246001
-7.8470001 -7.2649999 2.747
-7.9267502 -7.2312498 2.7254999
-7.875 -7.2399998 2.747
-4.3000002 -6.8520002 2.737
-4.3016672 -6.8203335 2.7330003
-4.2950001 -6.8179998 2.71
-4.2886004 -6.7722001 2.7242
-4.2905002 -6.7283335 2.7278335
12.4795 -4.664 2.7249999
12.48575 -4.6285 2.7235
12.493 -4.586 2.7256668
12.5 -4.572 2.71
12.498 -4.5469999 2.7079999
15.995 -4.2480001 2.744
29.962 -2.4449999 2.744
29.959999 -2.3900001 2.744
29.966 -2.3380001 2.744
-9.6230001 -7.5089998 2.7975001
-9.5780001 -7.513 2.79
-9.5205002 -7.5085001 2.7674999
-9.4793339 -7.5256667 2.7883334
-9.4243336 -7.5183334 2.77
-9.3777504 -7.5289998 2.7670002
-9.7236671 -7.4753337 2.7810001
-9.6672497 -7.4692502 2.7714999
-9.6400013 -7.4820004 2.7743335
-9.5760002 -7.4856663 2.7630002
-9.5249996 -7.4990001 2.756
-9.4904995 -7.4990001 2.783
-8.9852505 -7.4752493 2.77525
-8.9693336 -7.4223337 2.7746668
-9.0579996 -7.3629999 2.7609999
-9.0139999 -7.3675003 2.7535
-8.9716005 -7.3766007 2.7767999
-7.9169998 -7.2529998 2.757
-7.8779998 -7.2680001 2.753
-7.8269997 -7.2725 2.7735
-7.9227996 -7.2234001 2.7694001
-7.8683333 -7.2300005 2.7773333
-7.8330002 -7.2462502 2.7800002
-4.3050003 -6.8739996 2.7754998
-4.2995 -6.8660002 2.7719998
-4.2937503 -6.8234997 2.7744999
-4.2936668 -6.7766676 2.7765002
12.477 -4.6630001 2.7609999
12.476 -4.638 2.7590001
12.517 -4.6269999 2.766
15.948 -4.2059999 2.793
15.9695 -4.2414999 2.7835
16.026001 -4.2270002 2.7624998
16.09 -4.2140002 2.757
15.982 -4.1859999 2.7980001
16.038 -4.1999998 2.7780001
16.099001 -4.1869998 2.7880001
29.966999 -2.497 2.7980001
29.959999 -2.444 2.7969999
29.976999 -2.392 2.7980001
-9.5679998 -7.506 2.809
-9.5375004 -7.5089998 2.8264999
-9.4772501 -7.5155001 2.8217497
-9.4232502 -7.5194998 2.829
-9.382 -7.5262499 2.8169999
-9.0240002 -7.5469999 2.8469999
-8.9779997 -7.5079999 2.8110001
-9.5860004 -7.493 2.8215001
-9.5380001 -7.4916668 2.8313336
-9.4910002 -7.5 2.839
-8.9895 -7.4785004 2.8195
-8.9834995 -7.434 2.8325
-7.8345003 -7.2670002 2.8239999
-4.3169999 -6.9335003 2.8345001
-4.3068004 -6.8740005 2.8264
-4.2995 -6.8649998 2.8274999
-4.3024998 -6.8179998 2.829
-4.2926669 -6.8153334 2.8293333
15.960501 -4.224 2.826
16.045 -4.1729999 2.8080001
-8.8220005 -7.5536666 2.8610001
-9.4639997 -7.5050001 2.8570001
-9.4390001 -7.5120001 2.8529999
-9.0030003 -7.5029998 2.8800001
-8.9726667 -7.5174999 2.8765001
-8.9278011 -7.5300002 2.8656001
-8.8797998 -7.5372005 2.875
-8.8173332 -7.5410004 2.8869998
-8.7740002 -7.5479999 2.8759999
-9.0030003 -7.4770002 2.8970001
-8.9905005 -7.4794998 2.8682499
-4.323 -6.9700003 2.8785
-4.3126669 -6.9263334 2.8713336
-4.3054004 -6.8773994 2.881
15.965 -4.3690004 2.8723333
15.943 -4.2340002 2.8529999
30.02 -2.5020001 2.8559999
29.983999 -2.4460001 2.852
-8.9069996 -7.5549998 2.9130001
-8.7709999 -7.5587502 2.9202502
-8.7290001 -7.5710006 2.9176669
-8.6754999 -7.5687504 2.925
-8.6400003 -7.5650001 2.928
-9.0085001 -7.5209999 2.927
-8.9250002 -7.5169997 2.9275999
-8.8714008 -7.5302005 2.9242001
-8.8272495 -7.5402503 2.9282501
-8.8000002 -7.5440001 2.934
-8.7240009 -7.5450001 2.9405
-8.9359999 -7.5 2.9100001
-4.3319998 -7.0120001 2.9250002
-4.3169999 -6.9665999 2.9260004
-4.3119998 -6.92625 2.9272501
29.968 -2.5510001 2.904
30 -2.5 2.9070001
-8.7799997 -7.5535002 2.964
-8.7259998 -7.5599999 2.9649999
-8.6835003 -7.5625 2.9575
-8.8740005 -7.527 2.967
-8.7880001 -7.5335002 2.9625001
-8.7229996 -7.53125 2.97575
-8.6800003 -7.5469999 2.9749999
-4.3217998 -6.9852004 2.9746001
30.004999 -2.608 2.961
29.971001 -2.552 2.9579999
-6.7232504 -7.4152498 3.0117502
-6.6717143 -7.4142861 3.0192862
-6.7565002 -7.3870001 3.0314999
-6.7192497 -7.3847499 3.0377502
-6.6809998 -7.3860006 3.0383334
-6.632 -7.3930001 3.036
-4.343667 -7.0586672 3.0203338
-4.329 -7.0173335 3.0263333
29.986 -2.661 3.013
29.962 -2.605 3.01
-6.8639998 -7.4920001 3.0680001
-6.8130002 -7.4089999 3.0580001
-6.6221666 -7.4165001 3.0805001
-6.593667 -7.4276667 3.0553336
-6.8319998 -7.3779998 3.0739999
-6.77 -7.3624997 3.0622501
-6.7173996 -7.3671999 3.0706003
-6.6726255 -7.3726244 3.077625
-6.6402502 -7.3887501 3.0745001
-4.33675 -7.0687499 3.0822499
19.327 -4.0839996 3.0863338
19.377001 -4.0710001 3.0699999
19.344999 -4.0300002 3.099
19.438 -4.0489998 3.079
29.997999 -2.714 3.0680001
29.993 -2.661 3.0669999
29.988001 -2.6070001 3.066
-6.6297503 -7.4682498 3.1192501
-6.6590004 -7.4146667 3.1353335
-6.6385002 -7.4394999 3.1145
-6.645 -7.381 3.112
-4.3530002 -7.1300001 3.138
-4.3429999 -7.1129999 3.1470001
15.942667 -4.5743332 3.1170001
15.956 -4.598 3.141
16.023001 -4.5570002 3.1210001
16.1105 -4.552 3.1215
19.334 -4.1680002 3.1370001
19.330502 -4.1315002 3.1174998
19.316502 -4.0755 3.1315
19.427999 -4.013 3.1110001
29.952 -2.7639999 3.1170001
29.966999 -2.7119999 3.118
29.961 -2.658 3.1159999
-7.329 -7.6424999 3.1865001
-7.29 -7.6415 3.1884999
-6.6989999 -7.52 3.175
-6.7030001 -7.473 3.184
-5.8874998 -7.4549999 3.1684999
-6.6790004 -7.4273334 3.1613336
-5.8586669 -7.4439998 3.1683335
-5.8262 -7.4400001 3.1828001
-5.7741675 -7.4426665 3.1809998
-5.7340002 -7.4445 3.1884999
-4.684 -7.211 3.1960001
15.952 -4.6279998 3.1719999
15.939 -4.5784998 3.1665001
16.018499 -4.5560002 3.165
16.112 -4.552 3.197
16.103001 -4.5489998 3.165
19.347 -4.1700001 3.175
19.329 -4.131 3.171
19.326 -4.0774999 3.1684999
29.962 -2.8180001 3.171
29.965 -2.7650001 3.171
29.972 -2.7119999 3.171
-7.3179998 -7.658 3.2179999
-7.2740002 -7.6560001 3.2149999
-7.2258573 -7.660429 3.2192857
-7.1767497 -7.6702499 3.2212501
-7.3234997 -7.6370001 3.2245002
-7.2719998 -7.62325 3.2307501
-7.2420001 -7.631 3.2360001
-7.1729999 -7.612 3.237
-7.1469998 -7.612 3.2320001
-7.2674999 -7.5784998 3.24
-7.23 -7.5784998 3.2420001
-7.1894999 -7.5900002 3.2360001
-6.7509999 -7.579 3.2390001
-6.7389998 -7.5650001 3.2130001
-6.7434001 -7.5335999 3.23
-5.8863335 -7.4623332 3.2219999
-5.6589999 -7.4549999 3.2030001
-5.6244001 -7.4634004 3.2166002
-5.8579998 -7.4429998 3.2145
-5.823 -7.4256668 3.2296667
-5.7733331 -7.420444 3.2196667
-5.725143 -7.4252863 3.2244289
-5.6822495 -7.4347506 3.223
-5.6304288 -7.4370003 3.2312858
-5.5900002 -7.4450002 3.2409999
-5.7610002 -7.3985 3.237
-4.7490001 -7.257 3.2409999
12.467 -5.1100001 3.237
15.939334 -4.6750002 3.2220001
15.95 -4.658 3.2030001
15.946 -4.6259999 3.2309999
15.957 -4.6290002 3.2030001
15.938999 -4.5784998 3.227
15.9565 -4.5834999 3.2005
16.0215 -4.5565004 3.2259998
16.091999 -4.546 3.224
19.323999 -4.2010002 3.2079999
19.320499 -4.1645002 3.2235
19.334499 -4.1324997 3.2245002
30.027 -2.875 3.2320001
29.982 -2.8199999 3.2260001
29.992001 -2.7679999 3.227
-6.7680001 -7.6647501 3.2725
-6.7720003 -7.6289997 3.2645001
-6.6960001 -7.6490002 3.263
-7.191 -7.5863338 3.2619998
-6.7509999 -7.5780001 3.2579999
-6.7495003 -7.5640001 3.2735
-5.8530002 -7.4640002 3.283
-5.5839996 -7.4726667 3.2653337
-5.7860003 -7.4130001 3.2730002
-5.7255001 -7.4064999 3.2585001
-5.6735001 -7.4153337 3.2590003
-5.6251669 -7.4195004 3.2744999
-5.5759997 -7.4228754 3.2702498
-5.5413337 -7.4250007 3.2913337
-1.11 -6.9640002 3.299
-1.1773335 -6.9318328 3.2968338
-1.122 -6.927 3.2975001
-1.1723334 -6.8653336 3.2973335
-1.1289999 -6.8800006 3.2963333
-1.0964999 -6.882 3.2969999
12.462667 -5.1166668 3.2773337
15.945499 -4.7320004 3.2815001
15.955 -4.7189999 3.2980001
15.9165 -4.6785002 3.2735
15.911667 -4.6366668 3.264667
30.035 -2.9289999 3.286
29.981001 -2.8710001 3.28
29.971001 -2.8180001 3.2780001
-6.7820001 -7.6595712 3.3205714
-6.731143 -7.6632862 3.3192859
-6.6795716 -7.6771436 3.3254287
-6.6232004 -7.6802001 3.3254001
-6.5811667 -7.6851668 3.3323333
-6.79 -7.6220002 3.336
-6.3779998 -7.6300001 3.346
-5.5906672 -7.5726671 3.3316667
-5.5685 -7.5110002 3.3280001
-5.54 -7.4590001 3.3069999
-5.5192003 -7.4202003 3.3166001
-1.154 -6.9330001 3.303
-1.1305001 -6.9194999 3.3025
-1.092 -6.9294996 3.3039999
-1.1665 -6.895 3.3010001
-1.1193334 -6.8696666 3.3006668
-1.0853333 -6.8619995 3.304667
2.1753335 -6.5783339 3.345
2.2251251 -6.5766249 3.3461249
2.2610002 -6.5686674 3.3486667
2.1783335 -6.5306664 3.3431668
2.2284999 -6.5297499 3.3457499
2.2609999 -6.5120001 3.3425002
2.1887498 -6.4862499 3.3415
2.2301431 -6.4727149 3.3408573
2.2709999 -6.4679999 3.346
12.457 -5.1570001 3.3380001
12.4655 -5.1219997 3.3242502
15.937 -4.7140002 3.3239999
15.957 -4.75 3.3299999
15.884 -4.6689997 3.3264999
29.974001 -2.9760001 3.3329999
30.000999 -2.9260001 3.336
29.975 -2.8699999 3.3329999
-6.506 -7.7010002 3.3529999
-6.7690001 -7.652 3.358
-6.7319999 -7.6643333 3.3530002
-6.6789999 -7.6704998 3.3625
-6.6335001 -7.6730003 3.3534999
-6.574667 -7.6730003 3.3603334
-6.5349998 -7.6945 3.3575001
-6.4640002 -7.6783333 3.3573337
-6.4320002 -7.6950002 3.355
-6.3706665 -7.6756668 3.3556666
-6.3256664 -7.6576667 3.3673334
-6.2737145 -7.6702862 3.3639998
-6.2268744 -7.6660004 3.378125
-6.1753745 -7.6774998 3.369875
-6.7915001 -7.6374998 3.3594999
-6.717 -7.6199999 3.359
-6.6830001 -7.6260004 3.3593335
-6.6079998 -7.6040001 3.3499999
-6.5813994 -7.6208 3.3604
-6.5213337 -7.6151667 3.3699999
-6.4738569 -7.6242857 3.3705719
-6.4258747 -7.6297498 3.3729999
-6.3783998 -7.6362 3.3784001
-6.3214002 -7.6437998 3.3795998
-6.276 -7.6430001 3.385
-5.6009998 -7.6240001 3.3859999
-6.4889998 -7.5999999 3.382
-5.5945001 -7.5875001 3.3645
-5.5549998 -7.5339999 3.368
-5.5320001 -7.5300002 3.3989999
-5.5100002 -7.474 3.3599999
-4.539 -7.4949999 3.3959999
-1.0930001 -7.0149999 3.382
-1.09 -6.994 3.3570001
2.1628003 -6.5774002 3.3784001
2.1669998 -6.5312004 3.3752
2.227 -6.507 3.3499999
2.2909999 -6.5409999 3.3610001
2.1726251 -6.4765 3.3713748
2.2870002 -6.4779997 3.3534999
2.3176668 -6.4726667 3.3729999
12.466 -5.1599998 3.365
15.935 -4.7129998 3.3840001
15.956333 -4.7399998 3.3696668
29.985001 -3.027 3.3889999
30.014999 -2.98 3.391
30 -2.925 3.3889999
-6.0683336 -7.7110004 3.4156666
-6.046 -7.71 3.4300001
-6.3979998 -7.6539998 3.414
-6.3240004 -7.6599998 3.4194999
-6.2765999 -7.6591997 3.4277999
-6.2277999 -7.6694002 3.4236
-6.1718755 -7.6799998 3.4274998
-6.1200004 -7.6855721 3.4198575
-6.0763335 -7.6936665 3.4320002
-6.0359998 -7.698 3.4430001
-6.3768001 -7.6400003 3.4252002
-6.324667 -7.6430006 3.4276667
-6.2789998 -7.6459999 3.425
-6.2364998 -7.6475 3.4254999
-5.5966673 -7.6373329 3.4260001
-5.5760002 -7.5910001 3.408
-4.5165 -7.4885001 3.4335001
-1.099 -7.052 3.4300001
-1.0955 -7.0325003 3.421
2.1562002 -6.6184001 3.4266
2.1602499 -6.5797501 3.418
2.165143 -6.5251431 3.4205716
5.58675 -6.1196246 3.4229999
5.6130004 -6.0769997 3.4070003
5.6610003 -6.0863338 3.4060001
5.7096667 -6.0740004 3.4160001
9.0738335 -5.7299995 3.4346671
9.1346664 -5.7243338 3.4193332
9.1960001 -5.7294998 3.4159999
9.0867996 -5.6764002 3.4312
9.1420002 -5.6849999 3.415
9.1719999 -5.6700001 3.4200001
9.2126665 -5.6836662 3.4130001
9.1166668 -5.6240005 3.418
9.1830006 -5.6216669 3.4153335
9.2259998 -5.6256666 3.4070001
12.4635 -5.3269997 3.431
12.461333 -5.2700005 3.4333332
12.596 -5.2909999 3.4330001
12.614 -5.2729998 3.4360001
12.474334 -5.2229996 3.4319999
12.533 -5.2140002 3.411
15.954 -4.75 3.4200001
29.995001 -3.079 3.4430001
29.981001 -3.026 3.441
30 -2.9779999 3.4430001
-6.0634999 -7.7049999 3.461
-6.0320001 -7.7065001 3.4645
-5.6105003 -7.7080002 3.487
-6.2686667 -7.6599998 3.4653335
-6.2255998 -7.6666002 3.4688003
-6.1781669 -7.6706672 3.4703336
-6.1281672 -7.6809998 3.4749999
-6.0821252 -7.6872497 3.4744999
-6.0176668 -7.684 3.4803333
-5.987 -7.6760001 3.484
-5.9349999 -7.651 3.4849999
-5.6129999 -7.697 3.4660001
-6.171 -7.6490002 3.4790001
-5.9724998 -7.6307497 3.4825001
-5.5949998 -7.645 3.4649999
-4.5135002 -7.5275002 3.4727502
-1.0945001 -7.0255003 3.4555001
-1.0875 -6.9820004 3.4650002
2.1518002 -6.6755996 3.4737999
2.1534998 -6.6255002 3.4762499
2.1608748 -6.5799999 3.4671254
9.067667 -5.7814999 3.4728334
9.0634995 -5.7231669 3.4720001
12.457335 -5.3713336 3.4763334
12.45625 -5.32375 3.4667501
12.456599 -5.2748003 3.4798
15.947 -4.9310002 3.49
15.957 -4.9189997 3.4759998
15.943 -4.8990002 3.457
16.138 -4.835 3.461
30.014 -3.0810001 3.4990001
30.01 -3.029 3.4979999
-5.5804281 -7.7092867 3.521286
-5.5300002 -7.7145004 3.5220001
-5.4771109 -7.7286668 3.5231111
-5.6079998 -7.691 3.5
-5.5880003 -7.6813335 3.5250001
-4.5194998 -7.5682502 3.51875
-4.5194998 -7.5374999 3.513
-3.9625001 -7.5035 3.5469999
-3.9197004 -7.5306001 3.5291002
-3.870286 -7.5351429 3.5355716
2.1460001 -6.7213335 3.5180001
2.1533337 -6.7163334 3.5273337
2.1489999 -6.651 3.5409999
2.1526666 -6.6756668 3.5123336
2.1489999 -6.6500001 3.5250001
2.1560001 -6.6230001 3.5282502
9.0640001 -5.82375 3.53125
9.0745001 -5.7860003 3.5274999
12.455 -5.4130001 3.5265
12.447 -5.3579998 3.506
12.456 -5.3790007 3.5270002
12.444 -5.3049998 3.5250001
12.459333 -5.329 3.5143332
15.931499 -4.9720001 3.5355
15.961 -4.9660001 3.526
15.936501 -4.9274998 3.5335
15.938251 -4.882 3.53075
30.027 -3.1359999 3.5009999
-5.3660002 -7.7509999 3.5599999
-5.3190002 -7.7596664 3.5716667
-5.5640001 -7.7077498 3.5665002
-5.5268574 -7.7191434 3.5694287
-5.4769998 -7.7252216 3.5744448
-5.429625 -7.7357497 3.5740001
-5.3796668 -7.7410002 3.5756669
-5.3336005 -7.7442002 3.5737998
-5.5705004 -7.6955004 3.5785
-4.5560002 -7.6440001 3.5929999
-4.5359998 -7.6100001 3.559
-3.9849999 -7.5619998 3.5550001
-4.5149999 -7.5450001 3.55
-4.4970002 -7.5149999 3.553
-4.014667 -7.5233335 3.5813332
-3.971 -7.5040002 3.566
-3.9264286 -7.5147147 3.5661433
-3.8727145 -7.5168576 3.5638573
-3.8230002 -7.5177784 3.5731113
-3.7880001 -7.5346003 3.5732002
-3.2149999 -7.507 3.598
-3.9765716 -7.4828582 3.5815718
-3.9356 -7.4879999 3.5774002
-3.8813334 -7.4928336 3.5871668
-3.842 -7.4960003 3.5895
-3.602 -7.4559999 3.5969999
-3.576 -7.4679999 3.5969999
-3.52 -7.4520001 3.5969999
-3.473 -7.454 3.589
-3.3664999 -7.4809999 3.598
-3.2780001 -7.473 3.596
-3.145 -7.4889998 3.596
-3.6286666 -7.4443336 3.5976667
-3.5480001 -7.4439998 3.599
2.154 -6.7870002 3.576
2.1530001 -6.7030001 3.5510001
2.1489999 -6.6900001 3.5599999
2.155 -6.6700001 3.5669999
9.0439997 -5.8660002 3.5639999
9.0611668 -5.8773336 3.571167
9.0674992 -5.8262501 3.5742502
9.0668001 -5.7737999 3.5625999
12.4635 -5.4685001 3.5844998
12.4445 -5.4084997 3.5735002
12.456 -5.4394999 3.5799999
12.4455 -5.3705001 3.5574999
12.4515 -5.3730001 3.5844998
12.453 -5.3225002 3.5539999
15.924667 -4.9750004 3.5696666
15.917 -4.921 3.575
19.233999 -4.6100001 3.599
26.167999 -3.665 3.579
26.264999 -3.632 3.592
29.999001 -3.1849999 3.552
30.018999 -3.135 3.553
30.007 -3.0799999 3.552
-5.289 -7.7529998 3.6010001
-5.218667 -7.7663336 3.6086669
-5.1659999 -7.76825 3.6069999
-5.5190001 -7.7087498 3.6042502
-5.4759998 -7.7049999 3.6073337
-5.4400001 -7.7255001 3.6059999
-5.3845 -7.7331667 3.6088333
-5.3162503 -7.7360001 3.6057501
-5.2736669 -7.7309999 3.6093335
-5.21875 -7.7154999 3.6110001
-5.1795998 -7.7143998 3.6168001
-5.1399999 -7.7069998 3.6099999
-5.5510001 -7.697 3.6029999
-5.3234997 -7.6739998 3.6205001
-5.2750001 -7.6795001 3.6281247
-5.2319999 -7.6846666 3.6225002
-5.1880002 -7.6920004 3.6276665
-4.5879998 -7.6989999 3.6370001
-3.8110001 -7.6139998 3.6459999
-3.8196666 -7.5653334 3.6353335
-3.7939999 -7.579 3.612
-3.7160001 -7.5549998 3.6400001
-4.0440001 -7.5149999 3.602
-3.8281667 -7.5218334 3.6171665
-3.569 -7.5050001 3.6100001
-3.546 -7.5079999 3.6070001
-3.4584999 -7.5085001 3.608
-3.448 -7.5370002 3.618
-3.3320003 -7.5260005 3.6093335
-3.2283332 -7.5149994 3.6040001
-3.9256666 -7.4820004 3.6094999
-3.8464999 -7.4895 3.6145
-3.7154999 -7.4724998 3.608
-3.5833335 -7.4613333 3.6070001
-3.527 -7.4665003 3.6040001
-3.4792001 -7.4682007 3.6064
-3.4260001 -7.4647145 3.6094289
-3.3744287 -7.470715 3.6145713
-3.324909 -7.4688187 3.6208186
-3.2760835 -7.4758329 3.6218336
-3.2289166 -7.4742503 3.6255002
-3.1755388 -7.4746923 3.6226151
-3.1261818 -7.4781823 3.6280911
-3.075778 -7.482667 3.6301112
-3.027375 -7.4879999 3.6322501
-2.9793999 -7.4970002 3.6252
-2.9282861 -7.4925714 3.6355717
-2.8816001 -7.4921999 3.6372001
-3.4198332 -7.441833 3.6343334
-3.37375 -7.4394999 3.6356251
-3.3336666 -7.4476671 3.635
-3.296 -7.4450002 3.638
-3.2219999 -7.4499998 3.6440001
-3.1585 -7.447 3.6399999
9.0809994 -5.9239998 3.6059999
9.132 -5.8559999 3.6289999
9.1099997 -5.8200002 3.6159999
12.531 -5.3940001 3.631
15.9165 -5.0285001 3.612
15.941 -4.9744997 3.6135001
15.939 -4.928 3.6099999
19.134001 -4.6209998 3.6170001
19.224001 -4.6069999 3.632
26.176001 -3.7119999 3.628
26.188 -3.668 3.6289999
26.188 -3.6210001 3.628
29.986 -3.237 3.6040001
29.972 -3.1830001 3.602
29.973 -3.1300001 3.6010001
-5.2210002 -7.711 3.6659999
-4.5729003 -7.7156997 3.6759
-4.5620003 -7.6855001 3.6900001
-3.8380001 -7.6350002 3.677
-3.829 -7.5840001 3.6559999
-2.9219999 -7.5040002 3.6659999
-2.8264999 -7.50775 3.6605
-2.7590001 -7.5100002 3.6589999
-3.2620001 -7.4555001 3.6535001
-3.2246666 -7.4586668 3.6656666
-3.1855001 -7.4565001 3.6570001
-3.132 -7.45825 3.6570001
-3.077143 -7.4630003 3.6628571
-3.0219169 -7.4659996 3.6679997
-2.9752309 -7.4708467 3.6697695
-2.9237273 -7.4703641 3.6733639
-2.8748465 -7.474 3.6726158
-2.8266366 -7.4780912 3.6822727
-2.7718332 -7.4829998 3.6749167
-2.7264001 -7.4846001 3.6767998
-2.6728752 -7.4873748 3.6799998
-2.6228571 -7.4908576 3.6900001
-2.5746667 -7.4933333 3.6903334
-2.5244999 -7.4945002 3.6919999
-2.4654999 -7.4924998 3.691
-3.0777781 -7.442667 3.6835551
-3.0323334 -7.4386668 3.6906669
-2.9635 -7.4375 3.6949999
-2.9289999 -7.4460001 3.6929998
-2.8099999 -7.4460001 3.6900001
16.035999 -5.0510001 3.6689999
16.0375 -4.974 3.664
19.455 -4.6269999 3.675
19.641001 -4.6339998 3.6719999
19.723999 -4.6160002 3.6675
26.198 -3.7609999 3.6789999
26.195999 -3.714 3.678
26.198999 -3.6689999 3.678
29.959999 -3.234 3.655
29.959999 -3.181 3.654
-4.5739999 -7.783 3.7364998
-4.5290003 -7.7530003 3.7350001
-4.4652505 -7.7674999 3.7315001
-4.423667 -7.7779999 3.7280002
-4.3727999 -7.7554002 3.7290001
-4.3236246 -7.7618747 3.7298746
-4.2815714 -7.7678576 3.7282858
-4.5574002 -7.7202005 3.7328
-4.5279999 -7.7403336 3.7423334
-4.48525 -7.7395 3.7344999
-4.4172001 -7.7398005 3.7360001
-4.336 -7.744 3.737
-4.5489998 -7.664 3.707
-2.5125 -7.5044999 3.7030001
-2.4224 -7.5071998 3.7178001
-2.3718333 -7.5091667 3.7123334
-2.937 -7.4679999 3.704
-2.8726668 -7.4543333 3.7043333
-2.8243337 -7.4569998 3.7090001
-2.76775 -7.4571247 3.7197499
-2.7214444 -7.4650006 3.7142224
-2.6655555 -7.4701114 3.718667
-2.6241002 -7.4727998 3.7210999
-2.573909 -7.4753642 3.7176366
-2.5256002 -7.4861002 3.7271001
-2.476182 -7.4871817 3.721909
-2.4254289 -7.4930005 3.723429
-2.3810003 -7.4923334 3.723
-2.2720001 -7.5 3.717
-2.78775 -7.4442496 3.7194998
-2.7205 -7.4449997 3.717
-2.684 -7.4455004 3.72
18.261 -4.7140002 3.704
18.495001 -4.7399998 3.7149999
18.441999 -4.6919999 3.7030001
19.424999 -4.619 3.7049999
19.610001 -4.6259999 3.7390001
19.676001 -4.6420002 3.7149999
19.733 -4.618 3.724
19.983 -4.6399999 3.733
26.191 -3.76 3.7249999
