# .PCD v0.7 - Point Cloud Data file format
VERSION 0.7
FIELDS x y z
SIZE 4 4 4
TYPE F F F
COUNT 1 1 1
WIDTH 1772
HEIGHT 1
VIEWPOINT 0 0 0 1 0 0 0
POINTS 1772
DATA ascii
-6.9300003 11.0145 3.4755001
-6.8746672 11.033667 3.4843335
-5.8569999 11.025001 3.4783335
-5.605 11.04 3.4809999
-5.5185003 11.035 3.4920001
-5.3737998 11.022201 3.48
-5.323 11.022001 3.4796667
-9.0783329 11.084333 3.4683332
-8.927 11.0745 3.4695001
-8.8900003 11.087 3.4660001
-8.0253334 11.077333 3.4630001
-7.9134998 11.064 3.4685001
-7.875 11.071 3.4649999
-7.8330002 11.093 3.4630001
-7.777 11.055 3.4719999
-7.7299995 11.069334 3.4680002
-7.6754999 11.0955 3.4654999
-7.6069999 11.058 3.4719999
-7.5809999 11.063 3.47
-6.941 11.075001 3.4664998
-6.8579998 11.093 3.4960001
-6.395 11.07 3.4979999
-5.8449998 11.079 3.4749999
-5.7585001 11.080999 3.4875002
-5.6326671 11.062667 3.4746666
-5.494 11.06 3.4949999
-9.1189995 11.113501 3.4534998
-9.0324993 11.125999 3.4690001
-8.9989996 11.145 3.467
-8.8769999 11.11 3.4679999
-8.8365002 11.118999 3.464
-8.7884998 11.139 3.4605
-8.0010004 11.124 3.4690001
-7.9695001 11.142 3.4679999
-7.9299998 11.149 3.464
-7.8720002 11.108 3.4719999
-7.823 11.12 3.467
-7.7814999 11.1225 3.4615002
-7.6399999 11.128 3.4675002
-6.96 11.128 3.493
-6.934 11.129 3.4660001
-6.8429999 11.113 3.4979999
-5.7870002 11.113 3.4760001
-5.3109999 11.13 3.4784999
-9.1090002 11.181 3.4645
-8.9705 11.1675 3.4675
-8.927 11.191999 3.4654999
-8.7600002 11.163 3.461
-8.0219994 11.1745 3.457
-7.9169998 11.172 3.4660001
-7.8835001 11.185 3.464
-7.849 11.198 3.4619999
-7.7659998 11.163 3.4679999
-7.7270002 11.17 3.4635
-7.698 11.191 3.464
-7.6139998 11.152 3.4690001
-7.5929999 11.164 3.4679999
-6.9245 11.179501 3.4635
-6.3780003 11.196501 3.4660001
-9.0799999 11.2245 3.4679999
-9.0459995 11.241 3.4660001
-8.8760004 11.228999 3.4646668
-8.0030003 11.208 3.461
-7.987 11.229 3.4630001
-7.8330002 11.218 3.464
-7.7030001 11.241 3.4749999
-6.4195004 11.202499 3.4724998
-6.3825002 11.2045 3.4685001
-9.099 11.268 3.4519999
-9.0235004 11.2735 3.4690001
-8.8280001 11.269 3.4650002
-8.7910004 11.283 3.4619999
-7.9674997 11.2635 3.467
-7.8379998 11.266 3.474
-7.7360001 11.289 3.4649999
-7.6810002 11.25 3.474
-6.9619999 11.261 3.4990001
-6.9245 11.267 3.4705
-9.0930004 11.32 3.461
-8.9820004 11.3015 3.4675
-8.9259996 11.313 3.4614999
-8.8970003 11.337 3.4619999
-8.7749996 11.304 3.464
-8.7449999 11.305 3.46
-8.0319996 11.333 3.4649999
-7.8400002 11.312 3.484
-7.7150002 11.343 3.4979999
-7.6869998 11.345 3.4949999
-6.9064999 11.327499 3.457
-9.073 11.355 3.4649999
-9.0415001 11.375999 3.464
-8.8809996 11.358 3.4630001
-8.8455 11.372499 3.461
-7.9840002 11.368999 3.4909999
-7.9489999 11.384 3.4890001
-7.8305001 11.362 3.4935
-7.651 11.377 3.4960001
-6.9419999 11.362 3.494
-4.7140002 11.379 3.4860001
-9.0249996 11.418 3.4690001
-8.9960003 11.423 3.4660001
-8.8479996 11.437 3.474
-8.0650005 11.443001 3.4795001
-7.934 11.426001 3.4955001
-7.7849998 11.402 3.4949999
-9.0860004 11.453 3.4579999
-8.9899998 11.476 3.4744999
-8.8330002 11.461 3.4760001
-8.059 11.455 3.494
-8.0450001 11.477 3.4960001
-7.9109998 11.458 3.4990001
-9.0979996 11.5305 3.474
-8.9750004 11.519 3.4809999
-8.9390001 11.5345 3.4784999
-8.8195 11.503 3.4819999
-9.0716667 11.574 3.4693334
-9.0340004 11.595 3.477
-8.9110003 11.562 3.48
-8.8839998 11.567 3.477
-9.0909996 11.626 3.464
-9.0265007 11.627001 3.4679999
-8.9885006 11.641 3.4650002
-8.8719997 11.6145 3.484
-9.9764996 11.693001 3.4660001
-9.0799999 11.653 3.467
-9.0159998 11.654 3.4579999
-8.9823341 11.681 3.4763334
-8.9775 11.731 3.4805
-8.066 11.726 3.497
-8.0394993 11.7095 3.4775
-7.9730005 11.721667 3.4836669
-10.062 11.772 3.464
-10.038 11.786 3.4630001
-8.9610004 11.751 3.4679999
-8.0550003 11.755 3.4760001
-8.0194998 11.768 3.4734998
-7.9710002 11.793001 3.4803333
-10.016 11.803 3.4630001
-8.9779997 11.817 3.483
-7.9590001 11.834 3.4779999
-8.974 11.856 3.49
-8.9469995 11.864 3.487
-8.0299997 11.852 3.4649999
-7.9770002 11.882999 3.4645
-7.9499998 11.866 3.484
-8.9879999 11.918 3.4760001
-10.145 11.997 3.457
-10.1395 12.033501 3.4765
-10.079 12.025499 3.4809999
-10.043 12.046 3.4790001
-10.01 12.07 3.4784999
-10.162 12.103 3.477
-10.147 12.127 3.4790001
-9.9899998 12.111 3.483
-10.115667 12.161334 3.4710002
-10.067 12.1825 3.4775
-10.022 12.193 3.473
-10.102 12.203 3.457
-10.088 12.23 3.4590001
-4.6245003 12.327 3.4794998
-4.6220002 12.353 3.461
-9.0109997 12.437 3.4920001
-4.6240001 12.425 3.4790001
-8.9980001 12.465 3.4949999
-4.6224999 12.487 3.4819999
-4.6129999 12.5285 3.4665
-4.6075001 12.5835 3.4795001
-4.605 12.644 3.4809999
-4.5939999 12.683 3.4649999
-4.5929999 12.716499 3.473
-4.5960002 12.76 3.484
-2.4159999 12.79 3.4890001
-4.5895 12.8125 3.483
-4.5869999 12.875 3.4724998
-2.4100001 12.88 3.4879999
-4.5780001 12.922 3.47
-4.5745001 12.9845 3.4724998
-2.4064999 12.986 3.4784999
-4.5640001 13.027 3.4690001
-4.5599999 13.089 3.457
-2.4025002 13.091 3.4805
-4.5689998 13.113 3.4890001
-2.388 13.144 3.4809999
-4.559 13.16 3.474
-4.5500002 13.21 3.4590001
-4.566 13.256 3.497
-4.546 13.272 3.473
-4.5310001 13.305 3.454
-4.5479999 13.355 3.493
-4.5419998 13.414 3.48
-4.5289998 13.453 3.4619999
-4.5349998 13.548 3.4849999
-4.5149999 13.567 3.461
-1.2359999 13.591 3.48
-4.5110002 13.636 3.45
-5.6279998 13.652 3.493
-4.5170002 13.653 3.4809999
-4.5079999 13.704 3.4649999
-1.224 13.727 3.4890001
-4.5019999 13.766 3.4519999
-4.5139999 13.804 3.4890001
-1.2085 13.8275 3.4755001
-4.5040002 13.855 3.473
-4.4889998 13.89 3.4530001
-8.8649998 13.954 3.457
-8.8220005 13.9665 3.454
-4.4949999 13.994 3.4760001
-1.196 13.966 3.4960001
-8.7779999 14.032 3.461
-4.4829998 14.041 3.4590001
-1.181 14.08 3.4719999
-8.757 14.22 3.461
-4.4850001 14.219 3.4719999
-3.3134999 14.237499 3.471
-3.2835 14.224 3.4660001
-3.27 14.2805 3.4784999
-1.1720001 14.274 3.493
-8.783 14.319 3.451
-3.2590001 14.347 3.48
-4.4610004 14.374334 3.4680002
-4.4375 14.372 3.4885001
-3.2609999 14.355 3.4549999
-1.5196667 14.384001 3.4836669
-1.472 14.37625 3.48475
-1.4349999 14.384 3.4719999
-1.156 14.379 3.4649999
-4.4170003 14.410334 3.4636667
-3.2539999 14.439 3.474
-5.3660002 14.495 3.4860001
-5.3190002 14.4865 3.48
-5.2779999 14.492 3.4779999
-4.3990002 14.472 3.4805
-3.2227499 14.478251 3.4672501
-3.1739998 14.474334 3.4596667
-5.6059999 14.523 3.4820001
-5.5623336 14.532667 3.4713333
-5.526 14.538 3.4645
-5.4060001 14.523 3.4660001
-5.3844995 14.5065 3.4755001
-5.3280001 14.5105 3.4580002
-5.2716665 14.528 3.4666667
-4.3900003 14.5345 3.4654999
-5.5080004 14.5655 3.4689999
-5.4819999 14.5725 3.4685001
-5.2519999 14.5805 3.4805
-4.3655005 14.5955 3.4914999
-4.3200002 14.581 3.4849999
-4.2789998 14.5855 3.4835
-4.2293334 14.589001 3.4720001
-4.1665001 14.577 3.4744999
-4.1240001 14.572 3.4850001
-4.0856667 14.565666 3.4759998
-5.474 14.627501 3.4790001
-4.3710003 14.6125 3.4675002
-4.329 14.61 3.464
-4.2839999 14.603001 3.46
-4.2140002 14.603 3.4549999
-4.1750002 14.6085 3.454
-4.1274996 14.632 3.4565001
-4.0869999 14.639 3.4549999
-6.5810003 14.680334 3.4710002
-6.5235 14.677999 3.4755001
-5.2344999 14.673 3.4775
-5.178 14.694 3.4849999
-5.1275001 14.6755 3.477
-5.0699997 14.6775 3.4734998
-5.02 14.684666 3.4809999
-4.9699998 14.678 3.4660001
-4.3759999 14.676 3.454
-4.3460002 14.67 3.45
-6.5170002 14.7 3.45
-6.4924998 14.711 3.4645
-5.2270002 14.7125 3.464
-5.1774998 14.736 3.4650002
-4.9920001 14.744 3.4530001
-4.9359999 14.747 3.45
-6.4875002 14.769501 3.4759998
-5.2244997 14.786 3.4505
-5.125 14.7535 3.4650002
-5.0695 14.759 3.4625001
-5.0240002 14.754 3.4579999
-4.9710002 14.766 3.457
-6.224 14.949 3.474
-6.3742495 14.97125 3.4765
-6.3249998 14.966 3.471
-6.2729998 14.954 3.4645
-7.5110002 15.052 3.4560001
-25.191 -3.477 3.5350001
-25.214001 -3.4360001 3.5380001
-25.297001 -3.3570001 3.5469999
-24.596001 -3.3510001 3.539
-24.593 -3.2639999 3.5369999
-26.229 -2.596 3.523
-26.191 -2.546 3.5179999
-24.441 -2.3759999 3.5450001
-24.441999 -2.3329999 3.5439999
-24.523001 -1.864 3.506
-24.375999 -1.875 3.529
-24.372 -1.811 3.5280001
-24.517 -1.779 3.5050001
-24.377001 -1.768 3.5280001
-24.402 -1.728 3.5309999
-24.351 -1.682 3.5239999
-22.055 -1.677 3.5480001
-22.025999 -1.637 3.543
-22.017 -1.5785 3.5405002
-21.992001 -1.2285 3.533
-21.982 -1.17 3.5309999
-24.186001 -0.86299998 3.5369999
-24.186001 -0.82200003 3.536
-24.179001 -0.77999997 3.5350001
-25.700001 -0.60399997 3.5280001
-21.790001 -0.62699997 3.536
-21.903999 -0.55299997 3.5150001
-21.835499 -0.5715 3.543
-21.92 -0.51499999 3.517
-21.841 -0.51300001 3.5439999
-22.603001 -0.45100001 3.5050001
-22.375999 -0.486 3.51
-21.905001 -0.47600001 3.5150001
-21.823 -0.47400001 3.54
-20.660999 -0.48500001 3.5369999
-21.899 -0.43700001 3.513
-21.827 -0.435 3.5409999
-20.6735 -0.4305 3.539
-22.886 -0.37549999 3.5285001
-21.923 -0.36000001 3.517
-21.896999 -0.398 3.513
-21.8225 -0.3775 3.54
-20.669001 -0.37599999 3.5380001
-23.427 -0.30199999 3.507
-23.146 -0.33899999 3.506
-22.902 -0.336 3.51
-22.858 -0.33500001 3.5450001
-21.889 -0.32100001 3.5120001
-21.811001 -0.31999999 3.5380001
-20.655001 -0.303 3.536
-20.641001 -0.33899999 3.533
-23.575001 -0.26300001 3.529
-22.873249 -0.27499998 3.5262499
-21.909 -0.28299999 3.5150001
-21.788 -0.28099999 3.5339999
-20.639999 -0.26699999 3.533
-19.476999 -0.252 3.5439999
-23.726 -0.223 3.51
-23.686001 -0.223 3.546
-22.908001 -0.21600001 3.5109999
-22.860001 -0.215 3.5450001
-21.8745 -0.22499999 3.5095
-21.795 -0.22400001 3.5355
-20.635 -0.23100001 3.5320001
-22.872501 -0.17550001 3.526
-21.865999 -0.168 3.5079999
-21.790001 -0.167 3.5339999
-20.625999 -0.176 3.5304999
-28.049999 -0.118 3.5009999
-22.900999 -0.13600001 3.51
-22.858999 -0.13600001 3.5439999
-21.860001 -0.13 3.507
-21.785999 -0.12899999 3.5339999
-20.618999 -0.122 3.529
-28.056 -0.068000004 3.5020001
-22.870998 -0.076000005 3.5254998
-22.85 -0.096000001 3.543
-21.875 -0.052999999 3.5090001
-21.823502 -0.090999998 3.5204999
-21.778999 -0.052999999 3.533
-20.608 -0.086000003 3.527
-19.434999 -0.082000002 3.536
-28.055 -0.018999999 3.5020001
-26.691 -0.017999999 3.5209999
-21.862 -0.014 3.507
-21.784 -0.014 3.533
-20.615 -0.032000002 3.5285001
-26.243999 0.028999999 3.5079999
-26.035 0.028999999 3.527
-25.808001 0.028000001 3.5420001
-21.841999 0.024 3.5039999
-21.76 0.024 3.529
-20.615999 0.022 3.529
-26.268 0.075000003 3.5120001
-25.996 0.074000001 3.5209999
-25.778 0.072999999 3.5380001
-21.823 0.061999999 3.5009999
-21.756001 0.061999999 3.529
-20.601 0.093999997 3.526
-20.586 0.057999998 3.5239999
-19.427 0.071999997 3.5345001
-26.540001 0.122 3.5009999
-26.253 0.121 3.51
-26.035 0.12 3.527
-21.732 0.1 3.5250001
-20.586 0.13 3.5239999
-26.599001 0.169 3.5090001
-26.375999 0.167 3.526
-23.960999 0.17933333 3.5156667
-20.558001 0.16599999 3.5190001
-23.955 0.234 3.5219998
-20.5795 0.21900001 3.5225
-23.9585 0.27599999 3.5225
-20.573999 0.273 3.5220001
-19.393501 0.27399999 3.529
-23.948 0.317 3.543
-22.767 0.34099999 3.53
-20.577 0.308 3.5220001
-20.539 0.34299999 3.516
-23.92 0.35800001 3.539
-22.757 0.38 3.529
-20.559 0.37900001 3.52
-19.396 0.37550002 3.5295
-23.922001 0.42050001 3.539
-22.750999 0.419 3.5280001
-20.563999 0.41600001 3.52
-19.371 0.426 3.5250001
-23.903999 0.48300001 3.536
-22.742001 0.46000001 3.527
-21.674999 0.477 3.517
-20.540001 0.47 3.517
-19.366001 0.47649997 3.5244999
-23.908001 0.52600002 3.5369999
-22.739 0.51999998 3.5265
-21.688999 0.51499999 3.5190001
-20.531 0.523 3.5150001
-19.370001 0.528 3.526
-23.908001 0.56800002 3.5369999
-22.757 0.57999998 3.53
-21.6775 0.5715 3.5174999
-20.526001 0.57749999 3.5145001
-19.366001 0.579 3.5250001
-23.875999 0.60900003 3.533
-22.736 0.61900002 3.527
-21.665001 0.62900001 3.516
-20.518999 0.63099998 3.5139999
-20.499001 0.63099998 3.5469999
-19.353001 0.62900001 3.523
-23.866501 0.67149997 3.5314999
-22.717501 0.67900002 3.5240002
-21.655001 0.66600001 3.5139999
-20.513 0.667 3.513
-20.488001 0.66600001 3.5450001
-19.360001 0.68050003 3.5250001
-23.857 0.73400003 3.53
-22.695999 0.73799998 3.5209999
-21.659 0.74199998 3.5150001
-21.645 0.704 3.513
-20.5105 0.70300001 3.5310001
-20.497 0.73799998 3.5289998
-19.349001 0.73100001 3.523
-23.851999 0.77600002 3.53
-22.690001 0.778 3.52
-21.627001 0.77899998 3.51
-20.4825 0.77349997 3.527
-19.334 0.78200001 3.5204999
-23.849001 0.81699997 3.53
-22.688999 0.81699997 3.52
-21.636 0.81699997 3.5120001
-20.484667 0.82200003 3.5213332
-19.313999 0.83099997 3.517
-23.843 0.85900003 3.529
-22.6905 0.8775 3.5205002
-21.633499 0.87450004 3.5114999
-20.467501 0.88099998 3.5250001
-19.310501 0.88249999 3.517
-23.853001 0.90100002 3.5309999
-23.811001 0.94099998 3.5250001
-22.677 0.93699998 3.5190001
-21.621 0.93099999 3.51
-20.4715 0.91799998 3.526
-19.298 0.93199998 3.5150001
-23.809 0.98400003 3.5250001
-22.658001 0.97600001 3.516
-21.612 0.96899998 3.5090001
-20.46525 0.97049999 3.52525
-19.284 0.98199999 3.5310001
-23.819 1.026 3.526
-22.671 1.017 3.5190001
-21.616001 1.0190001 3.5230002
-21.596001 1.043 3.546
-20.466 1.0245 3.5255001
-19.312 1.034 3.5190001
-19.289 1.0165 3.5314999
-23.797001 1.066 3.523
-22.6565 1.075 3.5165
-21.592501 1.0805 3.526
-20.462999 1.0599999 3.507
-20.440334 1.0823333 3.5279999
-19.271 1.082 3.5295
-18.139999 1.097 3.536
-23.7875 1.1285 3.5225
-22.659 1.1339999 3.5179999
-21.5935 1.1185 3.5265
-20.4405 1.1305001 3.5225
-19.277 1.1213334 3.5250001
-18.128 1.1289999 3.5339999
-23.773001 1.1900001 3.5209999
-22.632 1.1720001 3.5139999
-21.585667 1.1683334 3.5193336
-20.4265 1.1645 3.5204999
-19.2705 1.166 3.53
-18.153 1.163 3.54
-23.773001 1.232 3.5209999
-22.625999 1.212 3.513
-21.577499 1.23 3.5250001
-20.4265 1.2179999 3.5207498
-19.26325 1.217 3.5295
-25.924999 1.298 3.516
-23.794001 1.273 3.5239999
-22.6245 1.27 3.5135
-21.610001 1.27 3.5109999
-21.586 1.268 3.546
-20.413 1.271 3.5190001
-19.267 1.268 3.5480001
-19.25 1.267 3.51
-26.146999 1.309 3.5
-23.759001 1.313 3.52
-22.604 1.3279999 3.5109999
-21.571499 1.324 3.52475
-20.4095 1.325 3.5005
-20.3885 1.3234999 3.5335
-19.264999 1.301 3.513
-19.248001 1.3226666 3.5336666
-25.905001 1.386 3.5139999
-23.7575 1.3755 3.52
-22.586 1.367 3.5079999
-21.548 1.38 3.5215001
-20.414 1.3789999 3.5020001
-20.386999 1.377 3.5339999
-19.241501 1.367 3.527
-23.731001 1.436 3.517
-22.631001 1.449 3.516
-22.6 1.4069999 3.5109999
-21.5385 1.4175 3.5204999
-20.406 1.414 3.5009999
-20.388 1.413 3.5350001
-19.231251 1.41725 3.526
-18.107334 1.4250001 3.5230002
-23.757999 1.479 3.5209999
-22.594999 1.487 3.5109999
-21.552 1.456 3.5420001
-21.538666 1.4803333 3.5150001
-20.402 1.45 3.5380001
-20.389 1.467 3.517
-19.2285 1.4685 3.526
-18.086 1.476 3.5309999
-23.733999 1.5190001 3.5179999
-22.597 1.526 3.5120001
-21.558001 1.5319999 3.506
-21.535 1.53 3.5409999
-20.388 1.5204999 3.5174999
-19.218666 1.5126667 3.5306664
-19.197001 1.533 3.5039999
-18.082001 1.5250001 3.5310001
-23.74 1.562 3.5190001
-22.5725 1.5645001 3.5285001
-21.533501 1.568 3.5209999
-20.3605 1.5725 3.5320001
-19.195499 1.567 3.5215001
-18.0975 1.575 3.5185001
-23.73 1.623 3.5180001
-22.556999 1.6229999 3.5265
-22.546499 1.6224999 3.5255001
-21.52725 1.62475 3.5210001
-20.354 1.626 3.5320001
-19.211 1.603 3.5244999
-19.195999 1.6365 3.5225
-18.08725 1.6215 3.5174999
-16.962 1.626 3.5320001
-23.686001 1.684 3.5120001
-22.562 1.683 3.5480001
-22.546 1.682 3.506
-21.526501 1.682 3.5215001
-20.3435 1.6795 3.5304999
-19.1835 1.6695 3.5204999
-18.066666 1.6783333 3.5196667
-16.953499 1.6695 3.5309999
-23.690001 1.725 3.513
-22.540001 1.7214999 3.5250001
-21.509001 1.7180001 3.5195
-20.336 1.734 3.53
-19.202999 1.704 3.5079999
-19.190334 1.7263334 3.528667
-18.073999 1.732 3.517
-23.686001 1.767 3.513
-22.533501 1.761 3.5250001
-21.514999 1.757 3.54
-21.497999 1.794 3.5380001
-20.341999 1.771 3.5320001
-19.177999 1.771 3.5215001
-18.043999 1.7765 3.5280001
-23.677999 1.808 3.513
-22.528999 1.8130001 3.5176666
-21.483999 1.831 3.536
-20.365999 1.845 3.5
-20.327499 1.8225 3.53
-19.164749 1.81975 3.52
-18.060501 1.8255 3.516
-16.928501 1.8164999 3.529
-23.672001 1.87 3.5125
-22.525002 1.8794999 3.5250001
-21.500999 1.8710001 3.539
-20.308001 1.875 3.527
-19.160999 1.8705001 3.5205002
-18.054001 1.8890001 3.5320001
-18.049999 1.8559999 3.5309999
-16.911499 1.8745 3.527
-26.112 1.902 3.5
-23.648001 1.931 3.51
-22.518 1.9195 3.5240002
-21.483501 1.926 3.5370002
-20.307499 1.928 3.5280001
-19.156334 1.9139999 3.5256667
-19.139 1.9349999 3.5
-18.055 1.921 3.533
-16.9035 1.934 3.5265
-23.68 1.976 3.5150001
-22.515001 1.9790001 3.5244999
-21.461 1.9809999 3.5339999
-20.292999 1.9809999 3.526
-19.152 1.97 3.503
-19.143 1.969 3.536
-18.0415 1.9675 3.5309999
-16.889 1.977 3.5250001
-23.646999 2.016 3.51
-22.502001 2.0369999 3.503
-22.499001 2.0369999 3.543
-21.462999 2.0190001 3.5350001
-20.309 2.017 3.53
-19.152 2.0039999 3.5380001
-19.140999 2.026 3.5136669
-18.02 2.0300002 3.5285001
-16.884998 2.0215001 3.5250001
-23.639 2.0569999 3.51
-22.497999 2.0769999 3.503
-21.446999 2.0745001 3.5339999
-20.294001 2.0695 3.5279999
-19.132 2.0700002 3.5185001
-18.014999 2.0769999 3.529
-16.882999 2.0809999 3.5254998
-23.662001 2.1010001 3.5139999
-23.643 2.1400001 3.5109999
-22.490999 2.115 3.543
-21.438999 2.1300001 3.533
-20.283001 2.1229999 3.527
-20.141001 2.1440001 3.503
-19.123669 2.1143332 3.5240002
-18.019501 2.1255 3.5310001
-16.875999 2.1259999 3.526
-23.622 2.1800001 3.5090001
-22.485334 2.1676669 3.5293331
-21.443001 2.168 3.5339999
-20.140499 2.1789999 3.5220001
-19.111 2.1700001 3.5339999
-18 2.171 3.5280001
-16.877499 2.1704998 3.5275002
-16.729 2.1670001 3.527
-23.615 2.221 3.5079999
-22.472 2.2319999 3.5215001
-21.440001 2.2049999 3.5350001
-20.127001 2.2130001 3.5380001
-19.116001 2.2045 3.5185001
-19.098 2.2360001 3.533
-18.011665 2.2146668 3.5203333
-16.851999 2.2119999 3.523
-16.843 2.2409999 3.5220001
-23.6 2.2609999 3.507
-22.4755 2.2719998 3.523
-20.247999 2.263 3.5239999
-19.108999 2.2709999 3.5009999
-19.086 2.2679999 3.5320001
-18.006001 2.2679999 3.5309999
-17.976 2.296 3.526
-16.833 2.27 3.5209999
-23.614 2.3039999 3.5090001
-23.6 2.3440001 3.5079999
-20.254 2.3 3.526
-20.24 2.3340001 3.5239999
-19.108 2.3039999 3.5020001
-19.0895 2.3185 3.5335002
-17.982 2.329 3.5280001
-16.8405 2.3155 3.5235
-21.414 2.3929999 3.5339999
-20.261 2.372 3.5280001
-19.084 2.369 3.5339999
-17.969 2.375 3.527
-16.810501 2.3715 3.5190001
-21.415001 2.431 3.5339999
-20.230499 2.4215 3.5240002
-19.079002 2.4260001 3.5223331
-17.976 2.424 3.529
-16.831501 2.434 3.5250001
-25.063999 2.49 3.5009999
-21.42 2.47 3.536
-20.229 2.4760001 3.5250001
-19.058001 2.4679999 3.5309999
-17.975 2.4714999 3.5304999
-16.809999 2.4760001 3.5220001
-24.764 2.503 3.5039999
-21.386501 2.5219998 3.5314999
-20.2075 2.527 3.5225
-19.043999 2.517 3.53
-17.959 2.517 3.529
-17.950001 2.5480001 3.5280001
-16.825001 2.5240002 3.5265
-21.382 2.5780001 3.5320001
-20.205 2.5810001 3.523
-19.052999 2.569 3.533
-17.964001 2.5810001 3.5309999
-16.829 2.5699999 3.529
-16.795 2.595 3.523
-15.698 2.5929999 3.53
-23.562 2.6329999 3.507
-21.378 2.6159999 3.5320001
-20.191999 2.615 3.5220001
-19.055 2.6146667 3.5110002
-19.024 2.6329999 3.529
-17.946499 2.6269999 3.529
-16.806 2.6259999 3.526
-15.713 2.6240001 3.5339999
-23.533001 2.671 3.503
-21.375999 2.6729999 3.533
-20.191 2.6690001 3.5225
-19.055 2.671 3.536
-17.950001 2.677 3.5309999
-16.801001 2.655 3.526
-16.774 2.681 3.5209999
-22.421 2.7030001 3.5020001
-21.368999 2.73 3.533
-20.195 2.723 3.5239999
-19.035 2.7130001 3.5216665
-17.937 2.723 3.5304999
-16.790501 2.7290001 3.526
-21.374001 2.7679999 3.5339999
-20.167 2.7735 3.5209999
-19.038 2.77 3.5350001
-17.945 2.7720001 3.533
-16.778999 2.7709999 3.5250001
-21.341499 2.8210001 3.53
-20.184 2.829 3.5250001
-19.018667 2.8246667 3.5216665
-17.93 2.8180001 3.5320001
-16.775002 2.8169999 3.526
-22.410999 2.8629999 3.503
-21.329 2.8759999 3.53
-20.163 2.8794999 3.523
-19.0135 2.8695002 3.5159998
-17.931 2.898 3.5339999
-17.899 2.8610001 3.527
-16.77 2.8769999 3.527
-15.6635 2.8839998 3.5335002
-23.489 2.9170001 3.5009999
-21.344 2.9159999 3.533
-20.145 2.931 3.5209999
-19.002001 2.902 3.5320001
-18.992001 2.934 3.5309999
-17.892 2.924 3.5280001
-16.764 2.9200001 3.527
-15.658501 2.9260001 3.5195
-23.507999 2.961 3.5050001
-22.3715 2.9775 3.5195
-21.321499 2.97 3.5304999
-18.976 2.9825001 3.53
-17.912001 2.9590001 3.533
-17.878 2.9849999 3.527
-16.755501 2.9645 3.527
-15.666 2.9560001 3.5369999
-23.511999 3.0039999 3.506
-23.485001 3.0420001 3.503
-21.323999 3.026 3.5320001
-20.141998 3.0220001 3.5225
-19.013 3.039 3.503
-18.992001 3.036 3.5339999
-17.896 3.0209999 3.5320001
-16.757999 3.01 3.529
-16.745001 3.0380001 3.5280001
-15.644333 3.0283334 3.525667
-23.493 3.0840001 3.5050001
-21.313 3.0815001 3.5314999
-20.139999 3.076 3.5239999
-18.9855 3.0685 3.5165
-17.904499 3.0550001 3.5180001
-17.889 3.085 3.5320001
-16.7395 3.0825 3.5279999
-15.63875 3.0792503 3.5217502
-23.476 3.1240001 3.503
-21.298 3.1370001 3.53
-20.129 3.1279998 3.5235
-18.980667 3.1133335 3.5226667
-17.881334 3.1363335 3.5216665
-16.726 3.125 3.527
-15.6265 3.13375 3.52125
-23.471001 3.165 3.503
-21.298 3.175 3.5309999
-20.096001 3.177 3.5190001
-18.972 3.168 3.5
-18.947001 3.164 3.53
-17.878 3.1789999 3.5165
-16.7085 3.1684999 3.5250001
-15.6255 3.1760001 3.523
-14.505667 3.1683331 3.5300002
-23.455999 3.247 3.503
-23.445999 3.2030001 3.5
-21.280998 3.2305 3.53
-20.108999 3.2149999 3.5220001
-20.099001 3.2479999 3.5209999
-18.9645 3.2014999 3.517
-18.937 3.2309999 3.53
-17.872335 3.2320001 3.5230002
-16.727501 3.2179999 3.5155001
-15.61975 3.2172499 3.5237501
-14.489333 3.2263334 3.5293336
-23.438999 3.2850001 3.5009999
-21.275 3.2869999 3.53
-20.098 3.2839999 3.5220001
-18.964001 3.27 3.5009999
-18.948999 3.267 3.533
-17.8645 3.2735 3.5174999
-16.73 3.2639999 3.5335002
-15.61875 3.2737498 3.5257502
-23.445999 3.3280001 3.503
-20.087999 3.3180001 3.5209999
-18.939499 3.316 3.533
-17.861334 3.316 3.5236669
-16.719501 3.3070002 3.5174999
-16.698 3.3329999 3.529
-15.606667 3.3240001 3.5303335
-23.426001 3.3670001 3.5009999
-21.27 3.381 3.5320001
-20.101 3.3570001 3.5250001
-20.062 3.3870001 3.5190001
-18.938999 3.3674998 3.5174999
-17.853001 3.369 3.5350001
-16.708 3.3659999 3.5020001
-16.6945 3.3934999 3.5155001
-15.602 3.3699999 3.5409999
-15.594334 3.3869998 3.5209999
-14.47025 3.37675 3.5285001
-20.077 3.4260001 3.523
-18.932001 3.4236667 3.5233333
-17.842001 3.4162498 3.5184999
-16.693001 3.4235001 3.517
-15.603 3.427 3.5439999
-15.591 3.424 3.5120001
-14.464 3.4246669 3.5343332
-13.371 3.4070001 3.5439999
-23.413 3.47 3.5009999
-21.252001 3.4719999 3.5309999
-20.0765 3.4795001 3.5240002
-18.926001 3.4685001 3.5180001
-17.83975 3.4802499 3.5202501
-16.679001 3.4706669 3.5209999
-15.605 3.4560001 3.517
-15.582667 3.47 3.5323334
-14.455 3.4949999 3.5450001
-21.2325 3.5265 3.5295
-20.042999 3.5280001 3.52
-18.918251 3.51825 3.51825
-17.821501 3.5250001 3.5184999
-16.67625 3.5262499 3.5177498
-15.5805 3.5214999 3.5292499
-14.457 3.549 3.549
-14.435333 3.5253334 3.5240002
-21.218 3.582 3.529
-20.055 3.566 3.523
-20.028999 3.598 3.52
-18.914 3.569 3.5020001
-18.896 3.5650001 3.5339999
-17.831749 3.576 3.5222499
-17.535999 3.596 3.516
-16.670334 3.5810001 3.5136669
-15.576 3.5819998 3.5266666
-14.4305 3.5827501 3.53075
-18.910999 3.6260002 3.5266666
-16.667 3.6203334 3.5250001
-15.56525 3.6322498 3.5314999
-14.429335 3.6316667 3.5283334
-20.034 3.671 3.523
-18.912498 3.6725001 3.523
-17.812 3.6690001 3.5220001
-17.798 3.6819999 3.5039999
-16.657001 3.6735001 3.52
-16.6465 3.671 3.5180001
-15.566 3.6760001 3.5480001
-15.546 3.6719999 3.5150001
-14.427 3.6760001 3.5209999
-20.037001 3.7079999 3.5239999
-18.907335 3.717 3.5293331
-18.878 3.734 3.5009999
-17.809 3.7165 3.5235
-17.796499 3.747 3.5225
-16.634748 3.72925 3.51825
-15.545249 3.7145 3.53125
-14.419001 3.7145 3.5219998
-13.3 3.7119999 3.5469999
-18.915001 3.776 3.5439999
-18.892 3.7709999 3.5050001
-17.809 3.7820001 3.543
-17.783001 3.777 3.5050001
-16.662001 3.7809999 3.5409999
-16.618 3.7720001 3.5009999
-15.553 3.789 3.5220001
-15.541334 3.7663333 3.5380001
-14.4065 3.7649999 3.5219998
-13.296 3.7609999 3.549
-18.883499 3.8039999 3.5225
-18.847 3.8310001 3.5339999
-17.786501 3.8260002 3.5235
-16.62125 3.81725 3.5195
-15.533 3.8280001 3.52
-14.407 3.819 3.5255001
-18.889999 3.8740001 3.543
-18.841999 3.898 3.5009999
-17.789 3.8745 3.526
-16.614502 3.8772497 3.5210001
-15.5275 3.8839998 3.5215001
-14.391001 3.8685002 3.5250001
-18.907 3.9449999 3.549
-18.873501 3.9219999 3.5244999
-17.7805 3.9215002 3.5265
-16.608002 3.9215 3.5219998
-15.52 3.925 3.5220001
-14.379999 3.9194999 3.5255001
-18.889 3.977 3.5469999
-18.827999 3.9630001 3.5009999
-17.769667 3.9786668 3.5323334
-17.749001 3.9960001 3.507
-16.608999 3.9689999 3.5240002
-15.507999 3.9660001 3.5225
-14.384251 3.974 3.5157499
-18.872999 4.0190001 3.5340002
-18.843 4.0349998 3.506
-17.754501 4.0295 3.526
-16.609001 4.0253334 3.5320003
-16.597 4.0430002 3.51
-15.4865 4.0185003 3.52
-14.37025 4.0247498 3.516
-18.877001 4.0780001 3.549
-18.822001 4.066 3.5039999
-17.761999 4.0630002 3.5120001
-17.741667 4.0796671 3.5313334
-16.5905 4.0725002 3.5255001
-15.4985 4.079 3.5265
-14.370667 4.074667 3.5243335
-13.267 4.0653334 3.5300002
-18.861 4.1079998 3.5469999
-18.832333 4.1246672 3.5193336
-17.740999 4.1230001 3.5274999
-16.601999 4.1069999 3.5450001
-16.58 4.1216669 3.5206668
-15.494 4.1220002 3.5280001
-14.3645 4.1317501 3.5214999
-13.256332 4.1220007 3.5316668
-18.827999 4.1700001 3.526
-17.741001 4.1730003 3.5297501
-16.583 4.1782498 3.5292501
-15.490334 4.1690001 3.5203333
-14.359333 4.1806669 3.5193334
-14.349 4.1960001 3.536
-13.266001 4.1715002 3.546
-18.823668 4.2146673 3.5213335
-17.723499 4.2189999 3.5285001
-16.570999 4.2220001 3.529
-15.48175 4.2192502 3.516
-14.351 4.223 3.5380001
-14.342 4.2340002 3.5095
-13.252 4.23 3.5469999
-13.239 4.2200003 3.5237498
-18.802 4.2670002 3.5079999
-17.724501 4.26825 3.5310001
-16.568249 4.2685003 3.53075
-15.46475 4.2722502 3.5155001
-13.241667 4.2683334 3.5393333
-18.802999 4.3010001 3.5090001
-18.791 4.3319998 3.5090001
-17.724335 4.329 3.5279999
-16.556 4.3119998 3.5150001
-16.540001 4.3379998 3.513
-15.46475 4.3312502 3.5189998
-13.223166 4.3226671 3.5346668
-18.7855 4.3835001 3.5095
-17.709 4.381 3.517
-16.556 4.3730001 3.5179999
-16.538 4.368 3.5450001
-15.459 4.3730001 3.5350001
-15.448 4.3699999 3.503
-18.777 4.434 3.51
-17.702499 4.428 3.5180001
-16.54225 4.4162502 3.5332501
-15.460334 4.4226665 3.5283334
-15.448 4.4000001 3.5050001
-13.198668 4.434 3.5250001
-18.794001 4.474 3.5150001
-17.698 4.4759998 3.5190001
-16.532333 4.4700003 3.529
-15.456 4.4899998 3.5265
-15.446 4.4580002 3.5225
-13.2085 4.4840002 3.5314999
-21.115 4.5219998 3.503
-18.7925 4.5254998 3.517
-17.702 4.5430002 3.523
-17.693001 4.5079999 3.52
-16.539 4.5229998 3.523
-15.440001 4.5295 3.5255001
-13.2055 4.5345001 3.5345001
-18.798 4.5799999 3.52
-17.678499 4.5875001 3.5209999
-16.522999 4.5644999 3.5219998
-15.4335 4.5714998 3.527
-14.3 4.592 3.5250001
-13.188499 4.5810003 3.5209999
-18.7745 4.6265001 3.5184999
-17.667 4.6339998 3.5209999
-16.514999 4.625 3.5235
-15.452 4.6059999 3.5179999
-15.420334 4.6160002 3.5320001
-14.301 4.6199999 3.527
-13.1885 4.6332502 3.5255003
-18.745001 4.6719999 3.5150001
-17.666 4.6829996 3.5235
-16.504999 4.6690001 3.5239999
-16.499001 4.6989999 3.5250001
-15.417999 4.6707497 3.5297499
-14.3055 4.6630001 3.5314999
-14.286 4.6700001 3.5
-13.181251 4.6832504 3.52825
-12.079 4.6890001 3.546
-18.756001 4.7090001 3.5190001
-18.739 4.7389998 3.517
-17.674 4.7350001 3.527
-16.511999 4.7340002 3.529
-15.411499 4.7275 3.5322499
-14.287999 4.7200007 3.5147998
-13.176001 4.7340002 3.5314999
-12.066 4.7197499 3.5335
-21.049 4.776 3.5009999
-18.754 4.7779999 3.5209999
-17.663 4.7649999 3.527
-17.65 4.7930002 3.526
-16.491001 4.7750001 3.5275002
-15.407 4.7709999 3.5190001
-14.287666 4.7713337 3.5259998
-13.16625 4.7827497 3.5332499
-12.057 4.7655001 3.536
-12.048 4.7865 3.5475001
-21.049 4.8150001 3.5020001
-18.746 4.829 3.5220001
-17.646 4.8260002 3.527
-16.487 4.8210001 3.529
-14.2725 4.8182497 3.52175
-13.156334 4.8270001 3.5306668
-13.15 4.842 3.5469999
-12.055 4.802 3.527
-18.743 4.881 3.5239999
-17.641001 4.8909998 3.529
-16.484667 4.8613334 3.5209999
-14.263667 4.8746667 3.5193336
-14.25 4.8520002 3.533
-13.142 4.8655 3.5349998
-18.734501 4.9315 3.5250001
-16.48225 4.92875 3.5190001
-14.261333 4.9206667 3.5316668
-14.249 4.9349999 3.5109999
-13.1615 4.9124999 3.53
-13.143333 4.9363337 3.5106666
-18.736 4.9840002 3.5280001
-16.470001 4.9735003 3.5195
-14.252001 4.9743338 3.5333333
-14.244 4.9899998 3.5139999
-13.158 4.9770002 3.5350001
-12.030001 4.9723334 3.5296667
-19.83 5.0149999 3.5009999
-18.732 5.0170002 3.5280001
-16.466751 5.0202503 3.5214999
-14.242334 5.0273333 3.5263336
-19.822001 5.0510001 3.5009999
-16.464001 5.0769997 3.5296667
-16.445999 5.0929999 3.506
-14.253 5.0500002 3.549
-14.239666 5.0823336 3.5393333
-19.799 5.1199999 3.5
-16.444 5.1240001 3.5235
-14.238 5.1155 3.5225
-19.795 5.1735001 3.5019999
-16.451 5.158 3.5109999
-16.436001 5.173667 3.5300002
-15.359 5.1849999 3.5374999
-15.347 5.1659999 3.5039999
-14.227 5.1680002 3.5244999
-17.592001 5.232667 3.5273333
-16.431335 5.2243338 3.5216665
-15.362 5.2010002 3.5090001
-15.328 5.2185001 3.5185001
-14.2205 5.2220001 3.5275002
-19.779499 5.2799997 3.5040002
-17.582001 5.2749996 3.5225
-16.423 5.2729998 3.5285001
-15.336668 5.2613335 3.5183332
-14.220501 5.2795 3.5185001
-17.573 5.3235002 3.5232501
-16.422001 5.3049998 3.5139999
-15.321 5.3220005 3.5245001
-14.2115 5.3330002 3.5065
-14.199 5.3280001 3.5314999
-17.591999 5.3789997 3.5295
-15.3125 5.3797503 3.5267501
-14.224 5.3804998 3.527
-14.198 5.3990002 3.5369999
-10.964251 5.3737497 3.5307503
-17.578251 5.42625 3.5297501
-15.31 5.4239998 3.5150001
-15.284 5.415 3.5380001
-17.570499 5.4750004 3.5310001
-15.316999 5.4724998 3.5195
-15.294001 5.4639997 3.5439999
-17.556334 5.5263338 3.526
-15.291249 5.5239997 3.5327499
-9.7220001 5.533 3.5480001
-17.552999 5.5700002 3.517
-17.525999 5.5949998 3.513
-15.273001 5.5629997 3.5320001
-13.056334 5.5686674 3.5233333
-10.928999 5.5777497 3.5304999
-17.525999 5.6279998 3.5150001
-16.308001 5.6479998 3.546
-13.059334 5.6153336 3.5283334
-13.046 5.6279998 3.5439999
-10.9294 5.6209998 3.5292001
-17.5235 5.6774998 3.5180001
-16.302 5.6789999 3.516
-16.299 5.678 3.546
-13.055 5.6589999 3.523
-13.040335 5.6699996 3.5386667
-18.620001 5.73 3.51
-17.514999 5.7249999 3.5190001
-16.278999 5.7030001 3.5439999
-13.042334 5.724 3.5176668
-11.9475 5.7335 3.5150001
-10.91025 5.7249994 3.5220001
-18.6115 5.7810001 3.5105
-17.507999 5.757 3.52
-17.499001 5.7880001 3.52
-11.94125 5.7692499 3.5175002
-10.916667 5.7730002 3.5340002
-17.534 5.8330002 3.529
-11.93525 5.8175001 3.5214999
-10.9065 5.8204999 3.5219998
-18.598 5.8660002 3.513
-11.935 5.869 3.52775
-11.9244 5.9240003 3.5337999
-11.920001 5.9790001 3.5326669
-11.9138 6.0228 3.5184002
-14.136 6.0834999 3.527
-11.905001 6.0676665 3.5153332
-16.315001 6.1389999 3.5179999
-14.11925 6.1345 3.5139999
-11.9065 6.1020002 3.5239999
-11.894 6.1306667 3.5283334
-16.309999 6.1690001 3.52
-14.1205 6.1785002 3.5185001
-12.958 6.1900001 3.529
-12.95 6.1859999 3.5
-11.91 6.1733336 3.529
-16.309999 6.2010002 3.5220001
-15.1805 6.2174997 3.52
-14.12 6.2069998 3.5350001
-12.9385 6.223 3.51525
-11.905 6.2059999 3.523
-11.8955 6.2145004 3.5345001
-12.951 6.2709999 3.536
-12.931334 6.2800002 3.5150001
-11.887668 6.2686667 3.5186667
-17.452 6.322 3.5109999
-12.93075 6.3304996 3.52475
-11.887001 6.3129997 3.5240002
-8.5585003 6.335 3.5415001
-17.437 6.3520002 3.51
-12.92275 6.3825002 3.5287499
-12.921333 6.4343333 3.5386667
-12.9165 6.4639997 3.523
-12.897 6.4980001 3.549
-12.91 6.5226665 3.5186667
-12.9065 6.559 3.5174999
-12.89 6.579 3.53
-9.6059999 6.6399999 3.5480001
-16.261 6.6760001 3.516
-9.5900002 6.6716666 3.5200002
-16.267 6.7129998 3.52
-11.8325 6.7075 3.5314999
-10.553 6.737 3.5439999
-10.479 6.7284999 3.5479999
-10.447 6.7459998 3.543
-10.397 6.7140002 3.549
-9.5772009 6.7164001 3.5184
-16.238001 6.7670002 3.5190001
-10.771 6.783 3.507
-10.709 6.783 3.54
-10.682 6.7919998 3.5350001
-10.624001 6.7685003 3.5419998
-10.527667 6.7723331 3.543
-10.4375 6.7785001 3.546
-10.346 6.7705002 3.546
-9.5846663 6.7808337 3.5263333
-8.5200005 6.7690001 3.5350001
-16.237999 6.8175001 3.5225
-10.780001 6.8280001 3.5337501
-10.677 6.8295002 3.5395
-10.616 6.803 3.5450001
-10.5865 6.8234997 3.5409999
-10.502 6.8340001 3.546
-10.4855 6.823 3.5404999
-10.422 6.8070002 3.5469999
-10.3955 6.8284998 3.5434999
-9.5724001 6.8234 3.5180001
-8.5229998 6.8449998 3.53
-14.044 6.8610001 3.5250001
-10.801 6.895 3.53
-10.777 6.8530002 3.5190001
-10.736667 6.8803339 3.5373333
-10.658 6.8559999 3.539
-10.65 6.8769999 3.54
-10.5655 6.8614998 3.5419998
-10.54 6.8839998 3.539
-10.466 6.875 3.5440001
-10.379 6.8559999 3.5439999
-9.5732498 6.8814993 3.5262499
-10.802 6.9219999 3.5350001
-10.7725 6.9429998 3.5190001
-10.712999 6.9309998 3.539
-10.636333 6.9206667 3.5440001
-10.533 6.9320002 3.5450001
-10.464 6.9120002 3.549
-9.5652494 6.9267497 3.5322499
-10.77 6.9809999 3.5239999
-10.72 6.9749999 3.5480001
-10.677 6.987 3.5395
-10.606 6.9530001 3.5420001
-10.5865 6.98 3.5409999
-10.523 6.9510002 3.546
-9.5616674 6.9793334 3.5220001
-8.5174999 6.9755001 3.5339999
-10.767 7.0190001 3.529
-10.735667 7.0386667 3.5370002
-10.6465 7.02 3.5374999
-9.5635004 7.02775 3.527
-8.4870005 7.0300002 3.5306668
-10.77 7.0745001 3.526
-10.701 7.0689998 3.5339999
-9.5563335 7.0696669 3.5366666
-9.5489998 7.0809999 3.5209999
-8.4814005 7.0792003 3.5384004
-10.763 7.1100001 3.53
-10.34 7.1469998 3.5339999
-9.5570011 7.1300001 3.5246665
-8.4710007 7.118 3.5236669
-11.577 7.1919999 3.526
-10.408 7.1950002 3.5339999
-10.329 7.1805 3.5370002
-9.5539999 7.1620002 3.5150001
-9.541667 7.1700001 3.5279999
-9.2589998 7.198 3.5409999
-9.2159996 7.165 3.5469999
-8.46875 7.16225 3.5287502
-8.4469995 7.1820002 3.5380001
-12.837 7.2470002 3.5139999
-11.662 7.2449999 3.527
-11.563 7.2119999 3.526
-11.546 7.2290001 3.5239999
-10.477 7.2420001 3.533
-10.405 7.2199998 3.5369999
-10.379 7.243 3.5345001
-10.3025 7.2165003 3.536
-9.5580006 7.2259998 3.5343337
-9.3769999 7.2119999 3.549
-9.2565002 7.2355003 3.5475001
-8.467001 7.2246666 3.5233333
-8.4343338 7.2216673 3.529
-8.3579998 7.2205 3.546
-8.3299999 7.2350001 3.5420001
-8.2629995 7.2280002 3.5450001
-13.978 7.2870002 3.526
-12.844 7.2509999 3.543
-11.638 7.2725 3.5250001
-11.54 7.2519999 3.526
-10.553 7.2940001 3.5339999
-10.471 7.2795 3.5374999
-10.379499 7.2840004 3.529
-10.324 7.2989998 3.5309999
-9.5385008 7.2690001 3.5185001
-9.434 7.2550001 3.5480001
-9.3380003 7.2600002 3.549
-9.2269993 7.2639999 3.546
-8.4647493 7.2734995 3.5345001
-8.3874998 7.2719998 3.5425
-8.3190002 7.2509999 3.543
-13.976 7.3179998 3.5149999
-11.823 7.3449998 3.5239999
-11.756 7.3039999 3.529
-11.7305 7.3305001 3.5275002
-11.618 7.316 3.5265
-10.5235 7.316 3.5310001
-10.487 7.3319998 3.526
-10.428 7.3183336 3.5256667
-10.3755 7.3225002 3.5345001
-10.3125 7.3315001 3.5335
-9.5340004 7.3185 3.5265
-9.4510002 7.3470001 3.546
-9.3620005 7.3309999 3.5450001
-9.3470001 7.3460002 3.5439999
-9.2714996 7.3260002 3.5454998
-9.2410002 7.3410001 3.5409999
-13.97325 7.3629999 3.51875
-11.819 7.3709998 3.526
-11.726 7.3835001 3.5335
-11.608 7.3669996 3.5314999
-11.567 7.3839998 3.5250001
-11.534 7.3909998 3.5190001
-10.602 7.3569999 3.5309999
-10.577 7.381 3.5295
-10.466 7.3859997 3.529
-10.3765 7.3775001 3.5320001
-10.35 7.3990002 3.529
-10.281 7.3499999 3.529
-9.5236006 7.3771996 3.5278001
-9.4190006 7.3756671 3.5436666
-9.3255005 7.368 3.5434999
-9.29 7.3935003 3.5395
-9.2146673 7.373333 3.5406666
-13.966749 7.4229999 3.5235
-11.822 7.402 3.5309999
-11.777334 7.4209995 3.5153332
-11.742 7.4369998 3.5190001
-11.692 7.4060001 3.529
-11.627001 7.4220004 3.5176668
-11.511 7.4050002 3.516
-10.733999 7.434 3.5239999
-10.665 7.4000001 3.5280001
-10.6475 7.4299998 3.5285001
-10.531334 7.4183331 3.5253334
-10.426333 7.4263334 3.5270002
-10.341499 7.4335003 3.5325
-9.5270004 7.4200001 3.5199997
-9.4834995 7.4264998 3.5450001
-9.3830004 7.4273338 3.5450001
-9.3389997 7.447 3.5380001
-9.2620001 7.4250002 3.539
-8.4350004 7.4299998 3.5220001
-13.966 7.4689999 3.5139999
-13.95 7.461 3.539
-11.784 7.4779997 3.507
-11.7155 7.4645 3.517
-11.576668 7.4759998 3.5139999
-10.717334 7.4836669 3.5200002
-10.615334 7.4776664 3.5293331
-10.513 7.4744997 3.5295
-10.488 7.4980001 3.5280001
-10.402 7.4629998 3.527
-10.399 7.4879999 3.5309999
-10.3125 7.467 3.5314999
-10.291 7.494 3.5309999
-9.5225 7.4700003 3.5279999
-9.4580002 7.46 3.546
-9.4349995 7.4825001 3.5444999
-9.3979998 7.494 3.5380001
-9.323 7.4735003 3.54
-9.2725 7.4724998 3.539
-9.2139997 7.4660001 3.536
-9.1780005 7.4770002 3.529
-11.775 7.5314999 3.5125
-11.708 7.5029998 3.52
-11.671 7.5225 3.5149999
-11.535 7.52 3.5114999
-10.706751 7.5282502 3.5202501
-10.5895 7.5289998 3.5310001
-10.466 7.5229998 3.527
-10.369333 7.5226669 3.5293336
-9.5138006 7.5202003 3.5281999
-9.408 7.5289998 3.5469999
-9.3889999 7.539 3.5439999
-9.309 7.5289998 3.5469999
-9.2729998 7.5279999 3.5380001
-9.2409992 7.5409999 3.533
-9.1949997 7.5170002 3.5409999
-11.756 7.5630002 3.513
-11.738 7.5799999 3.5109999
-11.651 7.552 3.5150001
-11.6195 7.5749998 3.5114999
-11.5145 7.5634999 3.513
-11.489 7.5900002 3.5109999
-10.705999 7.5834999 3.5165
-10.673 7.5600004 3.53
-10.630501 7.586 3.5244999
-10.572001 7.5714998 3.5215001
-10.5225 7.5634999 3.5220001
-10.476 7.572 3.5250001
-10.421 7.5599999 3.523
-10.385 7.5760002 3.5174999
-10.318 7.5550003 3.5235
-10.2865 7.5869999 3.5219998
-9.5124998 7.57125 3.5212502
-9.467 7.5620003 3.5434999
-9.427 7.5834999 3.5384998
-9.3760004 7.5560002 3.5439999
-9.3220005 7.5670004 3.5340002
-9.2224998 7.5799999 3.5365
-15.023 7.6184998 3.5219998
-11.721334 7.6273336 3.5143335
-11.605 7.6090002 3.513
-11.5785 7.6339998 3.5109999
-10.6705 7.6140003 3.5135
-10.5785 7.6315002 3.5209999
-10.476 7.6140003 3.5195
-10.442 7.632 3.5150001
-10.3745 7.6240001 3.523
-9.5044994 7.6195002 3.5274999
-9.4923344 7.6230001 3.5296667
-9.408 7.6234999 3.5415001
-9.3669996 7.631 3.533
-9.3039999 7.6059999 3.5369999
-11.763 7.6830001 3.5050001
-11.679501 7.6715002 3.5114999
-10.67 7.6700001 3.51
-10.6375 7.6739998 3.5159998
-10.535 7.6710005 3.5176666
-10.46 7.6729999 3.526
-10.414 7.6809998 3.517
-10.363 7.6570001 3.526
-10.337999 7.6800003 3.5239999
-10.299 7.6929998 3.5179999
-9.475666 7.6640005 3.5336666
-11.761 7.7399998 3.5120001
-11.75 7.7030001 3.5050001
-10.69 7.7259998 3.5109999
-10.615499 7.7150002 3.5174999
-10.584 7.7350001 3.5139999
-10.519 7.7160001 3.5209999
-10.4855 7.7335 3.5165
-10.413 7.7210002 3.523
-10.3855 7.7434998 3.5204999
-10.2955 7.7325001 3.5235
-14.993 7.783 3.517
-10.677 7.7746668 3.5150001
-10.561334 7.7756667 3.5153337
-10.461 7.7714996 3.517
-10.438 7.796 3.516
-10.3625 7.7824998 3.5220001
-10.2685 7.7680001 3.523
-9.3179998 7.783 3.5280001
-9.2700005 7.7709999 3.5380001
-6.2140002 7.777 3.543
-14.980667 7.8213339 3.5133333
-10.653 7.8140001 3.516
-10.568 7.8369999 3.526
-10.469 7.848 3.5309999
-10.356 7.8200002 3.527
-10.3265 7.8404999 3.5240002
-9.415 7.836 3.536
-6.2030001 7.848 3.5409999
-10.6585 7.8614998 3.5250001
-10.633 7.8850002 3.523
-10.575 7.8709998 3.533
-10.533 7.868 3.5239999
-10.479 7.8699999 3.513
-10.418501 7.8525 3.5209999
-10.3825 7.8824997 3.5184999
-10.276334 7.8743339 3.5183334
-5.7210002 7.8969998 3.5480001
-12.7665 7.9315 3.5135
-11.493 7.9439998 3.5109999
-10.656 7.9165001 3.5085001
-10.619 7.9029999 3.523
-10.571667 7.925334 3.517
-10.463 7.9000001 3.5139999
-10.433001 7.9215002 3.5110002
-10.358 7.908 3.517
-10.341 7.9379997 3.5184999
-9.184 7.948 3.529
-6.0669999 7.9134998 3.549
-6.0440001 7.927 3.5480001
-5.961 7.9050002 3.543
-5.9489999 7.9180002 3.5450001
-5.8080001 7.9000001 3.5480001
-5.6900001 7.9120002 3.546
-5.6069999 7.9120002 3.5469999
-5.5929999 7.921 3.5469999
-12.7685 7.9787498 3.5197499
-11.487 7.9710002 3.5139999
-10.634334 7.9720001 3.5126667
-10.523666 7.9753337 3.5146666
-10.4115 7.9630003 3.5135
-10.389 7.9889998 3.513
-10.306 7.954 3.5139999
-9.2600002 7.9850001 3.53
-9.1585007 7.9685001 3.5275002
-9.1359997 7.9910002 3.527
-6.9180002 7.9510002 3.546
-5.7820001 7.9809999 3.5469999
-12.7595 8.03475 3.5249999
-11.581 8.0360003 3.516
-10.608 8.0100002 3.513
-10.595 8.0290003 3.5139999
-10.4745 8.0114994 3.51
-9.4289999 8.0450001 3.5309999
-9.3255005 8.0270004 3.5285001
-9.225667 8.0126667 3.5276668
-9.125 8.0100002 3.5280001
-12.742666 8.0813332 3.5230002
-11.671 8.0830002 3.5150001
-11.563 8.0539999 3.5150001
-11.5355 8.0804996 3.5135002
-10.629 8.0550003 3.5
-10.588 8.0530005 3.516
-9.4729996 8.0685005 3.5220001
-9.415 8.0755005 3.5339999
-9.3859997 8.0939999 3.5309999
-9.3199997 8.0649996 3.5350001
-9.2786674 8.0873337 3.5303333
-9.2080002 8.0539999 3.5320001
-9.1785002 8.0699997 3.5285001
-12.738 8.1309996 3.5190001
-11.737 8.1440001 3.5109999
-11.625667 8.128334 3.5123334
-11.508 8.1059999 3.5109999
-11.456 8.1289997 3.5039999
-9.4619999 8.1154995 3.5279999
-9.4300003 8.1464996 3.5265
-9.3669996 8.1059999 3.529
-9.3355007 8.1224995 3.5255001
-9.2329998 8.1049995 3.523
-12.752 8.1719999 3.527
-12.734 8.1920004 3.526
-11.714 8.1750002 3.5105
-11.5795 8.1719999 3.5095
-11.449 8.1549997 3.506
-9.4565001 8.1689997 3.5135
-9.4020004 8.1660004 3.5239999
-9.3804998 8.1905003 3.5244999
-9.3179998 8.1499996 3.527
-9.2870007 8.1665001 3.5235
-12.740999 8.2270002 3.5180001
-11.674 8.2230005 3.5093334
-11.557 8.2010002 3.5090001
-11.5245 8.224 3.5054998
-9.4440002 8.217 3.5194998
-9.3529997 8.21 3.5220001
-9.3380003 8.2250004 3.5220001
-6.165 8.2360001 3.5409999
-12.740499 8.2747498 3.5237501
-11.6425 8.2775002 3.5105
-11.514 8.2609997 3.5090001
-11.494 8.2770004 3.507
-9.4305 8.2632504 3.5132501
-9.3920002 8.2720003 3.5190001
-12.723333 8.3206663 3.5209999
-11.6175 8.3205004 3.5120001
-11.592 8.3470001 3.51
-11.469 8.3203335 3.5080001
-9.4469995 8.3199997 3.516
-12.718 8.3699999 3.517
-11.702 8.3959999 3.513
-11.691 8.3579998 3.5050001
-11.5725 8.3794994 3.5110002
-10.330334 8.385334 3.5166669
-6.0960002 8.3839998 3.5480001
-6.0040002 8.3800001 3.549
-5.987 8.3859997 3.5469999
-5.9165001 8.3640003 3.5465002
-5.5970001 8.3859997 3.549
-11.6745 8.4230003 3.5110002
-11.643 8.4460001 3.5079999
-11.541 8.4040003 3.5079999
-10.595 8.448 3.506
-10.519 8.4469995 3.5150001
-10.441 8.4139996 3.5190001
-10.385 8.4293346 3.51
-10.271667 8.4266663 3.5116668
-6.1288004 8.4286003 3.5346
-6.0669999 8.4049997 3.5480001
-6.026 8.4306669 3.5470004
-5.9679999 8.4060001 3.549
-5.9306669 8.4303341 3.5483336
-5.8769999 8.4314995 3.5479999
-5.7319999 8.4280005 3.5480001
-5.6315002 8.4209995 3.5469999
-10.587999 8.4875002 3.5110002
-10.474334 8.4720001 3.5103335
-10.359 8.4689999 3.5109999
-10.3295 8.4890003 3.5089998
-10.227 8.4510002 3.506
-6.072 8.4736671 3.5480001
-6.0419998 8.4949999 3.5480001
-5.9766669 8.4640007 3.5466669
-5.9499998 8.4890003 3.5480001
-5.7800002 8.4659996 3.549
-5.6729999 8.4680004 3.5480001
-5.6279998 8.4980001 3.5480001
-5.0085001 8.4815006 3.5444999
-10.568 8.5170002 3.5109999
-10.5375 8.5380001 3.5085001
-10.424667 8.5220003 3.5090003
-10.385 8.5489998 3.5050001
-10.282333 8.5273342 3.506
-6.0959997 8.5240002 3.5465
-6.013 8.5159998 3.5480001
-5.9949999 8.5220003 3.546
-5.921 8.5120001 3.549
-10.582 8.5889997 3.5009999
-10.5075 8.5745001 3.5089998
-10.367 8.566 3.5039999
-10.253 8.5640001 3.506
-10.221 8.5825005 3.5025001
-6.9520001 8.5790005 3.5450001
-6.9400001 8.5939999 3.546
-6.8559999 8.5810003 3.5469999
-6.836 8.5860004 3.5439999
-6.7709999 8.5670004 3.5480001
-6.7434998 8.5769997 3.5444999
-6.118 8.5775003 3.52425
-6.0630002 8.5559998 3.549
-10.5865 8.6389999 3.5095
-10.485001 8.6175003 3.5110002
-10.4355 8.6385002 3.5044999
-10.373 8.6020002 3.5109999
-10.3245 8.6079998 3.503
-10.297 8.6309996 3.5009999
-7.177 8.6389999 3.5409999
-7.1219997 8.6189995 3.5465002
-7.0960002 8.6330004 3.5450001
-7.0144997 8.6094999 3.5439999
-6.9285002 8.6254997 3.5409999
-6.8730001 8.6330004 3.543
-6.8373337 8.6293335 3.5413332
-6.7799997 8.6240005 3.543
-6.7276664 8.6246672 3.5393333
-6.109333 8.6313334 3.5236669
-5.9429998 8.6400003 3.549
-10.556 8.6599998 3.507
-10.527 8.6829996 3.5050001
-10.406 8.6920004 3.5079999
-10.3875 8.6760006 3.5015001
-10.280334 8.6786671 3.5056667
-7.2150002 8.6739998 3.5283334
-7.1896667 8.6859999 3.533
-7.1269999 8.6864996 3.5425
-7.0769997 8.6555004 3.546
-7.0303335 8.6756668 3.5420003
-6.9819999 8.666667 3.5440001
-6.9089999 8.6625004 3.5355
-6.8889999 8.684 3.5369999
-6.8114996 8.6639996 3.5380001
-6.7804999 8.6870003 3.5374999
-6.7135 8.6625004 3.5395
-6.691 8.6809998 3.54
-6.1009998 8.6719999 3.527
-5.9780002 8.691 3.549
-5.8670001 8.691 3.549
-5.8179998 8.6499996 3.5480001
-12.664 8.7209997 3.5239999
-12.649 8.7440004 3.5239999
-10.503 8.71 3.5050001
-10.48 8.7220001 3.5020001
-10.358 8.7130003 3.5020001
-10.35 8.7379999 3.5039999
-10.227667 8.7270002 3.5033336
-7.1809998 8.7309999 3.5294003
-7.1079998 8.71 3.5439999
-7.0676665 8.7213345 3.539
-6.9714999 8.71 3.5384998
-6.9419999 8.7350006 3.539
-6.8660002 8.7024994 3.5374999
-6.8256664 8.7290001 3.536
-6.7775002 8.7290001 3.5369999
-6.7273331 8.7276669 3.5376668
-6.1069999 8.7124996 3.5285001
-12.657499 8.7835007 3.517
-10.563 8.7754993 3.5019999
-10.4715 8.7620001 3.507
-10.441 8.783 3.5050001
-10.321334 8.7753334 3.5053337
-7.2010002 8.7609997 3.5320001
-7.1894999 8.7775002 3.5225
-7.1280003 8.7646675 3.54
-7.0840001 8.7880001 3.5369999
-7.021667 8.7566671 3.539
-6.9779997 8.7805004 3.536
-6.9084997 8.7565002 3.5380001
-6.8889999 8.7779999 3.539
-6.7875004 8.7894993 3.5434999
-6.7284999 8.7770004 3.5395
-6.6849999 8.7679996 3.539
-12.647 8.809 3.5039999
-11.618 8.8369999 3.506
-11.488 8.8179998 3.5055001
-10.566 8.8249998 3.5109999
-10.524 8.8374996 3.5039999
-10.4165 8.8094997 3.5039999
-10.386 8.8299999 3.5020001
-10.28 8.8009996 3.5009999
-7.1830001 8.8198004 3.5256002
-7.1470003 8.8354998 3.5395
-7.0625 8.8234997 3.5415001
-7.0220003 8.8355007 3.5365
-6.9779997 8.8290005 3.5369999
-6.9299998 8.8310003 3.5393333
-6.8793335 8.8190002 3.5403335
-6.820333 8.8166676 3.5356669
-6.7814999 8.8460007 3.5355
-6.718667 8.8116665 3.536
-6.691 8.8389997 3.5380001
-6.0836248 8.8276253 3.5292501
-5.8070002 8.8009996 3.5480001
-5.7800002 8.8249998 3.549
-11.602 8.8570004 3.506
-11.582 8.8739996 3.5050001
-11.462999 8.8635006 3.5075002
-11.436 8.8909998 3.506
-10.477 8.8760004 3.5016665
-10.368 8.8619995 3.503
-7.172401 8.8755999 3.5234001
-7.1259999 8.8559999 3.54
-7.0826664 8.864666 3.5340002
-7.0500002 8.8870001 3.533
-6.9665003 8.8614998 3.5325
-6.9489999 8.8879995 3.5350001
-6.8660002 8.8594999 3.5339999
-6.829 8.8759995 3.5304999
-6.7304997 8.8759995 3.5332499
-6.6760001 8.8529997 3.5380001
-6.0879998 8.8839998 3.53
-6.0109997 8.8874998 3.5475001
-5.9809999 8.8940001 3.5439999
-5.9204998 8.8699999 3.5465
-5.8800001 8.8780003 3.5420001
-5.8205004 8.8710003 3.549
-5.7789998 8.8920002 3.5480001
-5.6880002 8.8839998 3.549
-11.574 8.901 3.507
-11.5405 8.9230003 3.5040002
-11.419 8.9090004 3.506
-11.398 8.9259996 3.5039999
-10.549 8.9370003 3.5
-10.44 8.9239998 3.5020001
-7.175334 8.9273338 3.5163333
-7.1300006 8.9233341 3.5356669
-7.0834999 8.9459991 3.5320001
-7.0163336 8.9086666 3.5320001
-6.9759998 8.9375 3.5309999
-6.9180002 8.9106665 3.5349998
-6.8850002 8.9320002 3.5339999
-6.816 8.9230003 3.529
-6.776 8.9190006 3.5313334
-6.7420001 8.9399996 3.53
-6.6790004 8.9219999 3.5353334
-6.0805001 8.9227505 3.5287499
-6.0349998 8.9225006 3.5405002
-5.974 8.9169998 3.549
-5.9260001 8.9302502 3.5434999
-5.8716669 8.9210005 3.5453334
-5.8306665 8.9366674 3.5486667
-5.7940001 8.9469995 3.5450001
-5.7323337 8.9193335 3.5469999
-5.6894999 8.9375 3.5439999
-5.6409998 8.9139996 3.549
-5.5839996 8.9440002 3.5475001
-5.546 8.901 3.549
-5.4970002 8.9280005 3.5480001
-11.612 8.9940004 3.5009999
-11.527 8.9619999 3.507
-11.488501 8.9799995 3.503
-10.535999 8.9735003 3.5035
-7.16675 8.9697495 3.5209999
-7.138 8.9969997 3.533
-7.0650001 8.9700003 3.5339999
-7.026 8.9850006 3.5306668
