# .PCD v0.7 - Point Cloud Data file format
VERSION 0.7
FIELDS x y z
SIZE 4 4 4
TYPE F F F
COUNT 1 1 1
WIDTH 1909
HEIGHT 1
VIEWPOINT 0 0 0 1 0 0 0
POINTS 1909
DATA ascii
-1.535 16.302 0.55000001
-1.48 16.322001 0.55000001
-1.393 16.316 0.55000001
-7.3200002 16.365 0.56999999
-7.2800002 16.351999 0.56900001
-7.2129998 16.356001 0.56800002
-7.1929998 16.386999 0.56900001
-2.632 16.368 0.55599999
-2.5725 16.360001 0.55550003
-2.5149999 16.361 0.55500001
-2.4119999 16.351 0.55500001
-2.385 16.365999 0.55500001
5.0664997 16.091999 0.625
5.1289997 16.094999 0.62599999
5.1719999 16.087999 0.62599999
5.2049999 16.091999 0.62699997
7.1350002 16.073 0.62099999
6.1455002 16.147499 0.625
-1.483 16.195 0.63099998
-1.411 16.195 0.63099998
-1.382 16.183001 0.63
2.164 16.198 0.634
7.1430001 16.167 0.62400001
-3.0280001 16.208 0.63999999
-1.988 16.239 0.60600001
-1.931 16.24 0.60600001
-1.8823333 16.236334 0.6146667
-1.845 16.238499 0.61950004
-1.7676667 16.227667 0.6146667
-1.729 16.232 0.61900002
-1.6854999 16.225752 0.61900002
-1.62825 16.223 0.61825001
-1.5699999 16.2215 0.61800003
-1.528 16.220501 0.61800003
-1.4860001 16.233 0.60399997
-1.433 16.226667 0.61300004
-1.3656667 16.221668 0.6123333
-1.3275 16.220001 0.61699998
-1.2896667 16.221334 0.62199998
0.373 16.247 0.63
0.40200001 16.247999 0.63099998
0.4725 16.245501 0.63099998
0.62699997 16.225 0.63
0.65700001 16.245001 0.602
1.197 16.249001 0.60399997
1.255 16.249001 0.60399997
1.339 16.242001 0.60399997
1.383 16.2365 0.60350001
1.7870001 16.235334 0.62400001
1.8255 16.241001 0.62
1.8677499 16.2355 0.61975002
1.909 16.215 0.63300002
2.1830001 16.224998 0.62099999
2.2280002 16.2395 0.62199998
2.2756667 16.237333 0.62666667
2.3236666 16.239334 0.62700003
2.385 16.224499 0.63599998
2.4720001 16.231501 0.63700002
2.5745001 16.241001 0.62349999
-2.6055 16.2915 0.62549996
-2.5764999 16.292999 0.62549996
-2.527 16.284 0.62
-2.4745002 16.28525 0.62450004
-2.421 16.281002 0.62900007
-2.3803334 16.269001 0.61866665
-2.3425 16.274 0.62349999
-1.9713334 16.256001 0.62566662
-1.918 16.2565 0.63499999
-1.8175 16.255001 0.62
-1.79 16.253 0.634
0.287 16.275 0.60299999
0.33433336 16.264 0.6123333
0.373 16.278 0.60299999
0.42066669 16.264334 0.6123333
0.47299999 16.262501 0.60299999
0.52974999 16.256001 0.61675
0.57300001 16.2635 0.61699998
0.60966671 16.261667 0.61266673
1.198 16.257 0.63200003
1.227 16.255501 0.61800003
1.2743334 16.261999 0.62333333
1.3210001 16.253334 0.62333333
1.913 16.25 0.60600001
2.201 16.256001 0.60799998
2.2579999 16.250999 0.60799998
2.346 16.257 0.60900003
2.375 16.254999 0.60900003
2.4749999 16.251499 0.60900003
-7.3316669 16.341002 0.61100006
-7.277667 16.321001 0.62033337
-7.2185001 16.33 0.63
-2.55 16.312 0.63999999
-7.1914997 16.382999 0.61549997
5.0669999 16.044001 0.68199998
5.1259999 16.041 0.68300003
5.086 16.056999 0.66799998
5.1205001 16.068501 0.65399998
5.17875 16.061501 0.66949999
7.1315002 16.064999 0.66649997
1.927 16.136499 0.67299998
-2.0109999 16.184999 0.69
-1.9690001 16.195 0.69
-1.924 16.18 0.68900001
-1.881 16.1805 0.68900001
-1.8245 16.186501 0.68900001
-1.781 16.181 0.68800002
-1.697 16.195999 0.68900001
-1.497 16.195999 0.68800002
-1.4119999 16.198999 0.68800002
-1.354 16.198999 0.68699998
0.37099999 16.179001 0.68400002
0.40933335 16.190666 0.67566669
0.47100002 16.190498 0.685
0.52750003 16.192501 0.685
0.58350003 16.190001 0.685
0.65399998 16.186001 0.685
1.223 16.198999 0.68699998
1.251 16.198999 0.68699998
-3.0310001 16.2215 0.68350005
-2.5815001 16.231501 0.69499999
-2.5219998 16.2215 0.69449997
-2.4650002 16.220501 0.69400001
-2.4219999 16.219 0.69300002
-2.3765001 16.208 0.6925
-2.016 16.228001 0.66299999
-1.989 16.239 0.66299999
-1.9299999 16.233999 0.66299999
-1.8865 16.2295 0.662
-1.8285 16.223 0.66149998
-1.7676667 16.227333 0.67166662
-1.7189999 16.223667 0.671
-1.671 16.2215 0.67500001
-1.6287501 16.226 0.67524999
-1.5695 16.214001 0.67474997
-1.528 16.219999 0.67500001
-1.4799999 16.216665 0.6693334
-1.4326667 16.220667 0.66966671
-1.3756666 16.221668 0.6693334
-1.3275 16.2185 0.67400002
-1.2852499 16.21875 0.67400002
0.34299999 16.205999 0.65700001
0.37200001 16.207001 0.65700001
0.42899999 16.236 0.65799999
0.472 16.227001 0.65799999
0.52950001 16.24 0.65849996
0.62699997 16.211 0.68599999
1.194 16.201 0.68699998
1.2804999 16.220001 0.6735
1.3085001 16.220501 0.6735
1.7379999 16.219501 0.67550004
-7.3325 16.280001 0.69199997
-7.2670002 16.2845 0.676
-7.2243338 16.278 0.68000001
-2.49 16.288 0.66799998
-2.4170001 16.285 0.66750002
-2.3440001 16.281 0.667
-1.961 16.25 0.66399997
-7.3299999 16.311001 0.662
-7.2909999 16.299999 0.66100001
-7.2049999 16.337999 0.69300002
-7.1999998 16.326 0.66100001
30.118999 15.716 0.722
5.0960002 16.039 0.71200001
5.1289997 16.018002 0.73033333
5.1730003 16.026669 0.722
2.1500001 16.09 0.74299997
5.2279997 16.067501 0.72899997
7.1459999 16.097 0.71399999
-1.863 16.146 0.74400002
-1.75 16.148001 0.74400002
-1.692 16.143999 0.74299997
-1.6205 16.144001 0.74299997
-1.5350001 16.1425 0.74199998
-1.464 16.142 0.74199998
-1.4219999 16.1485 0.72799999
-1.3789999 16.149 0.74199998
-1.3355 16.144501 0.74199998
-1.2795 16.1465 0.74199998
1.844 16.148001 0.74400002
1.927 16.131001 0.7295
2.1559999 16.134001 0.71700001
2.358 16.145 0.74699998
-2.4324999 16.1975 0.72100002
-2.3696668 16.194334 0.73000002
-2.0085001 16.165501 0.73150003
-1.9660001 16.1695 0.73175001
-1.9245 16.181 0.73199999
-1.8836668 16.166 0.72633332
-1.82225 16.16275 0.73049998
-1.7706668 16.168335 0.72533339
-1.722 16.160999 0.73000002
-1.6746668 16.163 0.72500002
-1.6224999 16.162001 0.7155
-1.5693334 16.161001 0.72433329
-1.523 16.162001 0.71499997
-1.4843334 16.160336 0.72399998
-1.4225 16.1535 0.72799999
-1.3659999 16.164 0.71399999
-1.323 16.164 0.71399999
-1.2804999 16.157501 0.71350002
0.41799998 16.174334 0.72166669
0.47024998 16.168751 0.72650003
0.52700001 16.17725 0.72675002
0.58324999 16.17775 0.72675002
0.62549996 16.181499 0.72749996
0.65349996 16.172001 0.72650003
1.191 16.171 0.72850001
1.221 16.1805 0.72899997
1.2596667 16.191002 0.72433329
1.674 16.166 0.74400002
1.71725 16.162251 0.73000002
1.7744999 16.168501 0.73049998
1.8276666 16.173668 0.72633332
1.8740001 16.171001 0.73150003
1.903 16.164001 0.73100001
2.1894999 16.1695 0.73299998
2.23225 16.168499 0.73299998
2.2755001 16.1695 0.7335
2.3185 16.168751 0.73325002
-3.036 16.246 0.72799999
-2.9760001 16.240999 0.727
-2.579 16.216499 0.72299999
-2.5215001 16.217499 0.72249997
-2.48 16.224001 0.72299999
-7.3295002 16.272999 0.72299999
-7.2690001 16.252001 0.722
-7.2259998 16.269501 0.72150004
-3.01 16.266499 0.71399999
-7.197 16.32 0.72299999
5.131 15.962 0.79699999
5.1675 15.9775 0.78349996
5.1999998 15.982 0.79900002
7.1230001 15.969 0.76999998
5.1430001 16.000999 0.76899999
5.2140002 16.025 0.77100003
8.2849998 16.021999 0.79400003
2.145 16.056 0.79799998
-1.863 16.143999 0.77200001
-1.816 16.1105 0.79900002
-1.775 16.127001 0.79900002
-1.719 16.134001 0.79900002
-1.6816667 16.138332 0.78966665
-1.5779999 16.148001 0.79900002
-1.5296668 16.138334 0.78966665
-1.477 16.135 0.7985
-1.4205 16.1325 0.79799998
-1.377 16.121 0.79699999
-1.335 16.137501 0.79799998
-1.274 16.133667 0.78799999
0.48199999 16.108 0.79400003
0.52499998 16.118 0.79449999
0.58050001 16.1145 0.79500002
0.62199998 16.108 0.79400003
0.65100002 16.107 0.79400003
1.927 16.132 0.77200001
2.155 16.128 0.773
-2.5050001 16.198 0.77899998
-2.4760001 16.197001 0.77899998
-1.9665 16.174 0.77399999
-1.9220001 16.163 0.77399999
-1.893 16.16 0.773
-1.8225 16.1665 0.773
-1.7665 16.171499 0.773
-1.722 16.16 0.77200001
-1.6670001 16.179001 0.773
-1.6235 16.172501 0.77250004
-1.566 16.1745 0.77200001
-1.4795001 16.161999 0.77149999
-1.4235001 16.164001 0.77100003
-1.38 16.158001 0.77100003
-1.3364999 16.158501 0.7705
-1.294 16.155001 0.76999998
0.47 16.164501 0.76849997
0.52700001 16.172501 0.76899999
0.625 16.164 0.76899999
0.653 16.163 0.76899999
-7.3639998 16.24 0.78500003
-7.329 16.236 0.78399998
-7.27 16.228334 0.77233332
-7.217 16.209 0.78100002
-2.5797501 16.220251 0.76625001
-2.5273333 16.223 0.76100004
-2.4654999 16.2225 0.75099999
-2.4303331 16.214336 0.76966667
-7.3210001 16.254501 0.75349998
-7.218667 16.265667 0.7626667
30.110001 15.645 0.83999997
5.1560001 15.942 0.82599998
5.1950002 15.967 0.82700002
7.1275001 15.9785 0.81599998
2.141 16.028 0.82499999
-1.9119999 16.077999 0.82599998
-1.885 16.099001 0.82700002
-1.772 16.099001 0.82599998
-1.6725 16.0945 0.82550001
-1.601 16.086 0.82499999
-1.571 16.079 0.824
-1.5295 16.086498 0.82449996
-1.473 16.086 0.82449996
-1.4170001 16.091499 0.82449996
-1.374 16.087999 0.824
-1.33 16.0795 0.82350004
-1.2735 16.078999 0.82300001
0.53799999 16.089001 0.82099998
0.57999998 16.098499 0.82200003
1.696 16.093 0.82599998
1.751 16.089001 0.82599998
1.823 16.0935 0.8265
2.1789999 16.096001 0.829
2.207 16.091999 0.829
2.2939999 16.094999 0.82999998
2.3800001 16.097 0.82999998
-3.0409999 16.115999 0.82249999
-2.5539999 16.146999 0.80599999
-2.5250001 16.143999 0.83399999
-2.4679999 16.145 0.833
-2.4389999 16.143 0.80400002
-1.931 16.116501 0.80000001
-1.869 16.114 0.80900002
-1.816 16.107 0.82700002
-1.7366667 16.112667 0.81733334
-1.6236666 16.130669 0.80866665
0.48199999 16.105 0.82200003
0.51099998 16.117001 0.82300001
0.62199998 16.110001 0.82300001
0.64999998 16.106001 0.82200003
1.6259999 16.106499 0.82599998
1.668 16.103001 0.82599998
1.726 16.111 0.82700002
1.7819999 16.105 0.82700002
2.323 16.1 0.82999998
-7.3119998 16.197001 0.84399998
-7.2740002 16.186001 0.84299999
-7.2410002 16.188999 0.84299999
-3.0250001 16.187 0.82599998
-2.9369998 16.1845 0.82499999
-2.556 16.16 0.83499998
-2.526 16.153 0.80599999
-2.4890003 16.156334 0.81500006
-7.3530002 16.213501 0.83050001
-7.3140001 16.202999 0.81400001
-7.2820001 16.204 0.81300002
-7.2329998 16.220001 0.82333338
30.128 15.586 0.89899999
7.1199999 15.889 0.85799998
5.1900001 15.951 0.85600001
7.1350002 15.996 0.86299998
8.2209997 15.966 0.88499999
-1.285 16.045 0.87800002
-1.829 16.093 0.88300002
-1.7903335 16.087667 0.87300003
-1.7336668 16.086666 0.87266672
-1.6715 16.087749 0.86774999
-1.6196668 16.088667 0.87233341
-1.5803335 16.076 0.86199999
-1.529 16.079498 0.86650002
-1.4712499 16.067501 0.86575001
-1.4154999 16.074001 0.85150003
-1.3745 16.087999 0.86650002
-1.33025 16.079 0.86574996
-1.2739999 16.078499 0.85100001
-1.2309999 16.073999 0.87900001
0.53799999 16.087999 0.87800002
0.57999998 16.093498 0.87800002
0.63549995 16.087 0.86400002
1.6276667 16.079666 0.8623333
1.6805 16.089001 0.85350001
1.723 16.08 0.85299999
1.7650001 16.083 0.85399997
1.8775001 16.0755 0.85399997
1.921 16.086 0.85500002
2.3329999 16.073502 0.85699999
-3.0275002 16.120001 0.89399999
-2.9695001 16.123501 0.89399999
-2.925 16.115999 0.89300001
-2.8940001 16.112 0.89200002
-1.916 16.112 0.85600001
-1.8737501 16.11425 0.87025005
-1.831 16.115999 0.85600001
-1.773 16.101 0.85500002
-1.716 16.101 0.85399997
-1.418 16.105499 0.88099998
-1.262 16.101 0.88099998
0.58099997 16.112499 0.85100001
0.64999998 16.105 0.85100001
-7.3720002 16.181999 0.87599999
-7.336 16.176001 0.875
-7.2855 16.175499 0.87400001
-7.237 16.179001 0.87300003
-3.049 16.002001 0.94499999
-1.8200001 16.014999 0.935
-1.7785001 16.0245 0.93550003
-1.721 16.015499 0.93449998
-1.678 16.014999 0.93400002
-1.636 16.018002 0.93400002
-1.579 16.012001 0.93350005
-1.523 16.0135 0.93300003
-1.4665 16.015999 0.93300003
-1.424 16.01 0.93300003
-1.382 16.012501 0.9325
-1.326 16.021999 0.9325
-1.2663333 16.039001 0.92433333
0.184 16.038 0.91649997
0.58233333 16.031668 0.91200006
0.63349998 16.036751 0.91699994
1.492 16.027 0.93400002
1.5345 16.032 0.93449998
1.575 16.011999 0.93300003
1.619 16.036499 0.93550003
1.6735001 16.021 0.93449998
1.7305 16.0205 0.935
1.872 16.029499 0.93649995
-2.921 16.094999 0.92000002
-2.5450001 16.087999 0.91600001
-1.854 16.063 0.91000003
-1.825 16.056 0.90899998
-1.783 16.0655 0.9095
-1.728 16.0765 0.91000003
-1.6705 16.077499 0.9095
-1.627 16.072001 0.90899998
-1.585 16.074001 0.90849996
-1.5280001 16.071501 0.90849996
-1.47 16.056999 0.90750003
-1.429 16.066 0.90799999
-1.3859999 16.056999 0.90700001
-1.329 16.056499 0.90649998
-1.286 16.058001 0.90600002
-1.23 16.059 0.92000002
-7.3200002 16.141001 0.935
-7.2729998 16.146999 0.93449998
-3.026 16.113499 0.92250001
-2.9665 16.1045 0.92149997
-2.8924999 16.103001 0.93449998
-7.4039998 16.174999 0.93900001
-7.3664999 16.168999 0.92199999
-7.3340001 16.171 0.90600002
-7.277 16.156 0.90349996
-7.2340002 16.173 0.91900003
8.2200003 15.898 0.97600001
-1.619 15.99 0.96100003
-1.5726666 15.994001 0.97000003
-1.507 15.996 0.95999998
-1.4645 15.9925 0.95999998
-1.423 15.994 0.95999998
-1.385 15.992334 0.96899998
-1.319 15.993 0.96833336
-1.2626667 15.991 0.96799994
-1.225 15.988501 0.972
0.169 15.987 0.98400003
0.22499999 15.978 0.98299998
-5.6069999 16.014999 0.95499998
-3.056 16.040001 0.97600001
-1.823 16.039 0.96499997
-1.77775 16.01825 0.97724998
-1.7212499 16.016251 0.97675002
-1.6693333 16.015999 0.98133337
-1.6355 16.015499 0.97650003
-1.596 16.037001 0.991
-1.5273333 16.014 0.98033333
-1.4660001 16.008999 0.98900002
-1.425 16.018 0.98900002
-1.367 16.007999 0.98799998
-1.339 16.009001 0.98799998
-1.2819999 16.002001 0.98799998
0.142 16.031 0.958
0.18833333 16.026333 0.96733332
-7.3000002 16.096001 0.99400002
-11.719 16.121 0.98199999
-7.3706665 16.128002 0.977
-7.3255 16.116001 0.98049998
-7.2755003 16.115499 0.9795
-7.2484999 16.129499 0.9795
-11.702 16.158001 0.98299998
-11.671 16.174 0.98199999
30.136 15.526 1.017
6.1279998 15.854 1.046
-1.728 15.943 1.043
-1.671 15.939 1.0420001
-1.613 15.935 1.041
-1.572 15.9395 1.041
-1.5150001 15.9325 1.0404999
-1.474 15.949 1.041
-1.432 15.940001 1.0404999
0.197 15.9475 1.023
0.22400001 15.949 1.0369999
0.266 15.946 1.0369999
2.187 15.946 1.046
2.2720001 15.944 1.0470001
-5.7160001 15.967 1.043
-1.734 15.995 1.018
-1.7 15.951 1.043
-1.6454999 15.974 1.03
-1.507 15.988 1.016
-1.451 15.996 1.016
-1.3830001 15.970667 1.0326667
-1.3273333 15.982666 1.0330001
-1.2713333 15.982 1.033
-1.224 15.9785 1.0280001
0.169 15.9635 1.0239999
0.22499999 15.956 1.01
0.25299999 15.966 1.01
0.64499998 15.988 1.012
1.428 15.953 1.041
1.4705 15.9535 1.0420001
1.5275 15.959 1.0425
1.5829999 15.955999 1.0425
1.6670001 15.955 1.043
-5.7010002 16.014 1.046
-5.6725001 16.02 1.0304999
-5.6459999 16.035 1.016
-3.0555 16.035999 1.0185
-3.0275002 16.0415 1.0185
-2.9825001 16.033501 1.0319999
-2.9254999 16.037498 1.0315
-2.8655 16.030499 1.016
-1.762 16.006001 1.0190001
-1.706 16.007 1.018
-1.677 16.000999 1.018
-1.6210001 16.007 1.018
-1.579 16.012501 1.018
-1.536 16.004999 1.017
-1.479 16.004999 1.017
-1.424 16.01 1.017
-1.367 16.004999 1.016
-1.311 16.01 1.016
-1.2539999 16.004 1.016
-11.679 16.067501 1.0304999
-7.2989998 16.094999 1.025
-5.6300001 16.08 1.018
-3.0020001 16.059999 1.005
-2.971 16.049999 1.0039999
-2.9289999 16.058001 1.0039999
-11.667 16.109501 1.0315001
-7.4070001 16.111 1.029
-7.3730001 16.107 1.028
-7.3369999 16.104 1.027
-7.2709999 16.105 1.025
-11.658 16.157 1.016
6.1170001 15.825 1.073
8.1440001 15.819 1.094
-3.0615001 15.914499 1.0675
-1.6849999 15.9425 1.0700001
-1.6277499 15.93775 1.08375
-1.572 15.9355 1.08325
-1.529 15.929 1.068
-1.4820001 15.933001 1.0776666
-1.4315 15.932 1.082
-1.375 15.932 1.0817499
-1.3180001 15.922 1.0805
-1.2765 15.9305 1.081
-1.2335 15.916 1.0797499
0.14 15.9 1.089
0.17733334 15.937667 1.0830001
0.22400001 15.941 1.092
0.26133335 15.940666 1.0830001
0.308 15.941999 1.0785
1.622 15.931 1.069
1.6645 15.9385 1.0700001
2.1694999 15.927 1.0734999
2.2265 15.9285 1.074
-5.7375002 15.9825 1.0745001
-1.517 15.951 1.098
0.197 15.963 1.066
0.28 15.956 1.0650001
-7.309 16.042999 1.084
-11.678 16.065001 1.082
-7.3715 16.068501 1.072
-7.322 16.07 1.0549999
-7.2725 16.07225 1.06975
-5.7140002 16.049999 1.0779999
-11.676 16.121 1.085
7.086 15.741 1.122
7.1040001 15.705 1.1210001
3.97 15.79 1.1440001
6.1094999 15.806 1.1165
-6.3249998 15.898 1.142
-6.2579999 15.894 1.14
-1.6205 15.864 1.1485
-1.524 15.875 1.149
0.14 15.889999 1.1305001
0.18174998 15.8855 1.13025
0.223 15.89 1.1305001
0.26499999 15.887001 1.1302501
0.32075003 15.881 1.1302501
0.36300001 15.865 1.143
2.378 15.896 1.101
-6.5240002 15.939334 1.1300001
-6.469667 15.912333 1.1366667
-6.4289999 15.9165 1.131
-6.3809996 15.917 1.12975
-5.7950001 15.922 1.102
-3.0634999 15.9245 1.1255
-2.836 15.947 1.138
-2.4070001 15.924 1.132
-2.0235 15.937 1.1289999
-1.67 15.934 1.126
-1.6270001 15.9285 1.125
-1.5699999 15.919001 1.1240001
-1.528 15.926 1.124
-1.4860001 15.9245 1.124
-1.4315 15.927 1.1235
-1.3740001 15.9205 1.123
-1.318 15.921499 1.1229999
-1.276 15.924 1.123
-1.248 15.926 1.123
-6.9569998 15.998 1.1339999
-6.8569999 15.997 1.131
-6.8200002 15.989 1.13
-6.7800002 15.973 1.128
-6.7315001 15.976 1.1270001
-6.678 15.967 1.125
-6.6260004 15.9615 1.1235
-6.572 15.951 1.122
-6.3499999 15.961 1.117
-5.777 15.957 1.103
-2.0409999 15.961 1.103
-1.674 15.967 1.1
-7.368 16.0245 1.131
-7.3256664 16.029667 1.125
-7.2806664 16.028334 1.1340001
-7 16.02 1.137
-6.9250002 16 1.133
-6.8940001 16.007999 1.133
-6.3330002 16.002001 1.119
-5.7589998 16 1.105
-11.689 16.08 1.118
30.142 15.398 1.192
7.4390001 15.673 1.158
10.594 15.672 1.196
10.648 15.693 1.199
1.9069999 15.74 1.198
5.0190001 15.708 1.188
7.1030002 15.704 1.166
10.7295 15.724 1.1705
10.78 15.71 1.1720001
1.908 15.752 1.171
3.964 15.768 1.1855
5.0120001 15.778999 1.1775
-3.0725 15.821 1.175
-1.5350001 15.8445 1.1745
-1.493 15.847 1.174
-1.409 15.834 1.173
-1.352 15.822 1.199
-1.2783334 15.834333 1.1813334
-1.242 15.848 1.173
6.1069999 15.801 1.161
-6.4680004 15.8945 1.1754999
-6.4159999 15.883 1.174
-6.3800001 15.874 1.1720001
-2.4155002 15.889999 1.1575
-2.0595002 15.8815 1.1675
-2.0155001 15.874001 1.1665
-1.9816666 15.867334 1.1703334
-1.605 15.854 1.176
-1.5713333 15.883001 1.1590002
-1.467 15.862 1.175
-1.439 15.86 1.175
-1.369 15.864 1.175
-1.327 15.86 1.174
0.14 15.88 1.1720001
0.18175 15.873 1.1852499
0.26033336 15.883001 1.1810001
0.32566667 15.878334 1.181
1.5734999 15.864 1.176
1.6289999 15.864 1.177
1.727 15.863 1.177
1.824 15.8615 1.178
2.1470001 15.8625 1.1670001
-6.7839999 15.9425 1.187
-6.7320004 15.938 1.1705
-6.6789999 15.929501 1.1830001
-6.6269999 15.923 1.182
-6.5770001 15.9235 1.1654999
-6.5250001 15.915 1.178
-2.835 15.942 1.166
-2.4619999 15.919 1.188
-2.033 15.902 1.155
-1.485 15.9095 1.1505001
-1.4295 15.9115 1.1505001
-1.3745 15.927 1.1515
-1.3175 15.9165 1.15
-11.661 15.983 1.182
-7.3189998 15.99 1.174
-7.0170002 15.985 1.1805
-6.9639997 15.9755 1.1935
-6.9286666 15.982333 1.1730001
-6.8686666 15.974001 1.1706667
-6.8264999 15.9655 1.1745
-6.7719998 15.952 1.1569999
-6.7069998 15.957 1.156
-6.6739998 15.959 1.155
-6.6389999 15.952 1.153
-11.659 16.039 1.1849999
-6.9920001 16.000999 1.166
-11.668 16.052 1.151
13.492 15.53 1.229
13.48 15.573 1.23
13.474 15.622 1.232
5.0279999 15.6895 1.2444999
6.7690001 15.688 1.201
10.598 15.679 1.23
10.64 15.681 1.232
10.676 15.675 1.233
10.7255 15.688499 1.219
10.7635 15.685499 1.22
10.813666 15.680667 1.227
1.905 15.723 1.224
5.02 15.71 1.217
10.696 15.704 1.202
0.19400001 15.794 1.248
0.23550001 15.795 1.2485
3.9649999 15.771 1.228
5.0100002 15.771 1.221
-3.0749998 15.833 1.2325001
-1.492 15.833 1.229
-1.428 15.837001 1.2103333
-1.3670001 15.835 1.2145
-1.324 15.829 1.2
-1.283 15.8305 1.2135
-1.242 15.839 1.228
0.139 15.811 1.222
0.17633334 15.812 1.2313335
0.222 15.815 1.222
0.264 15.8245 1.223
0.30599999 15.83 1.224
1.7665 15.842 1.204
2.171 15.826 1.206
-6.6256666 15.894333 1.2303334
-6.5760002 15.881 1.238
-6.5230002 15.883001 1.2263334
-6.4785004 15.880501 1.22
-6.4306669 15.868668 1.2126667
-6.3769999 15.869 1.202
-6.3429999 15.861 1.2
-2.059 15.875 1.223
-2.016 15.877 1.223
-1.974 15.884001 1.2225
-1.9350002 15.874667 1.2263334
-1.5779999 15.8535 1.217
-1.5355 15.853749 1.217
-1.4756668 15.858334 1.2123334
-1.411 15.85 1.23
-1.383 15.858 1.23
-1.3279999 15.871 1.2309999
-1.298 15.852 1.229
-1.243 15.85 1.201
-11.712 15.937 1.216
-11.679 15.949 1.216
-6.9689999 15.949 1.223
-6.901 15.944 1.221
-6.8614998 15.931999 1.234
-6.822 15.942 1.2283334
-6.7706671 15.924999 1.2356668
-6.7235003 15.9185 1.2295001
-6.6793337 15.917334 1.223
-6.5704999 15.9065 1.2095001
-11.785 15.979 1.221
-7.3282504 15.974751 1.2194999
-7.1140003 15.976999 1.2135
-7.0760002 15.967 1.227
-11.664499 16.0175 1.2185
13.458 15.492001 1.28
13.467 15.558 1.265
5.059 15.646 1.271
6.6690001 15.606 1.2819999
6.9060001 15.632 1.291
7.0970001 15.619 1.296
7.0999999 15.626 1.266
1.902 15.699 1.278
3.964 15.655 1.276
5.0190001 15.6615 1.271
1.902 15.701 1.25
-2.0769999 15.796 1.2869999
-2.033 15.784 1.286
-1.9760001 15.7855 1.285
-1.9195 15.782499 1.2845
-1.88 15.797 1.285
-1.848 15.771 1.283
1.2460001 15.789 1.28
1.274 15.798 1.28
1.302 15.791 1.28
2.2190001 15.777 1.2869999
3.964 15.769 1.257
-6.3199997 15.8445 1.2585
-6.263 15.825 1.256
-6.2360001 15.836 1.2704999
-6.1810002 15.81575 1.2674999
-6.1285 15.8035 1.265
-6.0873337 15.805667 1.2693334
-1.5300001 15.842334 1.2670001
-1.4833335 15.841 1.2666667
-1.4183334 15.833334 1.2750001
-1.3713335 15.828667 1.2743334
-1.3255 15.842 1.2704999
-1.28275 15.828 1.2690001
-1.2410001 15.830999 1.2690001
0.139 15.816 1.278
0.1805 15.813 1.278
0.23550001 15.806499 1.2774999
0.27700001 15.8105 1.2639999
0.31999999 15.81525 1.2639999
0.361 15.809 1.25
-6.5809999 15.893 1.2690001
-6.5325003 15.8925 1.2674999
-6.3635001 15.874001 1.277
-6.3150001 15.871 1.29
-6.2810001 15.868 1.289
-1.438 15.851 1.258
-1.354 15.853 1.258
-6.9175 15.944 1.2515
-6.6725001 15.9135 1.273
-6.619 15.904 1.271
-6.3899999 15.9 1.294
-11.7265 15.985001 1.2715
-11.676 15.974 1.251
22.598 15.347 1.345
22.573 15.388 1.345
13.44 15.471 1.332
13.452 15.541 1.3
13.463 15.553 1.337
3.9545 15.615499 1.3155
7.0960002 15.617 1.326
1.897 15.665 1.33
1.9 15.682 1.304
5.006 15.668 1.3
6.6659999 15.675 1.316
-5.2340002 15.74 1.34
-1.456 15.741 1.3329999
-1.429 15.745 1.3329999
-1.387 15.738501 1.3315001
-1.331 15.738001 1.3315001
-1.289 15.737 1.331
-6.2519999 15.795 1.3430001
-6.2129998 15.777 1.34
-6.1680002 15.783501 1.339
-6.118 15.775 1.337
-6.0760002 15.789 1.322
-2.0749998 15.7805 1.3280001
-2.0325 15.781 1.3275
-1.9796667 15.778666 1.322
-1.9187499 15.776251 1.32575
-1.878 15.782499 1.3255
-1.8386668 15.767668 1.3286667
-1.4763334 15.763 1.3163333
-1.4165 15.7635 1.3065
-1.375 15.765 1.306
-1.3325 15.761 1.3055
-1.2726667 15.759001 1.3143334
-1.2355 15.759501 1.319
0.19400001 15.791 1.304
0.222 15.793 1.304
1.1803334 15.774668 1.3150001
1.273 15.779 1.307
-6.3270001 15.82 1.347
-6.2715001 15.804 1.329
-6.2259998 15.81 1.313
-6.1764998 15.804501 1.3115001
-6.1290002 15.804 1.3099999
-6.0869999 15.816999 1.3245001
-5.7329998 15.837 1.331
-5.6800003 15.823 1.3285
-6.3080001 15.854 1.319
-6.0560002 15.859 1.342
-5.7690001 15.85 1.3329999
22.584 15.279 1.39
25.983 15.284 1.378
22.587 15.34 1.392
25.957001 15.329 1.378
13.448 15.426 1.3660001
13.448 15.48 1.369
6.5380001 15.525 1.39
7.0915003 15.5355 1.3645
9.6895008 15.534 1.3665
13.449 15.537 1.372
5.0229998 15.5795 1.38
5.0689998 15.582 1.381
5.1149998 15.5865 1.383
6.8070002 15.555 1.372
9.665 15.555 1.383
3.9530001 15.608 1.357
7.0935001 15.6115 1.3705
1.897 15.6615 1.3715
5.0009999 15.652 1.385
-6.1669998 15.742 1.395
-5.1739998 15.739 1.367
-5.1260004 15.733 1.3659999
-5.0770001 15.719 1.363
-5.0299997 15.7175 1.362
-4.9766665 15.722667 1.3803334
-4.928 15.727 1.3890001
-6.3264999 15.7805 1.3735
-6.2789998 15.781 1.372
-6.2206664 15.77 1.3793334
-6.178 15.769 1.368
-6.1413336 15.782001 1.378
-6.0949998 15.799 1.368
-5.2160001 15.775 1.3710001
-5.0300002 15.765 1.395
-6.0819998 15.846 1.3710001
25.927 15.19 1.426
22.583 15.278 1.437
25.929001 15.252 1.428
22.583 15.337 1.439
25.912001 15.303 1.428
8.9350004 15.448 1.442
9.1090002 15.436 1.448
9.5179996 15.439 1.433
9.5769997 15.443501 1.436
9.6330004 15.444 1.438
10.237 15.435 1.431
10.32 15.443 1.4349999
10.367334 15.435333 1.4256668
10.441 15.446 1.441
13.448 15.426 1.402
8.415 15.467 1.4220001
8.4530001 15.474 1.424
9.2530003 15.494 1.426
9.3334999 15.475 1.428
9.3859997 15.468 1.4299999
9.4910002 15.456 1.433
9.6610003 15.488 1.41
10.316 15.466 1.4035001
13.452 15.485 1.405
7.0890002 15.53 1.409
9.2290001 15.516 1.427
9.3109999 15.531 1.431
9.6309996 15.501 1.41
12.762 15.5 1.41
-6.3280001 15.745 1.4299999
-6.2814999 15.747499 1.4295
-6.1999998 15.743 1.426
-5.2259998 15.714 1.425
-6.4200001 15.775 1.4354999
-6.3645 15.7565 1.4175
-6.322 15.7695 1.4025
-6.2709999 15.76 1.4
-6.237 15.757999 1.414
-6.1680002 15.784 1.4284999
-5.2140002 15.768 1.4
25.914 15.183 1.478
22.583 15.279 1.485
25.931 15.253 1.4809999
9.6040001 15.397 1.498
10.246 15.391 1.494
10.285 15.39 1.495
10.377 15.382 1.4985
8.7819996 15.43 1.465
8.9949999 15.428 1.474
9.1420002 15.432 1.48
9.1703339 15.438334 1.4606667
9.2213345 15.421 1.4723333
9.2695007 15.431 1.47
9.3747501 15.41875 1.4734999
9.4375 15.4295 1.477
9.4853334 15.426333 1.484
9.5249996 15.4195 1.48
9.5699997 15.422 1.4766668
9.6239996 15.429 1.469
10.184 15.416 1.492
10.223 15.415501 1.4775
10.272 15.43 1.465
10.305 15.42 1.466
10.373 15.406 1.4680001
10.414 15.406 1.469
9.3009996 15.452 1.457
10.5725 15.493999 1.482
10.62 15.477 1.483
10.6775 15.474 1.4855
10.747 15.487 1.49
10.788 15.487 1.4910001
10.821 15.477 1.492
10.871 15.49 1.495
10.9285 15.486 1.4979999
-5.2199998 15.698 1.4529999
-6.4860001 15.741 1.495
-6.4315 15.725 1.4915
-6.3746672 15.729 1.4803333
-6.3255 15.738501 1.4744999
-6.2734995 15.7265 1.472
-6.2220001 15.72 1.455
-5.224 15.709 1.483
-6.4580002 15.75 1.465
-6.4260001 15.751 1.464
-6.362 15.75 1.462
-6.2219996 15.773001 1.4793334
9.067667 15.386333 1.5156667
9.1240005 15.380333 1.5280001
9.2229996 15.384001 1.528
9.3295002 15.375 1.5315
9.3689995 15.3775 1.5335
9.4499998 15.391 1.522
9.5249996 15.39 1.526
9.5649996 15.394 1.528
9.6029997 15.395 1.529
10.198 15.377 1.523
10.233 15.372 1.524
10.289 15.396 1.528
10.309 15.368 1.527
10.377501 15.3815 1.5315
10.43 15.373 1.533
8.9110003 15.407 1.5
9.4980001 15.406 1.525
10.479 15.445 1.508
10.5285 15.43 1.5420001
10.578 15.417 1.543
10.635 15.442 1.5470001
10.665 15.428 1.548
10.802 15.449 1.523
10.523 15.452 1.51
10.564 15.454 1.512
10.625 15.455 1.5150001
10.683 15.453 1.517
10.73 15.462 1.52
10.776 15.47 1.523
10.856 15.469 1.526
-5.2294998 15.6335 1.52
-6.4640002 15.686 1.549
-6.423667 15.691668 1.5286669
-6.3709998 15.692 1.5470001
-6.3179998 15.6805 1.529
-6.5219998 15.709499 1.5235
-6.4720001 15.705 1.521
-6.4099998 15.71 1.549
-6.3800001 15.716 1.5190001
-6.335 15.7215 1.533
-6.2915001 15.7335 1.5325
9.5710001 15.345 1.5880001
10.212 15.34 1.586
10.251 15.34 1.5880001
10.326 15.334 1.591
10.375 15.349 1.594
10.403 15.332 1.594
9.1300001 15.35 1.568
9.2770004 15.35 1.575
9.3170004 15.355 1.577
9.3843346 15.363334 1.5700001
9.4320002 15.361 1.567
9.4720001 15.364 1.5685
9.5200005 15.362001 1.5763334
9.5744991 15.38 1.5585001
10.1835 15.356 1.569
10.227 15.362 1.556
10.2805 15.3555 1.5735
10.3215 15.3575 1.5595
10.377 15.353 1.562
10.426 15.367 1.5650001
10.686 15.399 1.58
10.801 15.391 1.585
10.491 15.405 1.571
10.527 15.4 1.572
10.568 15.402 1.574
10.615 15.412 1.577
10.65 15.406 1.579
10.729334 15.422 1.5613334
10.772 15.406 1.584
10.83 15.432 1.556
10.867001 15.427 1.574
10.919 15.443 1.561
10.803 15.451 1.556
-5.2395 15.572001 1.573
-8.5839996 15.609 1.595
-5.2320004 15.639999 1.579
-6.5770001 15.6845 1.5829999
-6.5275002 15.684999 1.5664999
-6.4853334 15.686 1.5700001
-6.4289999 15.679 1.577
-6.3800001 15.677 1.5755
-6.5679998 15.702 1.554
10.184 15.298 1.646
7.6950002 15.339 1.628
7.7270002 15.335 1.628
7.7600002 15.335 1.63
7.921 15.319 1.636
8.1400003 15.343 1.647
9.4295006 15.326 1.643
9.4829998 15.322 1.645
9.5200005 15.322 1.647
10.178 15.348 1.617
10.221667 15.315333 1.6276668
10.279 15.324 1.62
10.3265 15.3055 1.6210001
10.394 15.32 1.625
10.429 15.313 1.627
4.4759998 15.386 1.633
4.5630002 15.384 1.635
5.5760002 15.374 1.637
5.6224999 15.3785 1.6395
5.6729999 15.391 1.642
5.7205 15.3965 1.6445
5.7795 15.3895 1.6459999
5.8270001 15.394 1.648
5.8569999 15.393 1.649
6.25 15.364 1.631
6.5275002 15.386499 1.6440001
6.5690002 15.371 1.6295
6.619 15.377001 1.632
6.7820001 15.351 1.6210001
6.816 15.357 1.623
6.8649998 15.3575 1.625
6.915 15.362 1.627
6.9659996 15.365999 1.6294999
7.0229998 15.384 1.6339999
7.085 15.377 1.635
7.4200001 15.355 1.6475
7.8195 15.352 1.6340001
9.2110004 15.363 1.604
9.2910004 15.373 1.609
9.3339996 15.382 1.6109999
9.3690004 15.378 1.613
9.415 15.363 1.614
9.4650002 15.352 1.615
9.5219994 15.3555 1.6185
9.5749998 15.351 1.62
10.523 15.394 1.604
10.561 15.392 1.6059999
10.605 15.398 1.609
10.726 15.398 1.615
3.9389999 15.444 1.624
4.54 15.409 1.637
4.605 15.428 1.64
7.073 15.422 1.6390001
10.488 15.4 1.603
10.646 15.4 1.6109999
10.687 15.4 1.613
4.4650002 15.452 1.6390001
0.28549999 15.5385 1.6385
0.43700001 15.545 1.6390001
-5.2419996 15.5805 1.6315
-1.855 15.594 1.6
-1.801 15.599 1.627
-1.7180001 15.588 1.625
-1.6619999 15.584 1.624
-1.635 15.587 1.624
-1.566 15.589001 1.6235
0.32800001 15.553 1.64
0.36899999 15.556499 1.6405001
0.41 15.551 1.64
-8.5550003 15.621 1.626
-6.6760001 15.649 1.643
-6.5419998 15.64 1.638
-6.48 15.646 1.636
-6.4450002 15.639 1.6339999
-1.7474999 15.608 1.614
-8.6280003 15.688 1.635
-6.6539998 15.673 1.615
-6.6300001 15.668334 1.6336668
-6.5756674 15.669001 1.6216668
-6.5174999 15.6605 1.6240001
-6.4700003 15.660999 1.607
-6.4224997 15.6635 1.6205
-6.3940001 15.672 1.605
8.1499996 15.299 1.674
10.174 15.283 1.677
10.214 15.284 1.679
10.268001 15.288 1.671
10.321667 15.289333 1.6630001
10.37 15.285 1.687
10.4195 15.2715 1.688
7.0689998 15.343 1.691
7.9376669 15.330667 1.6776667
7.9530001 15.319 1.698
9.5629997 15.331 1.65
10.167 15.331 1.6799999
10.385 15.306 1.656
10.42 15.301 1.658
5.8870001 15.392 1.65
5.914 15.382 1.65
6.6719999 15.39 1.65
6.802 15.399 1.656
7.0770001 15.361 1.663
7.7140002 15.377 1.6619999
7.7674999 15.382 1.6645
7.8239999 15.394 1.668
7.8839998 15.38 1.669
7.9109998 15.366 1.669
8.2720003 15.397 1.658
10.185 15.358 1.65
3.937 15.434 1.651
5.9520001 15.4 1.653
6.2649999 15.402 1.665
6.6469998 15.407 1.65
6.7255001 15.405001 1.653
6.7740002 15.406 1.655
6.8410001 15.413 1.659
6.8720002 15.41 1.66
6.921 15.41 1.6615
6.98 15.433 1.666
7.4250002 15.4 1.682
7.8639998 15.407 1.671
8.2245007 15.4045 1.6559999
-1.571 15.499 1.697
3.941 15.451 1.681
-5.2475004 15.5065 1.6825
-2.0845001 15.5325 1.6799999
-2.0300002 15.5395 1.6795
-1.974 15.5385 1.6784999
-1.9170001 15.533 1.6775
-1.876 15.538 1.677
-1.8355 15.539499 1.677
-1.7795 15.5295 1.675
-1.7249999 15.528999 1.6745
-1.6646667 15.52 1.682
-1.6145 15.526 1.673
-1.586 15.514999 1.6849999
-1.5319999 15.522251 1.6855
-1.49 15.512 1.698
-5.2389998 15.572 1.674
-2.102 15.563 1.655
-2.076 15.572 1.656
-2.0355 15.579 1.656
-1.9785 15.576 1.655
-6.7049999 15.64 1.674
-6.6243334 15.629333 1.6796668
-6.579 15.625667 1.6873335
-6.5184999 15.623751 1.6800001
-6.4710002 15.626 1.664
-8.5815001 15.6695 1.6784999
10.187 15.244 1.739
10.225 15.243 1.7410001
10.2825 15.240999 1.7435
10.33 15.225 1.745
10.384 15.247 1.749
10.418 15.24 1.7180001
7.0710001 15.278 1.73
7.9850001 15.278999 1.7260001
8.1370001 15.275 1.702
8.1730003 15.278 1.704
10.167 15.272 1.7235
10.216 15.259 1.709
10.276 15.26 1.712
10.332001 15.257 1.715
10.386 15.251 1.717
6.414 15.307 1.72
7.0669999 15.34 1.721
7.9569998 15.325 1.729
10.171 15.337999 1.7290001
7.9324999 15.375 1.717
3.938 15.44 1.7079999
-3.1140001 15.455 1.745
0.18033335 15.481001 1.7320001
0.22999999 15.48575 1.72825
0.2886667 15.469333 1.7310002
0.32600001 15.471 1.74
0.37166667 15.484 1.7326667
0.52950001 15.478001 1.7420001
0.58350003 15.481 1.7420001
-1.91675 15.5305 1.7185
-1.873 15.511 1.702
-1.835 15.53525 1.71775
-1.77925 15.528749 1.7162499
-1.7286667 15.523001 1.7103333
-1.6285 15.521999 1.714
-1.573 15.52 1.727
-1.5320001 15.523 1.727
-1.4765 15.514999 1.725
0.271 15.5 1.716
-6.723 15.6075 1.7165
8.0300007 15.235 1.7544999
8.0664997 15.238 1.7715
8.1269999 15.22325 1.7735
8.1789999 15.225 1.776
10.1685 15.217 1.784
10.212 15.224 1.771
10.2735 15.228001 1.7745
10.321 15.213 1.776
10.384501 15.2205 1.78
10.418 15.241 1.751
10.45 15.23 1.784
7.0710001 15.279 1.775
8.0144997 15.27 1.772
8.2729998 15.27 1.7690001
10.164 15.268 1.772
10.485 15.281 1.757
7.0640001 15.3335 1.7645
7.993 15.328 1.7765
8.0150003 15.304 1.79
-1.619 15.429 1.799
-1.5775 15.43 1.799
-3.1159999 15.463 1.774
-2.645 15.492 1.795
-2.5899999 15.493 1.794
-2.119 15.48 1.785
-2.076 15.4705 1.7835
-2.0350001 15.471 1.7819999
-1.9679999 15.49 1.7839999
8.0935001 15.1925 1.8295
8.1306667 15.177 1.835
8.1899996 15.182 1.849
10.188 15.188499 1.8150001
10.228 15.19 1.8329999
10.267 15.189501 1.8195
10.318501 15.18 1.8380001
10.372334 15.192667 1.8200001
10.413 15.177 1.8264999
4.9239998 15.23 1.8279999
6.2880001 15.23 1.824
8.073 15.219 1.816
8.1660004 15.2 1.819
8.1999998 15.201 1.8200001
8.2720003 15.207 1.825
8.3179998 15.228 1.829
10.157 15.2 1.83
10.24 15.207 1.803
10.315 15.204 1.807
3.921 15.2625 1.8139999
7.0629997 15.2605 1.8169999
8.0380001 15.283 1.8200001
8.0579996 15.255 1.818
8.3050003 15.267 1.801
10.164 15.268 1.8199999
6.3579998 15.325 1.807
-5.2680001 15.39 1.829
-2.0309999 15.441 1.834
-1.977 15.448 1.834
-1.9330001 15.437 1.8185
-1.8775001 15.432501 1.817
-1.8280001 15.435667 1.8213333
-1.773 15.434333 1.8203334
-1.715 15.43625 1.81525
-1.674 15.436501 1.8145001
-1.638 15.439334 1.8190001
-1.577 15.424999 1.826
-1.523 15.427999 1.826
-1.467 15.42 1.824
-1.428 15.428 1.825
-1.3813334 15.413333 1.8316667
0.175 15.405001 1.8415
0.229 15.401 1.841
0.2825 15.407499 1.842
-5.2620001 15.4595 1.822
-3.1170001 15.468 1.802
-2.0755 15.46275 1.8234999
-2.0150001 15.458667 1.8173335
-1.964 15.4565 1.8075
-1.921 15.455 1.834
-1.812 15.459 1.8049999
-1.757 15.451 1.804
-1.5255001 15.457 1.8015001
-21.607 15.679 1.8279999
8.1389999 15.149 1.873
8.309 15.148 1.882
9.1730003 15.1485 1.898
10.192 15.137 1.891
10.227 15.132 1.893
10.268 15.134 1.895
10.313 15.143 1.899
7.0549998 15.174 1.867
8.1300001 15.198 1.878
8.1750002 15.154 1.876
8.2309999 15.162 1.8789999
8.274334 15.169334 1.862
8.3210001 15.168 1.854
8.3540001 15.165 1.886
9.1239996 15.16 1.896
9.1660004 15.167 1.868
10.163666 15.172 1.882
10.213 15.167 1.863
10.2725 15.1695 1.8665
10.319 15.151 1.868
10.369 15.169 1.872
10.4 15.158 1.873
10.454 15.18 1.878
3.9159999 15.244 1.853
4.9510002 15.223 1.857
6.2610002 15.239 1.882
8.0880003 15.247 1.85
8.1199999 15.243 1.881
9.1490002 15.201 1.87
10.1305 15.217501 1.8785
10.163 15.209 1.863
3.9230001 15.272 1.885
4.9699998 15.281 1.892
7.0599999 15.254499 1.8755
8.0795002 15.2625 1.8659999
-5.27 15.394 1.8729999
0.13500001 15.399 1.868
0.162 15.391 1.867
0.22850001 15.381 1.8659999
0.324 15.396 1.868
-5.2579999 15.447 1.864
-4.4250002 15.407667 1.8783333
-1.5220001 15.422501 1.8665
-1.4679999 15.42575 1.8659999
-1.427 15.422 1.865
-1.345 15.415 1.877
8.1800003 15.132 1.9195
8.2243347 15.139667 1.9170002
8.2693338 15.117667 1.9276667
8.3253336 15.134001 1.9219999
8.3780012 15.125667 1.9343333
9.0810003 15.148 1.924
9.1245003 15.13 1.9245
9.1820002 15.133 1.928
9.2229996 15.14 1.931
9.2550001 15.134 1.932
10.188 15.13 1.923
10.22 15.121 1.924
10.2775 15.118999 1.9265001
10.335 15.119 1.9299999
10.370001 15.133001 1.9116668
10.414 15.1215 1.9189999
4.9980001 15.187 1.911
7.0559998 15.177 1.927
8.1669998 15.181666 1.9286668
9.2410002 15.169 1.903
9.2690001 15.156 1.904
9.3085003 15.160999 1.9219999
10.127 15.155 1.921
10.168 15.159 1.924
4.9790001 15.218 1.928
5.007 15.214 1.943
6.2140002 15.2 1.905
8.1289997 15.2265 1.9105
3.921 15.264 1.9119999
-5.2799997 15.336 1.924
-1.473 15.342 1.924
-1.3833332 15.336668 1.9403334
-1.325 15.3345 1.9484999
-1.2695 15.319 1.9465001
-5.2674999 15.386499 1.9295
-4.4273334 15.382 1.9226668
-4.3870001 15.3585 1.9375
-2.1192501 15.380501 1.9245
-2.0657501 15.38825 1.9245
-2.0244999 15.388 1.9235001
-1.98175 15.37875 1.92225
-1.9275 15.38775 1.9222499
-1.87075 15.375001 1.91975
-1.81675 15.377749 1.91925
-1.776 15.375 1.932
-1.734 15.3645 1.9305
-1.6805 15.365 1.9295
-1.6245 15.3565 1.9275
-1.5710001 15.3625 1.9275
-1.5150001 15.353001 1.926
-1.4355 15.3655 1.9265001
-21.605 15.618 1.919
19.718 14.912 1.9960001
8.2440004 15.093 1.995
8.2749996 15.085 1.9960001
8.3080006 15.082 1.982
8.382 15.091 1.972
8.4169998 15.092 1.974
9.0419998 15.083 1.978
9.0860004 15.096 1.9809999
9.118 15.088 1.983
9.1520004 15.084 1.984
10.125 15.095 1.98
10.172501 15.0785 1.9815
10.228001 15.077 1.9685
10.276 15.0885 1.9725001
10.3125 15.0865 1.9744999
10.377001 15.087001 1.9836668
7.0524998 15.1005 1.977
8.2245007 15.12 1.9809999
8.2719994 15.112499 1.9675
8.3549995 15.104 1.972
9.0200005 15.106 1.979
9.0780001 15.113501 1.9514999
9.1359997 15.116 1.955
9.1619997 15.1 1.955
9.2250004 15.1135 1.9755
10.1305 15.1325 1.9514999
10.167 15.1 1.951
10.206 15.1 1.9529999
10.366 15.108 1.9630001
4.9829998 15.1845 1.995
5 15.193 1.9680001
7.0489998 15.163 1.999
7.0510001 15.166 1.969
8.1859999 15.174 1.969
8.21 15.155 1.969
9.0699997 15.19 1.9579999
10.477 15.155 1.974
4.9749999 15.206 1.969
6.1869998 15.21 1.992
-5.2820001 15.3415 1.982
-4.427 15.346 1.994
-4.3730001 15.326 1.9803333
-4.3280001 15.335334 1.98
-1.665 15.347 1.954
-1.636 15.339 1.9529999
-1.573 15.342667 1.9619999
-1.529 15.348 1.9529999
-1.4860001 15.335 1.9505
-1.4286668 15.338 1.9596666
-1.325 15.335501 1.9760001
-1.2695 15.3195 1.9735
0.17399999 15.31675 1.98025
-5.2709999 15.397 1.974
-4.4154997 15.3575 1.9665
-21.601999 15.558 1.9630001
-21.601999 15.616 1.965
-21.591 15.667 1.967
16.569 14.926 2.036
19.725 14.918 2.0409999
8.9829998 15.045 2.0320001
9.092 15.045 2.039
10.127001 15.021667 2.0266666
10.173 15.0235 2.0079999
10.231 15.022 2.0120001
10.263 15.014 2.0450001
7.027 15.068999 2.036
8.2740002 15.084 2.026
8.3404999 15.0785 2.0135
8.3684998 15.0665 2.0139999
8.4222498 15.070251 2.0180001
8.474 15.07 2.036
8.5159998 15.086 2.04
8.9764996 15.0625 2.0185001
9.0324993 15.0665 2.0225
9.0645008 15.059999 2.0235
9.1270008 15.062334 2.0220001
9.1865005 15.080999 2.033
10.1245 15.0945 2.0274999
10.296 15.062 2.02
10.337 15.067 2.0220001
10.374 15.064 2.0250001
10.406 15.053 2.026
4.9819999 15.136 2.046
8.2519999 15.108 2.027
10.444 15.108 2.0009999
4.9743338 15.173667 2.0310001
6.1745 15.179001 2.0310001
7.046 15.155 2.027
-5.2865 15.268 2.0310001
-4.368 15.2905 2.0415001
-4.3260002 15.2935 2.0265
-4.296 15.292 2.039
-2.039 15.293 2.0350001
-1.9579999 15.299 2.0350001
-5.283 15.343 2.026
-4.4569998 15.347 2.023
-4.425333 15.306334 2.0356665
-4.375 15.3155 2.017
-4.302 15.31 2.013
-1.9859999 15.305 2.036
-14.5305 15.406 2.0265
-14.521 15.451 2.0480001
-21.611 15.565 2.01
-21.611 15.622 2.013
19.691 14.893 2.0799999
16.58 14.937 2.0769999
7.0500002 15.026 2.072
8.3299999 15.028999 2.069
8.3726673 15.033668 2.0669999
8.4280005 15.029333 2.0799999
8.4805002 15.021999 2.0774999
8.5050001 15.005 2.092
8.9239998 15.024 2.0783334
8.9775 15.0345 2.0774999
9.0273342 15.017668 2.0840001
9.0819998 15.0285 2.0834999
9.1230001 15.038 2.0710001
10.107 15.01 2.0669999
10.295 15.006 2.079
10.327 15.024 2.066
10.388 15.026 2.0539999
5.7919998 15.067 2.072
7.0440001 15.082 2.0780001
8.2860003 15.073999 2.056
8.3175001 15.069 2.0879998
8.4630003 15.05 2.0639999
8.5480003 15.083 2.072
9.0249996 15.054 2.0669999
10.367 15.055 2.056
3.915 15.131001 2.0760002
4.9729996 15.1095 2.0840001
7.0300002 15.122 2.082
8.2770004 15.1215 2.0755
8.9549999 15.116 2.069
4.9619999 15.167 2.0769999
6.1630001 15.151 2.0710001
-5.3010001 15.225 2.098
-4.4250002 15.237 2.0929999
-1.3699999 15.231 2.085
-1.303 15.239 2.099
-1.276 15.235 2.0710001
0.16 15.239 2.092
-5.2930002 15.285 2.0769999
-4.4159999 15.273666 2.0786667
-4.3745003 15.264 2.0805001
-4.3309999 15.26075 2.079
-4.2930002 15.279 2.0940001
-2.0799999 15.294001 2.0634999
-2.026 15.2935 2.0625
-1.8325 15.2805 2.07125
-1.77825 15.280001 2.07025
-1.723 15.268749 2.0680001
-1.6702501 15.27175 2.0675001
-1.615 15.2665 2.0662498
-1.5745001 15.2665 2.0655
-1.5345 15.2715 2.0657501
-1.47975 15.265501 2.0639999
-1.4313334 15.268333 2.0686667
-1.358 15.253 2.075
-1.3185 15.257999 2.0749998
-4.2989998 15.301 2.0680001
-14.527 15.402 2.082
-14.523 15.454 2.086
-21.563 15.53 2.053
19.701 14.9 2.125
8.3810005 14.987001 2.1236668
8.4130001 14.962 2.1429999
8.4530001 14.974 2.1459999
8.5340004 14.996 2.1229999
8.8400002 14.982 2.141
8.8640003 14.963 2.1400001
8.9049997 14.972 2.1440001
8.9514999 14.990999 2.1335001
9.0229998 14.991 2.122
10.112 14.962 2.1259999
7.0434999 15.011999 2.1139998
8.3459997 15.026 2.115
8.3664999 15.033 2.1475
8.4420004 15.015 2.1199999
8.4720001 15.008 2.1210001
8.507 15.008 2.1229999
8.5704994 15.031 2.1139998
8.8870001 15.002 2.115
8.9239998 15.004 2.1170001
8.9960003 15.006 2.122
9.0760002 15.018 2.128
10.12 15.0305 2.1175001
10.329 15 2.112
2.901 15.059 2.132
4.9660001 15.088 2.1240001
5.7740002 15.098 2.1040001
7.0415001 15.077499 2.1215
8.323 15.0785 2.1195002
8.8909998 15.068 2.122
9.1470003 15.077 2.108
3.9194999 15.148001 2.1335001
6.1490002 15.117 2.1240001
-5.3010001 15.224 2.1270001
-4.4559999 15.245 2.1229999
-4.4235001 15.232 2.135
-4.3726668 15.224667 2.1366668
-4.3214998 15.227251 2.1305001
-1.438 15.247 2.102
-1.3715 15.2465 2.1145
-1.331 15.242 2.0999999
-1.277 15.246 2.0999999
-5.2915001 15.281 2.119
-4.467 15.282 2.0999999
-4.401 15.256 2.1229999
-14.665 15.333 2.1240001
-14.552 15.374 2.119
-14.528 15.403 2.1199999
8.6079998 14.946 2.184
8.8240004 14.934668 2.1860001
8.8540001 14.947 2.1689999
7.0310001 14.985 2.184
8.4320002 14.966499 2.1750002
8.4874992 14.974501 2.1635001
8.5300007 14.969 2.171
8.5699997 14.9715 2.1684999
8.6000004 14.993 2.158
8.7880001 14.953 2.1960001
8.8959999 14.957 2.1719999
8.9329996 14.961 2.175
8.9809999 14.9805 2.1645
9.0139999 14.977 2.1665001
10.117001 14.9695 2.1754999
2.8975 15.042 2.1705
5.678 15.004 2.1730001
7.039 15.002 2.1570001
8.3830004 15.031 2.1789999
8.4090004 15.017 2.1789999
8.8299999 15.025 2.1760001
9.0670004 15.004 2.1570001
3.092 15.063 2.1919999
4.9615002 15.073999 2.164
6.164 15.079 2.178
3.1059999 15.128 2.175
-5.3060002 15.15 2.175
-4.4099998 15.186 2.198
-4.3640003 15.193333 2.1883333
-4.3245001 15.186501 2.1815
-1.9170001 15.198 2.184
-1.701 15.194 2.1800001
-1.6345 15.191 2.1785002
-1.566 15.183 2.1760001
-1.5265 15.188499 2.1765001
-1.483 15.16 2.1989999
-1.4299999 15.159 2.198
-1.3645 15.1705 2.1989999
-1.325 15.173 2.1989999
-1.27 15.162 2.1960001
-5.3039999 15.232 2.1849999
-5.296 15.209 2.1530001
-4.4520001 15.232 2.1500001
-4.4324999 15.212 2.1745
-4.3850002 15.201 2.171
-4.309 15.234 2.1730001
-1.8234999 15.2045 2.1830001
-1.7695 15.2025 2.1824999
-1.729 15.2 2.181
-14.571 15.341 2.155
-14.661 15.382 2.165
-14.552 15.374 2.194
-14.537 15.358 2.154
-14.53 15.405 2.1570001
13.436 14.831 2.2149999
5.5960002 14.944 2.247
8.4740009 14.931 2.224
8.5209999 14.934334 2.2176666
8.576334 14.931334 2.2309999
8.6385002 14.938499 2.2305
8.6599998 14.915 2.2449999
8.7270002 14.91 2.2490001
8.7729998 14.928 2.223
8.8210001 14.92 2.2249999
8.8800001 14.9305 2.2145
8.9115 14.9235 2.2154999
8.9549999 14.9375 2.2205
10.108999 14.9015 2.2319999
10.458 14.904 2.2079999
13.465 14.917 2.224
3.0780001 14.993 2.237
8.4350004 14.972 2.2065001
8.4540005 14.977 2.2379999
8.6110001 14.951 2.2149999
8.7700005 14.983 2.2290001
9.0089998 14.969 2.2119999
10.122 14.977 2.2249999
2.8930001 15.0205 2.2220001
3.082 15.012 2.2119999
3.9119999 15.011499 2.2255001
6.1170001 15.04 2.2279999
7.0439997 15.014 2.2315001
8.4225006 15.011 2.2249999
4.9575 15.063499 2.2190001
5.6700001 15.059 2.2079999
6.1220002 15.052 2.201
-1.3355 15.147 2.2360001
0.345 15.149 2.214
-5.309 15.159 2.2185001
-4.4679999 15.184 2.2290001
-4.4266663 15.175667 2.2163334
-4.3779998 15.175 2.224
-4.3320003 15.16325 2.2344999
-1.727 15.182 2.2060001
-1.5746667 15.177334 2.2116668
-1.4663334 15.173334 2.2186668
-1.4123334 15.166334 2.217
-1.376 15.154 2.224
-1.323 15.157 2.223
-1.2980001 15.1755 2.2125001
-5.302 15.226 2.2130001
-14.622 15.395 2.2
13.448 14.844 2.2880001
13.4685 14.8165 2.2690001
13.5105 14.8095 2.2719998
8.5300007 14.890334 2.2736669
8.5740004 14.888 2.2969999
8.6099997 14.889 2.299
8.7733335 14.889 2.2696667
8.8179998 14.886 2.2820001
8.8520002 14.884 2.2839999
10.115 14.854 2.2750001
10.343 14.851 2.2590001
10.388 14.859 2.2950001
10.414 14.897 2.2690001
13.439 14.888 2.2550001
13.455 14.853 2.2539999
7.0295 14.9135 2.2775002
8.4890003 14.918 2.2639999
8.5139999 14.903 2.2950001
8.5889997 14.913 2.27
8.618 14.903 2.2709999
8.6690006 14.901 2.2740002
8.7250004 14.907 2.279
8.7639999 14.912 2.2509999
8.835 14.914 2.256
8.8795004 14.9 2.2725
8.9250002 14.917 2.2620001
10.122 14.921 2.283
2.888 14.993 2.286
3.905 14.9865 2.277
8.4729996 14.979 2.2705002
2.8900001 15.005 2.26
6.12325 15.01775 2.2692502
-5.3169999 15.097 2.2539999
-5.3109999 15.1225 2.2709999
-4.428 15.148 2.2780001
-4.3809996 15.132999 2.2740002
-4.3290005 15.136667 2.2820001
-5.309 15.159 2.29
-4.4595003 15.1565 2.267
-4.4190001 15.1675 2.2525001
-4.3740001 15.162 2.25
7.3140001 14.842 2.3299999
10.1065 14.8405 2.3210001
10.362 14.822 2.322
13.496 14.847 2.3269999
13.546 14.848 2.3310001
7.3239999 14.862 2.303
8.5815001 14.870501 2.326
8.6309996 14.866 2.3134999
8.6709995 14.8735 2.3169999
8.7279997 14.8815 2.3217499
8.7749996 14.8725 2.3239999
8.8227501 14.86425 2.3262501
8.8839998 14.878 2.3169999
13.46 14.858 2.325
5.382 14.924 2.3180001
5.408 14.915 2.3469999
7.0339999 14.924 2.323
8.5225 14.946501 2.316
8.5539999 14.912 2.329
2.885 14.980499 2.3245001
3.9054999 14.987499 2.3325
6.0924997 14.9805 2.3204999
-5.3284998 15.044001 2.3179998
-5.3164997 15.0955 2.3245001
-4.3559999 15.098 2.3239999
-1.664 15.097 2.3280001
-1.638 15.097 2.3269999
-1.557 15.091 2.325
-1.5174999 15.097 2.3255
-1.477 15.099 2.325
-1.4367499 15.08775 2.3362498
-1.3824999 15.07625 2.3337498
-1.3304999 15.083 2.33425
-1.2895 15.067499 2.3315001
-4.4639997 15.122999 2.3185
-4.427 15.110001 2.3193333
-4.3813334 15.119667 2.3096669
-4.3299999 15.106 2.3239999
-1.6210001 15.106667 2.3103335
10.11 14.792 2.3794999
7.0180001 14.822 2.3970001
8.6203337 14.826667 2.3740001
8.6850004 14.838 2.3900001
8.7189999 14.837 2.3769999
8.7694998 14.8335 2.3954999
8.8245001 14.8375 2.3845
3.9045 14.879 2.3715
5.428 14.89 2.3729999
7.0310001 14.85 2.372
8.5876675 14.870667 2.3666668
8.6784992 14.856 2.3614998
8.7639999 14.855 2.3670001
8.8009996 14.856 2.3699999
10.117 14.856 2.3710001
6.0700002 14.926 2.3829999
7.0345001 14.925 2.3674998
2.8835001 14.972 2.3775001
3.9030001 14.978 2.372
-5.3310003 15.024333 2.3773334
-1.286 15.026 2.392
-4.4689999 15.091 2.3705001
-4.416667 15.075333 2.3703334
-4.3693337 15.077333 2.3590002
-4.3296671 15.074 2.3663335
-1.476 15.081 2.3499999
-5.3195 15.103001 2.3825002
-4.4460001 15.109 2.358
7.3140001 14.775 2.4389999
8.5480003 14.782 2.4349999
8.5680008 14.785999 2.421
8.6090002 14.768 2.437
8.6789999 14.788668 2.4346666
10.11 14.791 2.427
5.4109998 14.842 2.421
7.0289998 14.845 2.4300001
7.3400002 14.827 2.418
8.5369997 14.823 2.4389999
8.6164999 14.809999 2.4124999
8.665 14.804 2.415
8.7390003 14.812 2.421
8.7779999 14.819 2.425
8.8274994 14.8135 2.428
3.898 14.855 2.4360001
3.9000001 14.861 2.4100001
6.0560002 14.891 2.4349999
2.8765001 14.9375 2.4264998
-5.3354998 14.9805 2.4229999
-3.951 14.954 2.4260001
-1.415 14.996 2.4430001
-5.3280001 15.042 2.4320002
-4.4520001 15.032 2.431
-4.4239998 15.035 2.4300001
-4.3845 15.047 2.4299998
-4.3385 15.0365 2.4130001
-1.681 15.008 2.4489999
-1.377 15.011499 2.4449999
-4.4744997 15.0605 2.4219999
-4.4165001 15.0575 2.405
-4.3740001 15.06 2.404
-4.3200002 15.071 2.4030001
8.4829998 14.73 2.484
8.5220003 14.737 2.4879999
8.5770016 14.732668 2.4813335
8.6260004 14.738 2.4960001
8.6625004 14.7415 2.4835
10.115 14.743 2.4695001
13.312 14.747 2.48
13.3665 14.730499 2.483
13.432 14.724 2.4879999
5.3319998 14.787 2.493
7.0250001 14.77 2.4779999
8.4840002 14.791 2.4920001
8.5184994 14.7605 2.46
8.5640001 14.75 2.4619999
8.6409998 14.763 2.4690001
8.7150002 14.771 2.4760001
8.7754993 14.785 2.4815001
