# .PCD v0.7 - Point Cloud Data file format
VERSION 0.7
FIELDS x y z
SIZE 4 4 4
TYPE F F F
COUNT 1 1 1
WIDTH 1741
HEIGHT 1
VIEWPOINT 0 0 0 1 0 0 0
POINTS 1741
DATA ascii
-20.122999 -6.717 1.156
-20.068001 -6.7185001 1.1719999
-20.027 -6.724 1.188
-19.944 -6.7350001 1.184
-20.301001 -6.6599998 1.164
-20.2355 -6.6774998 1.1799999
-20.16 -6.691 1.1569999
-20.148001 -6.6880002 1.194
-20.380001 -6.6259999 1.1675
-21.084999 -6.5110002 1.164
-20.997 -6.5250001 1.16
-21.181 -6.46 1.168
-21.131001 -6.4860001 1.166
-20.955 -6.4710002 1.1950001
-21.235001 -6.4359999 1.17
-20.992001 -6.4429998 1.196
-21.413 -6.3660002 1.178
-21.358999 -6.3909998 1.176
-21.252001 -6.3990002 1.17
2.9419999 -11.151 1.2359999
2.641 -11.106 1.204
2.6715002 -11.106 1.2045
2.7179999 -11.1075 1.21075
2.7856669 -11.108001 1.2273333
2.8258333 -11.1165 1.2295001
2.8738334 -11.125 1.2215
3.0009999 -11.14 1.237
2.345 -11.053 1.211
2.375 -11.051 1.2114999
2.4489999 -11.069 1.215
2.4755001 -11.052999 1.214
2.5332501 -11.061749 1.2212501
2.58125 -11.07075 1.22875
2.6206002 -11.0722 1.2236
2.6733999 -11.088201 1.2348001
2.7302499 -11.0935 1.2347499
2.2319999 -11.015 1.2195001
2.2695003 -11.013 1.2251667
2.3226669 -11.025667 1.2278334
2.3745 -11.02575 1.2387501
2.4171667 -11.031166 1.2271667
2.473 -11.0425 1.233
2.5155001 -11.0495 1.2344999
2.2839999 -10.999 1.234
1.586 -10.908501 1.211
1.63475 -10.9095 1.2162499
1.677 -10.916201 1.2187999
1.7262501 -10.919126 1.224
1.7743334 -10.927168 1.2256668
1.8220001 -10.933875 1.2272501
1.3355 -10.8595 1.2114999
1.3755 -10.865 1.2125001
1.4246668 -10.872667 1.2143333
1.4760001 -10.872 1.2276667
1.5226668 -10.8795 1.2260001
1.5686668 -10.882 1.2303333
1.6127501 -10.891749 1.2285
1.6619999 -10.894 1.24
1.701 -10.9 1.221
1.091 -10.807 1.2029999
1.119 -10.8025 1.2215
1.178 -10.820499 1.205
1.2270001 -10.815 1.2221249
1.2735001 -10.825667 1.2265
1.319 -10.826715 1.2324286
1.369 -10.839333 1.2353334
1.421 -10.843333 1.2303333
0.97560006 -10.761001 1.2229999
1.0300001 -10.772286 1.2225716
1.0721668 -10.782167 1.2188334
1.1295714 -10.786286 1.2198572
1.1752499 -10.7935 1.23125
1.204 -10.8 1.242
0.43266666 -10.659 1.2063334
0.47366667 -10.662667 1.2226667
0.52333331 -10.667999 1.2201667
0.56999999 -10.677999 1.2216666
0.62577778 -10.681 1.2225556
0.17399999 -10.601 1.211
0.23100001 -10.603 1.23
0.26883334 -10.617332 1.223
0.32500002 -10.627167 1.2240001
0.37199998 -10.6305 1.22475
0.41580001 -10.644401 1.2284001
0.039666668 -10.568001 1.22
0.072999999 -10.571501 1.21725
0.11883333 -10.5815 1.2183335
-0.77399999 -10.408 1.211
-1.027 -10.3645 1.2079999
-1.601 -10.262 1.205
-1.6700001 -10.237333 1.2036667
-1.6255 -10.2445 1.2035
-5.6230001 -9.5030003 1.2029999
-5.5700002 -9.5089998 1.2005
-5.6630001 -9.4569998 1.201
-5.6359997 -9.4694996 1.201
-5.5929999 -9.4899998 1.2
-5.5136671 -9.4576674 1.2183334
-5.4742007 -9.462801 1.2334001
-5.276 -9.4876671 1.2340001
-5.7268004 -9.4136 1.2162001
-5.67625 -9.4243755 1.22075
-5.6234999 -9.4294996 1.2255001
-5.5782003 -9.4350004 1.2252001
-6.1139998 -9.3739996 1.2
-6.5939999 -9.3070002 1.2029999
-6.5395002 -9.3164997 1.2
-6.3540001 -9.309 1.2079999
-6.3166666 -9.3126669 1.2130001
-6.2767501 -9.3179998 1.21425
-6.2236671 -9.3215008 1.2145
-6.1762862 -9.3271437 1.2190001
-6.1258001 -9.3284006 1.2276
-6.0900002 -9.3369999 1.2244999
-6.6539998 -9.2539997 1.202
-6.6134996 -9.2665005 1.2054999
-6.5609999 -9.2784996 1.2179999
-6.5240002 -9.2595005 1.2244999
-6.4768004 -9.2718 1.2204001
-6.4224 -9.2772007 1.2214001
-6.3725004 -9.2841673 1.2270001
-6.3322496 -9.2950001 1.2355
-6.2713332 -9.293334 1.2413334
-6.2259998 -9.2959995 1.239
-6.6199999 -9.24125 1.22875
-7.4159999 -9.1540003 1.201
-7.5040002 -9.1020002 1.202
-7.4720001 -9.1259995 1.202
-7.4349999 -9.1450005 1.201
-7.3660002 -9.1084995 1.2145
-7.3214006 -9.1080008 1.2238001
-7.2734003 -9.1258001 1.2260001
-7.2269998 -9.1262007 1.2234
-7.5190005 -9.0741997 1.2256001
-7.46875 -9.0747499 1.22875
-7.4280005 -9.0887508 1.227
-7.3840003 -9.0930004 1.2283334
-9.4580002 -8.7539997 1.2
-9.6780005 -8.71 1.212
-9.6245003 -8.7084999 1.2079999
-9.5743341 -8.7183332 1.2133334
-9.5308332 -8.723834 1.2255001
-9.4778004 -8.7292013 1.2268001
-9.4090004 -8.7089996 1.216
-9.8710003 -8.6689997 1.2
-9.8180008 -8.6626673 1.227
-9.777667 -8.6680002 1.2320001
-9.7284994 -8.6794996 1.22525
-9.6830006 -8.6844997 1.2225001
-9.6405001 -8.6925001 1.2309999
-9.592 -8.6949997 1.228
-10.698 -8.5109997 1.249
-10.881001 -8.4575005 1.2344999
-10.82 -8.4554996 1.2179999
-10.781334 -8.4653339 1.212
-10.725801 -8.4782 1.2202001
-10.6705 -8.474 1.2205
-11.114 -8.408 1.224
-11.025333 -8.4226665 1.2346667
-10.973667 -8.4333344 1.2316668
-10.925001 -8.4360008 1.2203333
-10.875 -8.4379997 1.209
-10.846 -8.4449997 1.207
-11.374 -8.3590002 1.24
-11.322001 -8.3659992 1.2365
-11.273 -8.3745003 1.221
-11.225001 -8.3796673 1.2223333
-11.177668 -8.385334 1.211
-11.1355 -8.3944998 1.2125001
-11.078501 -8.3969994 1.233
-11.0315 -8.3920002 1.2295001
-11.4295 -8.3389997 1.23
-11.375999 -8.3396673 1.2226666
-11.32 -8.3500004 1.211
-11.278 -8.3479996 1.2079999
-11.395 -8.2825003 1.225
-12.161 -8.2069998 1.237
-12.48 -8.1564999 1.2305
-12.414 -8.1599998 1.226
-12.362 -8.1564999 1.2355001
-12.337001 -8.1813335 1.2396667
-12.273001 -8.1800003 1.2263334
-12.2085 -8.1779995 1.2260001
-12.1805 -8.1900005 1.2244999
-12.14 -8.1929998 1.209
-12.609 -8.132 1.239
-12.583 -8.1459999 1.237
-12.521334 -8.1263332 1.2146667
-12.481 -8.1420002 1.204
-12.437 -8.1440001 1.201
-12.554 -8.0959997 1.207
-12.539 -8.0559998 1.23
-13.207 -8.0055008 1.234
-13.164 -8.0109997 1.2180001
-13.128333 -8.010334 1.2336668
-13.072668 -8.0279999 1.2303334
-13.0215 -8.0324993 1.2095001
-13.416 -7.9623337 1.215
-13.3315 -7.9705 1.214
-13.291 -7.9920001 1.226
-13.231 -7.9879999 1.2355001
-13.677999 -7.9060001 1.2344999
-13.623667 -7.916667 1.227
-13.5765 -7.9254999 1.229
-13.521999 -7.9303336 1.23
-13.474 -7.9440002 1.2225
-13.426 -7.947 1.233
-13.312 -7.9429998 1.225
-13.661 -7.8629999 1.2460001
-14.387 -7.756 1.206
-14.332001 -7.7579999 1.2165
-14.276 -7.7720003 1.2090001
-14.238 -7.7729998 1.225
-14.186 -7.7764997 1.2360001
-14.13 -7.7883334 1.228
-14.5255 -7.7174997 1.242
-14.473667 -7.7270002 1.22
-14.4185 -7.7399998 1.2214999
-14.371 -7.7480001 1.233
-17.024 -7.3119998 1.204
-16.851 -7.3080001 1.226
-16.790001 -7.316 1.223
-17.071333 -7.2753334 1.2276667
-17.045 -7.2870002 1.205
-16.91 -7.2979999 1.229
-18.17 -7.0289998 1.232
-18.084999 -6.961 1.226
-19.233 -6.8340001 1.219
-19.156 -6.7680001 1.214
-19.16 -6.7319999 1.249
-20.289 -6.6560001 1.201
-19.945999 -6.658 1.219
-19.874001 -6.6729999 1.216
-19.82 -6.6739998 1.2309999
-20.318001 -6.6259999 1.202
-20.155001 -6.612 1.23
-20.069 -6.6230001 1.225
-20.014999 -6.6430001 1.223
-20.360001 -6.5599999 1.24
-20.326668 -6.5756674 1.2136668
-20.219 -6.5939999 1.233
-20.327999 -6.5110002 1.238
-21.155001 -6.4109998 1.243
-21.139999 -6.4070001 1.204
-21.073 -6.428 1.2195001
-20.981001 -6.4400001 1.234
-21.410999 -6.3660002 1.217
-21.315001 -6.3779998 1.212
-21.2215 -6.3899999 1.227
2.9219999 -11.152 1.256
2.8110001 -11.125 1.25
2.8815 -11.115499 1.2515
2.9349999 -11.124 1.2539999
2.9763334 -11.125667 1.255
2.5270002 -11.056999 1.256
2.579 -11.062 1.2574999
2.608 -11.051 1.257
2.2360001 -11.012 1.2640001
2.2765 -11.0145 1.265
2.3685 -11.019 1.258
2.4419999 -11.039 1.252
2.4695001 -11.025499 1.2509999
2.6364999 -11.044 1.257
2.2720001 -10.992 1.263
2.3215001 -10.988501 1.2635
1.7213334 -10.903999 1.2613333
1.7725 -10.9145 1.2635
1.8223333 -10.920668 1.2646668
1.386 -10.867 1.252
1.4135001 -10.8605 1.251
1.4714999 -10.860001 1.252
1.5223334 -10.875667 1.2546668
1.572 -10.882 1.256
1.6223333 -10.889667 1.2576667
1.671 -10.8915 1.2589999
1.7920001 -10.858 1.2865
1.8225 -10.8615 1.2875
1.441 -10.85 1.251
1.143 -10.751 1.2539999
0.97899997 -10.7325 1.2505
1.026 -10.731334 1.2506666
1.085 -10.747 1.253
0.1 -10.511 1.294
-3.9189999 -9.7530003 1.257
-3.825 -9.7639999 1.2539999
-4.158 -9.7019997 1.262
-4.0634999 -9.7049999 1.272
-4.0244999 -9.7137499 1.273375
-3.9762862 -9.7115726 1.2757144
-3.9324288 -9.7228584 1.2748572
-4.5219998 -9.6549997 1.256
-4.4200001 -9.6560001 1.27
-4.3725004 -9.6634998 1.2635
-4.3310003 -9.6617489 1.2750001
-4.2828331 -9.6673336 1.2735001
-4.223125 -9.6732502 1.2781249
-4.1751432 -9.6828575 1.2791429
-4.1224289 -9.6798573 1.2792858
-4.0836 -9.6884003 1.2794
-4.704 -9.6009998 1.2589999
-4.6758337 -9.6148338 1.2753334
-4.6244287 -9.6147146 1.2754287
-4.5738001 -9.6238003 1.2664
-4.527143 -9.6214294 1.2768571
-4.4755001 -9.6381254 1.2705001
-4.4276667 -9.6355 1.2678335
-4.3775001 -9.6409998 1.27525
-4.3060002 -9.6300001 1.298
-4.2733335 -9.6456671 1.2983334
-4.7030001 -9.599 1.278
-4.6789999 -9.5925007 1.2855
-4.6199999 -9.5979996 1.2920001
-4.5675001 -9.5974998 1.28
-5.3179998 -9.5100002 1.2640001
-5.2725 -9.5085001 1.2804999
-5.2212501 -9.5155001 1.26875
-5.1724291 -9.5192862 1.2732857
-5.1242499 -9.5262499 1.26925
-5.5232501 -9.4577503 1.2607499
-5.4744997 -9.46 1.268
-5.4216666 -9.4630003 1.275
-5.3713999 -9.4820004 1.2720001
-5.32025 -9.4857502 1.28075
-5.28125 -9.4837503 1.2832501
-5.2282 -9.4919996 1.284
-5.1589999 -9.4989996 1.273
-5.138 -9.5 1.291
-5.7690001 -9.408 1.28
-5.7255001 -9.4165001 1.2807499
-5.675858 -9.4314289 1.2742858
-5.624125 -9.4352503 1.276875
-5.5734997 -9.4390011 1.2716668
-5.533 -9.4467497 1.275
-5.478334 -9.4473333 1.2863333
-6.0770001 -9.3529997 1.255
-5.7579999 -9.3900003 1.2970001
-5.7379999 -9.3950005 1.258
-6.3286667 -9.3076668 1.279
-6.2805004 -9.3234997 1.2745
-6.2318001 -9.3182001 1.2768
-6.1772218 -9.3287773 1.2783334
-6.1230006 -9.3343334 1.2755001
-6.0812001 -9.3378 1.2770001
-6.6195002 -9.2579994 1.26
-6.572 -9.2646666 1.2709999
-6.5198336 -9.2655001 1.2711668
-6.4714999 -9.277667 1.2658334
-6.427 -9.2830009 1.2701666
-6.382 -9.2884007 1.2796
-6.3340001 -9.2799997 1.284
-6.2509999 -9.2969999 1.28
-6.2030001 -9.2959995 1.2970001
-6.6129999 -9.2489996 1.279
-6.5799999 -9.2420006 1.2826667
-6.5380001 -9.2460003 1.2934999
-6.4759998 -9.2440004 1.29
-7.4520001 -9.1020002 1.261
-7.4289999 -9.1059999 1.26
-7.382 -9.1120005 1.257
-7.32025 -9.1164999 1.26325
-7.2752504 -9.1167498 1.271
-7.2373333 -9.1150007 1.2816668
-7.5545001 -9.0655003 1.2755001
-7.5194998 -9.0795002 1.26875
-7.4762502 -9.0757504 1.276
-7.4237499 -9.0834999 1.2885001
-7.3800006 -9.0908003 1.2800001
-7.3322501 -9.0904999 1.2775
-7.2919998 -9.0979996 1.291
-7.5669999 -9.0480003 1.285
-9.6280003 -8.7069998 1.277
-9.5807495 -8.7217503 1.27475
-9.5237503 -8.7229996 1.28175
-9.4910002 -8.7229996 1.291
-9.8170004 -8.6820002 1.266
-9.7605 -8.677 1.2615
-9.7275 -8.6707497 1.27625
-9.6707506 -8.6885004 1.2677499
-9.5935001 -8.6960001 1.2625
-10.856 -8.4530001 1.2690001
-10.816333 -8.4633331 1.2626667
-10.768667 -8.4656668 1.2670001
-10.7316 -8.4768 1.2780001
-10.675501 -8.4779997 1.281
-11.063 -8.401 1.293
-11.021334 -8.4093332 1.2823334
-10.9725 -8.4222498 1.2755001
-10.931999 -8.4365005 1.2735
-10.886333 -8.4360008 1.266
-11.366 -8.3529997 1.288
-11.329 -8.3559999 1.2735
-11.27625 -8.3622494 1.26975
-11.2265 -8.3705006 1.2665
-11.177501 -8.3800001 1.2637501
-11.12775 -8.3812504 1.2787499
-11.076 -8.3899994 1.2776667
-11.454 -8.3249998 1.293
-11.429 -8.3283329 1.2750001
-11.377668 -8.3406668 1.2720001
-11.172999 -8.3306675 1.2973335
-11.4 -8.2550001 1.286
-12.423667 -8.1560001 1.2703334
-12.368 -8.1610003 1.275
-12.336 -8.1709995 1.273
-12.263 -8.1680002 1.268
-12.215 -8.1820002 1.265
-12.184999 -8.1779995 1.276
-12.5655 -8.1195002 1.2615
-12.514 -8.132 1.258
-12.483 -8.1323338 1.2733334
-12.44 -8.1459999 1.2539999
-12.282 -8.1040001 1.2920001
-12.224001 -8.1270008 1.289
-12.578501 -8.0815001 1.2735
-12.525 -8.0935001 1.2835
-12.376 -8.073 1.298
-12.331499 -8.0904999 1.2950001
-13.117 -8.0139999 1.2690001
-13.068 -8.0139999 1.265
-13.028 -8.0209999 1.263
-12.515499 -8.0109997 1.266
-13.391 -7.9580002 1.258
-13.341 -7.96 1.255
-13.283 -7.9724998 1.2515
-13.1775 -7.9714999 1.271
-13.131 -7.9910002 1.2690001
-13.018 -7.9530001 1.286
-12.981 -7.961 1.284
-13.483 -7.9180002 1.263
-13.4335 -7.9359999 1.2605
-13.251 -7.9070001 1.274
-13.217 -7.9175 1.2850001
-13.1805 -7.9259996 1.283
-13.128 -7.9260001 1.293
-13.089 -7.934 1.29
-13.043 -7.9369998 1.2869999
-13.5295 -7.8675003 1.2640001
-13.4845 -7.8720002 1.2755001
-13.4235 -7.8674998 1.2845
-13.376 -7.8860002 1.2819999
-13.326 -7.888 1.278
-13.291 -7.8990002 1.276
-13.612 -7.8195 1.2820001
-13.570999 -7.8330002 1.2843333
-13.513 -7.842 1.29
-14.216 -7.7610002 1.252
-14.2275 -7.7179999 1.2509999
-14.127 -7.7119999 1.272
-14.075335 -7.7266669 1.2783334
-14.426001 -7.664 1.2625
-14.363 -7.6624999 1.2725
-14.326 -7.6750002 1.2704999
-14.284 -7.6844997 1.2674999
-14.227 -7.6859999 1.278
-14.164 -7.6999998 1.274
-14.4835 -7.6459999 1.28
-14.421 -7.6459999 1.29
-16.761999 -7.3039999 1.253
-16.811001 -7.2550001 1.2539999
-16.788 -7.2800002 1.2539999
-16.67 -7.2639999 1.278
-16.954 -7.2140002 1.262
-16.918999 -7.2160001 1.276
-16.866501 -7.2275 1.2735
-16.808001 -7.2189999 1.285
-16.728001 -7.2364998 1.2804999
-18.017 -7.006 1.257
-17.971001 -7.0240002 1.2539999
-17.938 -7.0120001 1.286
-18.107 -6.9689999 1.261
-18.063499 -6.9879999 1.2755001
-17.997 -6.9980001 1.289
-18.114 -6.9350004 1.2774999
-19.181999 -6.7775002 1.2690001
-19.158001 -6.7319999 1.284
-19.940001 -6.6560001 1.256
-19.153999 -6.6735001 1.2825
-20.245001 -6.6030002 1.272
-20.163 -6.6149998 1.268
-20.094 -6.631 1.2640001
-19.997 -6.6370001 1.277
-19.9 -6.6430001 1.29
-20.320999 -6.5089998 1.275
-20.337 -6.4749999 1.275
-21.066999 -6.4260001 1.277
-21.385 -6.3579998 1.255
-21.299999 -6.3730001 1.25
-21.123001 -6.3809996 1.2795
-21.443001 -6.335 1.257
-21.264 -6.322 1.286
-21.176001 -6.336 1.2819999
-21.304001 -6.2940001 1.288
-24.927 -5.552 1.257
3.7150002 -11.208 1.3075
3.4614999 -11.151501 1.3134999
3.5309999 -11.1665 1.3169999
3.3710001 -11.119859 1.3305715
2.9723334 -11.057001 1.3216667
3.3269999 -11.099 1.344
2.6370001 -11.005 1.3329999
2.6875 -11.002001 1.324
2.7246001 -11.0106 1.3238
2.7735 -11.0185 1.3180001
2.8247142 -11.015429 1.3251429
2.8803334 -11.031834 1.3226666
2.9225001 -11.038333 1.3246666
2.9669998 -11.033 1.3354999
2.3840001 -10.953 1.3200001
2.42625 -10.966 1.32775
2.4751668 -10.961 1.3235002
2.5327144 -10.967 1.3228571
2.5796669 -10.975666 1.3280001
2.6200001 -10.9826 1.3298
2.6596668 -10.987667 1.3246667
2.7674999 -10.993999 1.3355
2.2365 -10.914 1.322
2.2739999 -10.9228 1.3218001
2.3240001 -10.932601 1.3284
2.3663335 -10.933333 1.3306667
2.4260001 -10.942749 1.3202499
2.5015001 -10.945499 1.3325
1.572 -10.814 1.326
1.6303333 -10.813334 1.3330001
1.674 -10.811715 1.3274287
1.721143 -10.814143 1.3257143
1.7726001 -10.8334 1.324
1.8182499 -10.838251 1.3235
1.294 -10.757 1.314
1.3234999 -10.761999 1.3155
1.3724999 -10.762751 1.326
1.4246668 -10.774668 1.3253334
1.4746002 -10.7836 1.3284
1.528125 -10.779499 1.323375
1.5804001 -10.788199 1.3228
1.6234001 -10.7914 1.3200001
1.0895 -10.704 1.324
1.1256666 -10.713333 1.3130001
1.17825 -10.713375 1.3241251
1.225 -10.717001 1.3276
1.2702858 -10.735572 1.3305715
1.321 -10.739 1.3315001
1.3685 -10.7315 1.322
1.4275 -10.748 1.3345001
0.97139996 -10.6726 1.3154001
1.0215555 -10.683666 1.320889
1.0761429 -10.688001 1.3222857
1.1303333 -10.696667 1.3366668
1.154 -10.688 1.342
1.211 -10.695 1.325
0.54799998 -10.606 1.307
0.58499998 -10.604 1.307
0.62650001 -10.608999 1.3175001
0.67275 -10.60875 1.3225
0.98000002 -10.645 1.335
0.28600001 -10.568 1.301
0.30399999 -10.561 1.3
0.3705 -10.571501 1.302
0.42899999 -10.561 1.307
0.4727143 -10.575714 1.3164287
0.52612495 -10.58225 1.3252501
0.57260001 -10.5832 1.327
0.61720002 -10.5964 1.3326
0.65750003 -10.594 1.3345001
0.118 -10.509 1.312
0.16874999 -10.505751 1.3305001
0.22933333 -10.513166 1.3251667
0.27574998 -10.51925 1.323
0.32233334 -10.535666 1.3255
0.3786667 -10.541667 1.3264999
0.42233333 -10.547334 1.3303332
0.47150001 -10.5455 1.337
-0.064000003 -10.46 1.3430001
-0.022428574 -10.467572 1.3225714
0.027111111 -10.467889 1.3254443
0.07628572 -10.484715 1.3251429
0.12057145 -10.487143 1.3332858
0.1768 -10.484 1.3278
0.211 -10.5 1.33
-0.072999999 -10.447001 1.332
-0.046 -10.4475 1.3325
-0.80866671 -10.311667 1.322
-0.77600002 -10.313999 1.3279999
-1.0245 -10.261499 1.324
-0.87333339 -10.2845 1.3161666
-1.66275 -10.1375 1.3099999
-1.6272501 -10.14325 1.31025
-1.5915 -10.1465 1.3185
-4.3569999 -9.6529999 1.304
-4.244 -9.6700001 1.3
-4.4580002 -9.6059999 1.304
-4.4274998 -9.6065006 1.302
-4.3775001 -9.6300001 1.302
-4.3310003 -9.6170006 1.3075
-4.6690001 -9.5719995 1.311
-4.627667 -9.5716667 1.3086667
-4.5699997 -9.5810003 1.307
-4.5244999 -9.5944996 1.3055
-4.4755001 -9.5705004 1.3161668
-5.1285 -9.5039997 1.3104999
-4.678 -9.5271673 1.325
-4.6260004 -9.5265007 1.3318334
-4.5815001 -9.5402498 1.33075
-5.4755001 -9.4610004 1.3069999
-5.4226675 -9.4653339 1.3039999
-5.3745003 -9.4759998 1.3025
-5.324667 -9.4703331 1.3053334
-5.277 -9.4575005 1.314
-5.2280002 -9.4683332 1.312
-5.1694999 -9.4805002 1.3145001
-5.7145 -9.4125004 1.316
-5.6665001 -9.408 1.313
-5.6190004 -9.4216671 1.3116667
-5.573 -9.4379997 1.3105
-5.5190001 -9.4406662 1.3073334
-5.3709998 -9.4120007 1.3146667
-5.323 -9.4230003 1.3125
-5.27 -9.4123335 1.334
-5.2227502 -9.4182491 1.33025
-5.1774001 -9.4229994 1.3346
-5.1230001 -9.4347506 1.33075
-5.0999999 -9.4300003 1.339
-5.7655001 -9.3845005 1.3164999
-5.7399998 -9.3979998 1.317
-5.5764999 -9.3689995 1.323
-5.5242 -9.3671999 1.327
-5.4749999 -9.3734007 1.3285999
-5.4307499 -9.3845005 1.32525
-5.3811665 -9.380167 1.3343333
-5.3222499 -9.383749 1.33725
-5.2886667 -9.3933334 1.3393333
-5.2329998 -9.3970003 1.3430001
-6.256 -9.3039999 1.301
-6.1715002 -9.3024998 1.3145001
-6.1209998 -9.3129997 1.313
-6.0854998 -9.3125 1.3099999
-6.0500002 -9.3120003 1.308
-5.723 -9.3262005 1.3352
-5.6707997 -9.3296003 1.3362001
-5.6212502 -9.3330002 1.3315001
-5.5777502 -9.3435001 1.3347499
-6.4580002 -9.2519999 1.309
-6.4294996 -9.2630005 1.308
-6.3703337 -9.2643337 1.3043334
-6.3245001 -9.2840004 1.3034999
-6.2762003 -9.2723999 1.3110001
-6.2285004 -9.2814999 1.3164999
-6.1939998 -9.283 1.314
-6.1170001 -9.2725 1.3180001
-6.0713339 -9.2616673 1.3303334
-6.0349998 -9.2646675 1.3286667
-6.5755 -9.2294998 1.3150001
-6.5290003 -9.2334995 1.312
-6.475667 -9.2313337 1.3146666
-6.3736668 -9.2120008 1.3256668
-6.3239999 -9.2145004 1.326
-6.2870002 -9.2229996 1.3276666
-6.2235999 -9.2220001 1.3377999
-6.1705003 -9.2299995 1.33675
-6.1300001 -9.2402496 1.3354999
-6.0840001 -9.2395 1.342
-6.0100002 -9.25 1.3380001
-6.5510001 -9.1789999 1.3279999
-6.5180001 -9.1729994 1.3374
-6.4700003 -9.1835003 1.33325
-6.4196672 -9.1850004 1.3333334
-6.3940001 -9.1945 1.3285
-6.342 -9.1899996 1.335
-7.2609997 -9.1070004 1.3104999
-7.592 -9.0620003 1.309
-7.5303335 -9.0686665 1.3053334
-7.4653335 -9.0650005 1.3073335
-7.4276671 -9.0723333 1.3186667
-7.3780003 -9.0909996 1.317
-7.3295002 -9.0955 1.314
-7.2930002 -9.099 1.312
-7.2319999 -9.0539999 1.324
-7.5223331 -9.0273342 1.322
-7.4723334 -9.0203333 1.3313334
-7.4310002 -9.0129995 1.335
-7.3722496 -9.0129995 1.3355
-7.3280005 -9.0246668 1.335
-7.2813997 -9.0265989 1.3372002
-7.2380004 -9.0410004 1.3370001
-7.197 -9.0439997 1.3200001
-7.5570002 -8.9729996 1.34
-7.5296664 -8.9823332 1.332
-7.4809999 -8.9779997 1.335
-7.368 -9 1.349
-9.7189999 -8.6704998 1.3045
-9.6145 -8.6689997 1.3195
-9.5769997 -8.6809998 1.317
-9.6759996 -8.618 1.3200001
-9.6350002 -8.6216679 1.325
-9.5783339 -8.6213341 1.3356667
-9.5100002 -8.6210003 1.331
-9.4775 -8.6350002 1.329
-9.4280005 -8.6350002 1.325
-10.784 -8.4580002 1.3
-10.825001 -8.4290009 1.3010001
-10.6665 -8.4099998 1.312
-10.621 -8.4200001 1.3099999
-10.924 -8.3549995 1.3049999
-10.868167 -8.3671665 1.3171667
-10.813999 -8.3600006 1.3329999
-10.776751 -8.3765001 1.3305001
-10.724501 -8.3810005 1.327
-10.684 -8.3889999 1.3283334
-10.635 -8.3999996 1.3329999
-11.219 -8.3045006 1.324
-11.12 -8.3067493 1.32875
-11.071 -8.316 1.3255
-11.026499 -8.3267498 1.32275
-10.973 -8.3319998 1.319
-10.933001 -8.3423338 1.3206667
-11.407 -8.2600002 1.311
-11.366501 -8.2620001 1.3205
-11.316668 -8.2666664 1.3130001
-11.276335 -8.2770004 1.3186667
-11.2355 -8.2875004 1.312
-11.179335 -8.2953339 1.3286667
-11.393333 -8.2306671 1.325
-12.28 -8.1029997 1.344
-12.235 -8.1040001 1.34
-12.181666 -8.1090002 1.3193333
-12.12 -8.1190004 1.307
-12.469999 -8.0580006 1.3039999
-12.414 -8.0670004 1.3
-12.374334 -8.0723333 1.3323333
-12.328 -8.0880003 1.3335
-12.2775 -8.0855007 1.317
-12.228 -8.099 1.314
-12.573 -8.0469999 1.337
-12.530334 -8.0406675 1.316
-12.465 -8.0389996 1.329
-12.429 -8.0469999 1.326
-13.043 -7.9689999 1.342
-12.973 -7.9559999 1.3099999
-12.511 -7.9765 1.316
-13.303 -7.9060001 1.332
-13.236334 -7.9076667 1.318
-13.168 -7.9184999 1.336
-13.12 -7.921 1.332
-13.072333 -7.9346671 1.334
-13.033 -7.9310002 1.313
-12.996 -7.9400001 1.311
-13.4775 -7.8525 1.3285
-13.42 -7.8655 1.325
-13.373 -7.8684998 1.322
-13.337999 -7.8794999 1.3195
-13.284 -7.8790002 1.302
-13.66 -7.8309999 1.327
-13.616 -7.8379998 1.324
-13.565334 -7.8299999 1.3386668
-13.5185 -7.8450003 1.3310001
-13.409 -7.8439999 1.337
-13.626 -7.7800002 1.323
-14.186 -7.7119999 1.304
-14.132 -7.7154999 1.3150001
-14.375 -7.6695004 1.316
-14.318 -7.671 1.3264999
-14.273334 -7.684 1.3286667
-14.213 -7.6939998 1.306
-14.1775 -7.6914997 1.3315001
-14.503 -7.625 1.324
-14.4575 -7.6330004 1.335
-14.4195 -7.645 1.3329999
-14.36 -7.645 1.3430001
-16.724001 -7.2519999 1.313
-16.66 -7.2595 1.3245001
-16.690001 -7.2379999 1.342
-18.101 -6.895 1.327
-18.084999 -6.8540001 1.325
-19.129999 -6.684 1.317
-20.084999 -6.5510001 1.336
-20.017 -6.5669999 1.332
-19.966999 -6.5890002 1.33
-20.207001 -6.5110002 1.3430001
-20.148001 -6.5310001 1.339
-20.312 -6.467 1.311
-20.289 -6.4990001 1.347
-20.327 -6.4330001 1.3295
-20.987 -6.3610001 1.3099999
-20.899 -6.375 1.3049999
-20.361 -6.3660002 1.349
-21.195 -6.302 1.321
-21.128 -6.322 1.317
-21.049999 -6.3390002 1.313
-21.389 -6.2779999 1.332
-21.306999 -6.2950001 1.327
-24.724001 -5.507 1.335
-24.819 -5.4819999 1.34
3.8770001 -11.205 1.355
3.9355001 -11.212 1.3575001
3.6139998 -11.1565 1.3605
3.6694999 -11.165 1.3635
3.7869999 -11.196 1.35
3.806 -11.19 1.35
3.3269999 -11.101 1.365
3.3740001 -11.110001 1.3676667
3.4315 -11.122499 1.3505
3.4755001 -11.127 1.3525
3.5220001 -11.1385 1.355
3.5664999 -11.143 1.357
3.664 -11.15 1.362
2.9579999 -11.055 1.368
2.7409999 -11.011 1.3559999
2.78 -11.002001 1.3664999
2.8256669 -11.018667 1.36
2.8800001 -11.029 1.3625
2.921 -11.031 1.364
2.9809999 -11.029 1.3655
2.4449999 -10.959 1.362
2.5273333 -10.967667 1.3656667
2.5770001 -10.9645 1.3665
2.619 -10.972 1.3685
2.6729999 -10.9855 1.3616667
2.7223334 -10.991668 1.3666667
2.7703333 -10.992001 1.3686666
2.8264999 -10.98 1.3755
2.8765001 -10.976 1.3765
2.2344999 -10.9035 1.36
2.2720001 -10.9138 1.3606001
2.3216002 -10.9224 1.3666
2.3692501 -10.932249 1.36675
2.4157999 -10.9364 1.3706001
2.4756 -10.935801 1.3722
2.5235 -10.908501 1.378
2.2360001 -10.864 1.385
2.2639999 -10.856 1.385
2.345 -10.864 1.388
1.6289999 -10.806 1.364
1.669 -10.813 1.3660001
1.7327501 -10.821 1.3635
1.778 -10.831751 1.3610001
1.81875 -10.839 1.3625
1.3805001 -10.752501 1.3724999
1.4239999 -10.75675 1.364
1.4777499 -10.764 1.3659999
1.5275 -10.772834 1.368
1.57675 -10.77725 1.3695
1.62 -10.776501 1.375
1.674 -10.782 1.382
1.7216667 -10.781001 1.3826666
1.7709999 -10.789 1.3845
1.82375 -10.78175 1.37975
1.1849999 -10.71 1.3645
1.223 -10.715 1.3655
1.272 -10.72925 1.3635
1.3291667 -10.729334 1.3594999
1.3789999 -10.738 1.3515
1.4360001 -10.739 1.3625
1.536 -10.701 1.388
1.576 -10.7075 1.3895
1.6245 -10.709 1.3905001
1.6743333 -10.723999 1.3936667
1.7235 -10.733 1.3959999
1.7625 -10.737499 1.397
0.98299998 -10.675 1.358
1.0210001 -10.675667 1.3580002
1.0780001 -10.679333 1.359
1.1265 -10.693 1.3615
1.155 -10.694 1.362
1.2819999 -10.654 1.378
1.3215001 -10.663 1.3889999
1.477 -10.687334 1.3853334
1.516 -10.694 1.387
0.96950001 -10.627501 1.3610001
1.0235 -10.607 1.378
0.472 -10.554 1.3559999
0.52700007 -10.555334 1.3570001
0.574 -10.5725 1.3594999
0.62 -10.580001 1.3606666
0.67566669 -10.581 1.3613334
0.2385 -10.519 1.3510001
0.2755 -10.509501 1.35
0.32233334 -10.528666 1.3526667
0.37800002 -10.530001 1.3526667
0.42449999 -10.531 1.353
0.47150001 -10.542999 1.355
0.70899999 -10.5335 1.3835
0.228 -10.465 1.363
0.0089999996 -10.406 1.373
-1.046 -10.208 1.39
-0.91299999 -10.214 1.3895
-1.2029999 -10.158 1.386
-1.123 -10.168 1.3859999
-2.313 -9.9680004 1.368
-2.2720001 -9.9519997 1.383
-2.4248002 -9.9284 1.3808
-2.3812857 -9.936429 1.3791429
-2.3257146 -9.936286 1.3824286
-2.8185 -9.8540001 1.3615
-2.72475 -9.8705006 1.36475
-2.6786001 -9.8727999 1.3752
-2.9173334 -9.8290005 1.3650001
-2.8742859 -9.8360014 1.3701431
-2.777 -9.8390007 1.3853334
-3.9828002 -9.6562004 1.3672001
-3.921 -9.6590004 1.3660001
-3.8738 -9.6602011 1.3768001
-3.8295717 -9.6640005 1.3687145
-4.2950001 -9.6059999 1.37
-4.2265 -9.6070004 1.3660001
-4.1796665 -9.6133337 1.3650001
-4.1230001 -9.6153755 1.380375
-4.0753756 -9.6263752 1.3770001
-4.02525 -9.6322498 1.3798751
-3.9736667 -9.6446667 1.3946667
-3.9325001 -9.6389999 1.37825
-3.8823333 -9.6463337 1.3716667
-4.4707999 -9.5636005 1.374
-4.4211664 -9.5630007 1.3745
-4.3731432 -9.5665722 1.3747144
-4.3218002 -9.5831995 1.3794001
-4.2645998 -9.5906 1.3773999
-4.2223339 -9.5756674 1.3870001
-4.1746669 -9.5873337 1.3856667
-4.1500001 -9.5909996 1.3789999
-4.704 -9.5170002 1.382
-4.674715 -9.5117149 1.3768572
-4.6273746 -9.5241251 1.3758749
-4.5794287 -9.5274277 1.3787143
-4.5285554 -9.5378885 1.3743333
-4.4770002 -9.5375004 1.3717501
-4.4310002 -9.5489998 1.352
-4.6925001 -9.4735003 1.395
-5.2756667 -9.4090004 1.3786668
-5.2246003 -9.4141998 1.3746001
-5.1752501 -9.4117489 1.3695
-5.1435003 -9.4125004 1.3585
-5.5760002 -9.368 1.3805001
-5.5262499 -9.3592501 1.3857499
-5.4691672 -9.3621674 1.3731668
-5.4250002 -9.3743334 1.3715
-5.3718572 -9.3817158 1.3745716
-5.3234997 -9.3855 1.376
-5.2813334 -9.3936672 1.3710001
-5.7200003 -9.3280001 1.376
-5.6808004 -9.3230009 1.3786001
-5.627667 -9.3254442 1.3791111
-5.5766668 -9.3385 1.3805001
-5.5243335 -9.3373337 1.3543334
-5.4849997 -9.3455 1.382
-5.4400001 -9.342 1.35
-6.3070002 -9.2060003 1.354
-6.2690001 -9.2086668 1.3576667
-6.2263336 -9.2146664 1.3623333
-6.171 -9.2139997 1.365
-6.1279998 -9.2135 1.375
-6.0733333 -9.2185555 1.3783332
-6.0235 -9.2177505 1.375
-6.5089998 -9.1529999 1.363
-6.4685001 -9.1642494 1.36575
-6.4305 -9.1615 1.3777499
-6.3762865 -9.1695709 1.3690001
-6.3251429 -9.1741438 1.3744285
-6.2817497 -9.1864996 1.3795
-6.237 -9.1905003 1.3870001
-6.1873336 -9.1913338 1.3766665
-6.1490002 -9.1809998 1.38
-6.5029998 -9.1440001 1.381
-6.4770002 -9.1313324 1.391
-6.4264998 -9.1389999 1.3945
-6.3870001 -9.1499996 1.393
-7.5050001 -9.007 1.381
-7.474 -9.0010004 1.378
-7.4217501 -9.0094995 1.37975
-7.3708 -9.0092001 1.375
-7.3233333 -9.0183334 1.3816667
-7.2824998 -9.0214996 1.37075
-7.2327995 -9.0298004 1.375
-7.573 -8.9759998 1.3835
-7.5264001 -8.9743996 1.3756001
-7.4768 -8.9788008 1.3722
-7.4272499 -8.9925003 1.3735001
-9.5830002 -8.6105003 1.3695
-9.5171995 -8.6147995 1.3716
-9.4773998 -8.632 1.3693999
-9.6129999 -8.592 1.359
-9.5539999 -8.599 1.355
-10.6645 -8.4084997 1.3599999
-10.962 -8.3549995 1.3559999
-10.919 -8.3509998 1.352
-10.880667 -8.3623343 1.3663334
-10.8295 -8.3727503 1.38275
-10.773334 -8.3790007 1.3826668
-10.726667 -8.3930006 1.3716667
-10.7 -8.3920002 1.386
-10.639 -8.3739996 1.38
-11.111 -8.3149996 1.365
-11.0745 -8.3182497 1.37475
-11.027 -8.3274994 1.3715
-10.973 -8.3220005 1.3710001
-10.926001 -8.342 1.3765
-10.887501 -8.3425007 1.3975
-11.431 -8.2635002 1.3625
-11.3755 -8.2684994 1.3710001
-11.320333 -8.2693338 1.3706667
-11.275667 -8.2763338 1.3596667
-11.22625 -8.2877502 1.37875
-11.17 -8.2886677 1.3763335
-11.128 -8.2974997 1.378
-11.43 -8.2480001 1.387
-11.393 -8.25 1.3839999
-11.382 -8.1723337 1.3700001
-12.488 -8.0550003 1.357
-12.423667 -8.0636673 1.3700001
-12.372 -8.0710001 1.3625
-12.27575 -8.0845003 1.38125
-12.222 -8.0950003 1.365
-12.577499 -8.0189991 1.3755
-12.5335 -8.0372505 1.37275
-12.474 -8.0450001 1.382
-12.428 -8.0469999 1.352
-12.52 -7.9520001 1.381
-13.2215 -7.9045 1.3525
-13.125 -7.9084997 1.3729999
-13.062 -7.9335003 1.3685
-13.015 -7.921 1.392
-12.509 -7.9300003 1.353
-12.498 -7.9070001 1.377
-13.39 -7.8629999 1.364
-13.336 -7.8629999 1.359
-13.285999 -7.8800001 1.3699999
-13.219 -7.888 1.3789999
-13.183 -7.8969998 1.376
-13.072 -7.8610001 1.393
-13.0295 -7.8824997 1.391
-13.684 -7.8130002 1.3559999
-13.6255 -7.8115001 1.365
-13.577 -7.816 1.376
-13.5285 -7.8354998 1.3724999
-13.464 -7.8439999 1.368
-13.42 -7.8499999 1.365
-13.328334 -7.8273335 1.3843334
-13.136 -7.8379998 1.397
-13.098 -7.8460002 1.3940001
-13.631 -7.783 1.378
-13.525 -7.7540002 1.396
-13.472 -7.7709999 1.393
-13.411 -7.783 1.3890001
-13.372 -7.7909999 1.386
-14.133 -7.7160001 1.357
-13.627 -7.7490001 1.377
-13.568 -7.7470002 1.399
-14.179335 -7.6766672 1.3593334
-14.496 -7.6220002 1.352
-14.284 -7.605 1.364
-14.2425 -7.6300001 1.362
-14.183 -7.6139998 1.385
-14.125 -7.6304998 1.3815
-14.052 -7.6399999 1.376
-14.519 -7.5999999 1.353
-14.431 -7.5710001 1.3740001
-14.366667 -7.5743332 1.3883333
-14.328 -7.5960002 1.367
-14.271 -7.5819998 1.391
-14.208 -7.5960002 1.386
-16.622499 -7.2259998 1.369
-16.688 -7.1680002 1.372
-16.633499 -7.1789999 1.3840001
-16.561001 -7.1820002 1.395
-17.805 -6.96 1.377
-17.731001 -6.967 1.372
-18.101 -6.9299998 1.362
-18.035999 -6.9050002 1.391
-17.976999 -6.9200001 1.387
-17.91 -6.9289999 1.383
-17.847 -6.9400001 1.3789999
-18.108 -6.8800001 1.378
-18.084999 -6.8889999 1.393
-18.075001 -6.8263335 1.3686666
-19.137333 -6.6236668 1.3633335
-19.875999 -6.559 1.36
-19.827 -6.5809999 1.358
-20.045 -6.5380001 1.37
-19.962 -6.5489998 1.365
-20.348 -6.4780002 1.35
-20.351999 -6.441 1.387
-21.01 -6.368 1.35
-20.320999 -6.3725004 1.3839999
-21.233 -6.3130002 1.362
-21.167999 -6.3340001 1.358
-21.372 -6.2729998 1.369
-21.285 -6.2880001 1.365
-24.441 -5.5339999 1.365
-24.891001 -5.4530001 1.388
-24.823 -5.4819999 1.385
-24.653 -5.4910002 1.376
4.0879998 -11.172 1.4220001
3.733 -11.101 1.421
3.4755001 -11.0585 1.437
3.529 -11.058 1.429
3.6754999 -11.088499 1.4275
3.7136667 -11.085334 1.4319999
3.29 -11.011499 1.425
3.3292 -11.0192 1.4292001
3.3800001 -11.02375 1.4295001
2.892 -10.958 1.4349999
2.9319999 -10.96 1.437
2.9549999 -10.967 1.438
2.6784999 -10.903 1.43125
2.7354999 -10.909 1.434
2.775625 -10.914126 1.4258749
2.8278573 -10.923572 1.4288573
2.342 -10.851 1.4450001
2.4405 -10.853 1.4184999
2.4720001 -10.85875 1.42975
2.5246668 -10.870334 1.4231666
2.5749998 -10.868999 1.4245
2.6243999 -10.884 1.4254
2.6783333 -10.896667 1.414
2.2360001 -10.816999 1.428
2.2715716 -10.824573 1.4198571
2.3177142 -10.829287 1.419143
2.3725715 -10.838001 1.4244287
2.4116001 -10.8452 1.4266001
1.796 -10.7645 1.4205
1.814 -10.753 1.4195
1.528 -10.7085 1.446
1.5864999 -10.71 1.4284999
1.624 -10.707001 1.419
1.6732 -10.7168 1.4236001
1.7227501 -10.728251 1.424
1.7676001 -10.732201 1.4236
1.811 -10.735 1.4170001
1.3205 -10.657499 1.436
1.3782501 -10.657749 1.4272499
1.4235715 -10.677 1.4240001
1.4748889 -10.675 1.4217777
1.5245 -10.68425 1.4145
1.571 -10.691144 1.4257143
1.6109999 -10.681 1.444
1.67 -10.699 1.41
0.99599999 -10.606 1.424
1.015 -10.612 1.425
1.0625 -10.616 1.4265001
1.13225 -10.613 1.4367501
1.1766001 -10.6188 1.4324
1.2217778 -10.620778 1.4295557
1.276 -10.629168 1.4251666
1.3243334 -10.639668 1.4213333
1.357 -10.639 1.415
0.98140001 -10.5752 1.4200001
1.0234001 -10.585 1.4222001
1.072 -10.591144 1.4234287
1.122 -10.5942 1.4167999
0.58424997 -10.50825 1.4165001
0.62800002 -10.509334 1.4203334
0.67122221 -10.514668 1.4275557
0.71560001 -10.517001 1.432
0.27399999 -10.452 1.4170001
0.329 -10.463 1.4184999
0.37566668 -10.461501 1.4151667
0.42675 -10.46575 1.41925
0.46866667 -10.47289 1.4204445
0.52366668 -10.487445 1.4226667
0.57480001 -10.486401 1.4302
0.62100005 -10.492334 1.4303335
-0.0089999996 -10.407 1.41
0.036000002 -10.411 1.411
0.085500002 -10.414 1.4154999
0.12300001 -10.409667 1.4226665
0.17437501 -10.423 1.4308749
0.22500004 -10.429428 1.4267144
0.2735 -10.432 1.4325
0.3145 -10.431 1.42775
0.384 -10.435499 1.4335001
0.412 -10.442 1.434
-0.126 -10.366 1.4137501
-0.078749999 -10.36425 1.420375
-0.029250002 -10.373875 1.426125
0.024428573 -10.382572 1.4302858
0.077399999 -10.387401 1.4368001
0.12900001 -10.395333 1.4333334
0.153 -10.397 1.427
-0.126 -10.34 1.4375
-0.098999999 -10.344 1.438
-0.97500002 -10.205 1.4069999
-0.903 -10.207 1.4069999
-0.86699998 -10.2075 1.415
-0.84233332 -10.209333 1.4120001
-1.1135 -10.164 1.4215
-1.0741668 -10.156501 1.4168334
-1.0247779 -10.170777 1.4211111
-0.97162497 -10.172251 1.42325
-0.92175001 -10.18575 1.4241251
-0.884 -10.197333 1.4230001
-1.251 -10.113 1.4170001
-1.2288334 -10.125334 1.4241667
-1.1821111 -10.130001 1.417889
-1.1338571 -10.136858 1.4182857
-1.082 -10.146667 1.4250001
-1.6585 -10.0595 1.4265
-1.614 -10.06225 1.4169999
-1.5875001 -10.062 1.4255
-1.6263335 -10.046 1.427
-2.2909999 -9.9549999 1.402
-2.4282498 -9.91325 1.4100001
-2.3724 -9.9257994 1.4118
-2.3225 -9.9332495 1.4137501
-2.7820001 -9.8559999 1.406
-2.7193334 -9.8566666 1.4096668
-2.6783333 -9.8620005 1.4086666
-2.424 -9.8959999 1.4170001
-2.8723333 -9.826334 1.411
-2.8254001 -9.8270006 1.4107999
-2.7764001 -9.8388004 1.4142001
-2.7276666 -9.8423338 1.414
-2.6849999 -9.8409996 1.418
-3.8599999 -9.6560001 1.409
-3.8410001 -9.658 1.408
-4.158 -9.6099997 1.4
-4.080667 -9.6153336 1.4153333
-4.0229998 -9.6213331 1.413
-3.9815001 -9.6399994 1.413
-3.9289999 -9.6303339 1.4089999
-3.8794999 -9.6312494 1.4159999
-3.8217499 -9.6217499 1.4165
-4.4280005 -9.5563335 1.4143333
-4.3726001 -9.5615997 1.4170001
-4.3188334 -9.567667 1.4130001
-4.27525 -9.5820007 1.4122499
-4.22925 -9.5909996 1.41075
-4.1870003 -9.5844994 1.4124999
-4.1313334 -9.5943336 1.4153333
-4.0939999 -9.5539999 1.427
-4.0240002 -9.552 1.4319999
-3.9784 -9.5618 1.429
-3.9222 -9.5766001 1.4278001
-3.8724999 -9.5760002 1.4317499
-4.6786671 -9.5073338 1.4166667
-4.6230001 -9.5209999 1.4153333
-4.5707498 -9.5179996 1.4212499
-4.5223336 -9.5248337 1.4191666
-4.4759998 -9.5357504 1.41775
-4.4333334 -9.5383329 1.4186667
-4.3899999 -9.5489998 1.405
-4.2653332 -9.5080004 1.4363334
-4.2226005 -9.5134001 1.436
-4.1743999 -9.5199995 1.4378
-4.1225004 -9.5273342 1.434
-4.0687499 -9.5412502 1.4330001
-4.0300002 -9.5419998 1.4336667
-4.671 -9.4720001 1.431
-4.625 -9.4823341 1.4293334
-4.5714998 -9.4779997 1.4349999
-4.5214996 -9.4580002 1.439
-4.4743338 -9.4673338 1.4373333
-4.4264998 -9.4724998 1.4354999
-4.3789997 -9.4790001 1.4333334
-4.3234997 -9.4892502 1.436
-4.29 -9.4890013 1.4416666
-4.2249999 -9.493 1.4450001
-5.302 -9.4049997 1.405
-5.2589998 -9.4060001 1.4220001
-5.2231998 -9.4117994 1.4086
-4.6226668 -9.435667 1.4423335
-4.5764999 -9.4449997 1.441
-5.5560002 -9.3529997 1.416
-5.5215001 -9.3519993 1.4230001
-5.4731998 -9.3627996 1.4194001
-5.4204998 -9.3667498 1.41825
-5.3783998 -9.3804007 1.419
-5.3271666 -9.3793335 1.4170001
-5.2741671 -9.3875008 1.4208333
-5.2344999 -9.3810005 1.4365001
-5.7080002 -9.309 1.4115
-5.6718001 -9.3164005 1.4196001
-5.6274996 -9.3254995 1.42725
-5.5828004 -9.3324003 1.4269999
-5.5253334 -9.3393326 1.4253334
-5.4640002 -9.3479996 1.429
-5.368 -9.3134995 1.4375
-5.3264999 -9.316 1.4349999
-5.2880001 -9.3409996 1.4349999
-5.2480001 -9.309 1.448
-5.6865001 -9.2924995 1.4375
-5.6110001 -9.2609997 1.448
-5.5726662 -9.2713337 1.4466667
-5.5235 -9.2810001 1.4445
-5.4710002 -9.2843342 1.441
-5.4225001 -9.2954998 1.439
-5.3920002 -9.2980003 1.437
-6.1765003 -9.2040005 1.4230001
-6.1285 -9.2115002 1.41575
-6.0676665 -9.2213335 1.424
-6.0339999 -9.2159996 1.414
-5.6479998 -9.2480001 1.449
-6.3655 -9.1709995 1.4335001
-6.3264999 -9.1669998 1.4202499
-6.277 -9.1685009 1.4200001
-6.2276669 -9.1826668 1.4211667
-6.1725998 -9.1744003 1.4155999
-6.1193333 -9.1716671 1.4353333
-6.073 -9.1890001 1.4335001
-6.0339999 -9.1816673 1.4430001
-6.888 -9.1040001 1.425
-6.4742503 -9.1387501 1.4230001
-6.4196 -9.1358004 1.4254
-6.3751998 -9.1334 1.4300002
-6.3233333 -9.1276665 1.4453335
-6.2740002 -9.125 1.441
-6.2420001 -9.1459999 1.441
-6.197 -9.1490002 1.438
-6.8930001 -9.0769997 1.423
-7.3730001 -9.0056667 1.4120001
-7.3150001 -9.0083332 1.4143333
-7.2873335 -9.0166664 1.4200001
-7.2447505 -9.0222502 1.414
-6.8455 -9.0310001 1.4349999
-7.5723333 -8.9700003 1.4100001
-7.5237494 -8.96525 1.41475
-7.4735003 -8.9840002 1.418
-7.4274998 -8.9934998 1.415
-7.355 -8.9840002 1.429
-7.3369999 -8.993 1.428
-7.2174997 -8.9565001 1.436
-7.1830001 -8.9610004 1.434
-7.5916667 -8.9403334 1.4160001
-7.5009999 -8.9069996 1.433
-7.4724998 -8.9195004 1.4325
-7.4252501 -8.9184999 1.4384999
-7.3759999 -8.9305 1.4357501
-7.3356667 -8.9396667 1.4366667
-7.2865 -8.9470005 1.4405
-7.243 -8.9399996 1.437
-7.5840001 -8.8945007 1.4385
-7.5334997 -8.8980007 1.4349999
-7.4619999 -8.8920002 1.449
-7.414 -8.8970003 1.446
-9.4799995 -8.5629997 1.437
-9.4449997 -8.5620003 1.434
-10.286 -8.3889999 1.446
-10.83 -8.3280001 1.416
-10.777 -8.3319998 1.4119999
-10.6745 -8.3120003 1.4384999
-10.635666 -8.3216667 1.4316667
-10.6 -8.3140001 1.444
-10.252 -8.3169994 1.4265001
-10.243 -8.3240004 1.438
-11.1135 -8.2720003 1.4115
-10.962 -8.2639999 1.423
-10.917 -8.2595005 1.431
-10.88 -8.2716665 1.4246668
-10.834 -8.2766676 1.4293334
-10.779 -8.2895002 1.4335001
-10.732 -8.2969999 1.4299999
-10.69 -8.2939997 1.426
-11.233 -8.21 1.418
-11.167334 -8.217001 1.421
-11.132999 -8.2264996 1.4225
-11.087 -8.2220001 1.431
-11.0255 -8.2364998 1.4265
-10.978666 -8.2366667 1.4386667
-10.943 -8.2489996 1.4450001
-11.374667 -8.1576672 1.418
-11.318335 -8.1766663 1.4306668
-11.274333 -8.1850004 1.4360001
-11.217 -8.184 1.439
-11.197 -8.1990004 1.439
-11.377 -8.1190004 1.4365001
-11.3665 -8.0819998 1.4335001
-12.422 -8.0270004 1.403
-12.313 -8.0019999 1.419
-12.273 -8.0059996 1.416
-12.236 -8.0129995 1.413
-12.532499 -7.96 1.421
-12.484333 -7.969667 1.4136667
-12.431666 -7.9773331 1.4180001
-12.365499 -7.9755001 1.4345
-12.335 -7.9855003 1.4325
-12.285 -7.9829998 1.441
-12.518 -7.9200001 1.418
-13.009 -7.8540001 1.428
-12.9735 -7.8645 1.4254999
-12.491 -7.8720002 1.426
-13.284 -7.8010001 1.434
-13.227 -7.809 1.4116666
-13.183001 -7.8190002 1.413
-13.119001 -7.8276668 1.431
-13.0695 -7.8445001 1.4325
-13.039 -7.8410001 1.416
-13.454 -7.777 1.447
-13.423 -7.7740002 1.4305
-13.370334 -7.7800002 1.4219999
-13.316999 -7.79 1.4225
-13.275 -7.796 1.406
-13.658 -7.7360001 1.433
-13.601 -7.7350001 1.429
-13.5755 -7.7360001 1.4135001
-13.506 -7.743 1.4220001
-13.457 -7.7470002 1.418
-13.584 -7.6630001 1.424
-14.284 -7.605 1.421
-14.238 -7.6129999 1.418
-14.179501 -7.6125002 1.4275
-14.1235 -7.6140003 1.423
-14.094999 -7.6304998 1.4215
-14.041 -7.6339998 1.403
-14.497 -7.5560002 1.4069999
-14.43 -7.5646667 1.4213333
-14.3295 -7.5815001 1.4235001
-14.2225 -7.5880003 1.4435
-14.519 -7.5349998 1.436
-14.477 -7.546 1.434
-16.658001 -7.1550002 1.401
-17.768 -6.9450002 1.4069999
-18.077999 -6.8150001 1.425
-18.066999 -6.776 1.423
-18.091 -6.7490001 1.424
-20.33 -6.3754997 1.4219999
-20.327 -6.316 1.421
-21.035999 -6.2550001 1.426
-20.964001 -6.2729998 1.4220001
-20.896 -6.2919998 1.418
-21.326 -6.2189999 1.405
-21.2705 -6.223 1.4205
-21.173 -6.2150002 1.434
-21.114 -6.2379999 1.431
-24.416 -5.5279999 1.408
3.8765001 -11.107 1.4685
3.934 -11.115 1.4614999
3.9765999 -11.1238 1.4664
4.0185003 -11.134 1.457
4.0753336 -11.137333 1.4596667
3.5815001 -11.05725 1.4612501
3.6282501 -11.071 1.4647499
3.6689999 -11.06775 1.466
3.7245002 -11.075167 1.4691666
3.776 -11.079666 1.4683332
3.8274999 -11.092 1.465
3.9070001 -11.1 1.469
3.29 -11.0105 1.455
3.3266666 -11.002334 1.4690001
3.3785 -11.019 1.4694999
3.4261997 -11.016001 1.4729999
3.47525 -11.023499 1.4735
3.5243335 -11.043667 1.4676666
3.2855 -10.996 1.4735
3.322 -10.9735 1.472
2.7149999 -10.9065 1.473
2.7775002 -10.910833 1.4755
2.8295 -10.91275 1.4775
2.8711667 -10.918667 1.4698333
2.9220002 -10.932286 1.4674287
2.4360001 -10.859335 1.4750001
2.4835 -10.865499 1.4605
2.5253749 -10.862375 1.4715
2.5733335 -10.862 1.4726667
2.6220002 -10.869715 1.4694287
2.6790001 -10.884501 1.46875
2.7325001 -10.8955 1.472
2.9119999 -10.883 1.4859999
2.233 -10.802 1.455
2.2770002 -10.811501 1.47975
2.3242002 -10.8226 1.4762
2.3754289 -10.824143 1.4762857
2.428 -10.841499 1.4660001
2.4742501 -10.84625 1.4777499
2.6294999 -10.8465 1.492
2.6736667 -10.821001 1.4903334
1.8329999 -10.751 1.4579999
2.2320001 -10.799 1.474
2.2509999 -10.792 1.455
2.3310001 -10.797 1.4960001
2.3776665 -10.775332 1.4950001
2.4324999 -10.77 1.4960001
2.4724998 -10.773001 1.4974999
1.595 -10.701 1.466
1.6276667 -10.709333 1.461
1.676 -10.719375 1.4675
1.7223334 -10.725833 1.472
1.7716669 -10.733444 1.474
1.8196001 -10.738601 1.4796
1.397 -10.653 1.475
1.4254999 -10.6615 1.4667501
1.4737144 -10.665 1.4724286
1.5263333 -10.675501 1.4801668
1.5691667 -10.682334 1.4786667
1.622 -10.689501 1.4844999
1.651 -10.696 1.4859999
1.0703334 -10.603666 1.4693334
1.1330001 -10.605 1.47
1.17375 -10.6045 1.4740001
1.2248001 -10.6132 1.4776
1.278 -10.62 1.470625
1.3256667 -10.6235 1.4696667
1.372875 -10.635375 1.4719999
1.4313334 -10.632334 1.4916668
1.489 -10.637 1.493
1.527 -10.637 1.494
1.625 -10.647 1.497
0.9835 -10.574249 1.4669999
1.0264 -10.5778 1.4704001
1.0785 -10.5895 1.4705
1.1203334 -10.598333 1.4753335
1.2 -10.597 1.464
1.289 -10.552 1.497
1.3185 -10.564501 1.499
1.365 -10.559 1.499
0.625 -10.503 1.4630001
0.65200001 -10.509 1.464
0.71650004 -10.504499 1.464
1.033 -10.51 1.487
1.0699999 -10.507 1.487
1.1186666 -10.524668 1.4903333
1.174 -10.526667 1.4916667
1.221 -10.530001 1.493
1.26 -10.548 1.4955001
0.38499999 -10.455 1.455
0.43099999 -10.4615 1.4649999
0.46833333 -10.469001 1.4566667
0.5226 -10.464 1.4642
0.57766676 -10.471 1.4671667
0.62199998 -10.462 1.4755
0.67949998 -10.49125 1.4715002
0.71500003 -10.48 1.479
0.97600001 -10.4935 1.484
1.0039999 -10.498 1.485
0.19 -10.402 1.465
0.23099999 -10.4226 1.4606
0.2735 -10.426 1.45925
0.31900001 -10.431 1.4601667
0.37025002 -10.438499 1.4662499
0.42433333 -10.440666 1.4653333
0.4765 -10.445 1.4725001
0.5266667 -10.42 1.4816668
0.57466668 -10.415 1.4873333
0.63374996 -10.4275 1.485
0.67550004 -10.431 1.4905
0.71200001 -10.4345 1.4909999
-0.071999997 -10.3685 1.46
-0.027000001 -10.367334 1.4596667
0.027333334 -10.377334 1.461
0.081 -10.389999 1.4630001
0.126 -10.388 1.4630001
0.16249999 -10.397 1.464
0.27200001 -10.360001 1.4775
0.37600002 -10.3696 1.4870001
-0.126 -10.332001 1.455
-0.098999999 -10.35 1.457
-2.3293333 -9.8586674 1.4926667
-2.2803333 -9.8560009 1.4843334
-2.675 -9.8059998 1.485
-2.4224999 -9.8242502 1.481125
-2.3716667 -9.8314438 1.478111
-2.776 -9.7709999 1.4843334
-2.7255001 -9.7676668 1.4790001
-2.6755717 -9.7712851 1.483143
-2.648 -9.7740002 1.4795001
-3.484 -9.6309996 1.497
-3.967 -9.55725 1.4847499
-3.9246669 -9.5646667 1.4801668
-3.8772228 -9.568222 1.4722222
-3.8252859 -9.5690002 1.4694285
-4.3099999 -9.5039997 1.488
-4.2690001 -9.5019999 1.485
-4.2280002 -9.5220003 1.4855
-4.1728334 -9.5150003 1.4785001
-4.1247149 -9.5204287 1.4821429
-4.079875 -9.5263748 1.4753751
-4.0271111 -9.5363331 1.4761111
-3.9827499 -9.5369997 1.469
-3.9395001 -9.5389996 1.4535
-4.5510001 -9.4569998 1.4960001
-4.5313334 -9.4573336 1.4766668
-4.4765005 -9.4639997 1.4741668
-4.4252501 -9.4703751 1.4765
-4.3745003 -9.4752502 1.46725
-4.3292003 -9.4762011 1.4706001
-4.2783999 -9.4778013 1.4754001
-4.2297502 -9.4925003 1.4679999
-4.1754999 -9.4920006 1.4785
-4.6085005 -9.4277496 1.46825
-4.5731668 -9.4395008 1.4768333
-4.5257502 -9.4460001 1.4705
-4.4905005 -9.4365005 1.4625
-4.4429998 -9.4429998 1.47
-5.401 -9.3129997 1.497
-5.3623333 -9.3109999 1.4809999
-5.3247499 -9.3134995 1.4725
-5.2778335 -9.3178329 1.4698334
-5.2389998 -9.3310003 1.45
-5.652 -9.2550001 1.489
-5.6199999 -9.257 1.47175
-5.573667 -9.2606678 1.4773334
-5.5225 -9.2605 1.4705
-5.4726 -9.2800007 1.475
-5.42275 -9.2814999 1.473125
-5.3730001 -9.2840004 1.4630001
-5.3334999 -9.2915001 1.4705
-5.2895002 -9.2884998 1.467
-5.6665001 -9.2414999 1.4590001
-5.632 -9.2390003 1.466
-5.5799999 -9.2469997 1.4630001
-6.2220001 -9.151 1.499
-6.1610003 -9.1523342 1.4753332
-6.1277504 -9.1665001 1.4742501
-6.075429 -9.1657152 1.4732859
-6.0300002 -9.1643333 1.4733334
-6.4253998 -9.1104002 1.4672
-6.3739996 -9.1154995 1.4775
-6.3284998 -9.118 1.474
-6.2772002 -9.1227999 1.4687999
-6.2253337 -9.1273336 1.4739999
-6.1767998 -9.1334 1.4782
-6.1243334 -9.1436672 1.4653333
-6.4194999 -9.0790005 1.467
-6.3940001 -9.0939999 1.467
-6.8668008 -9.0227995 1.4758
-6.8278332 -9.0300007 1.4768333
-7.2709999 -8.9594994 1.4814999
-7.2010002 -8.9530001 1.475
-6.8585 -8.9659996 1.4795001
-7.631 -8.9020004 1.485
-7.5539999 -8.9060001 1.479
-7.5255003 -8.9039993 1.4865
-7.4670005 -8.9086666 1.4853334
-7.427 -8.9233341 1.4836668
-7.3785996 -8.9240007 1.4742
-7.3222499 -8.9284992 1.47225
-7.2782502 -8.9372501 1.4744999
-7.2290001 -8.9467506 1.4715
-7.1914997 -8.941 1.473
-7.6030002 -8.8690004 1.4579999
-7.5767999 -8.8889999 1.4748
-7.5296669 -8.8880005 1.4680002
-7.4926662 -8.8966665 1.473
-7.4419999 -8.8990002 1.469
-9.4549999 -8.5410004 1.456
-9.4239998 -8.5419998 1.4529999
-10.267 -8.3439999 1.465
-10.25 -8.3009996 1.46
-10.948 -8.2530003 1.47
-10.82425 -8.2790003 1.4727499
-10.764999 -8.2784996 1.4675
-10.733 -8.2834997 1.4530001
-10.676001 -8.2985001 1.473
-10.251 -8.2720003 1.482
-10.246 -8.2824993 1.47
-11.209 -8.2080002 1.464
-11.1665 -8.2065001 1.473
-11.116 -8.2139997 1.4814999
-11.071334 -8.2150002 1.4613333
-11.020334 -8.2373333 1.4746666
-10.9165 -8.2439995 1.49
-10.899 -8.2460003 1.465
-11.37975 -8.1659994 1.4642501
-11.232 -8.1945 1.4775
-11.191 -8.1949997 1.487
-11.117 -8.1999998 1.456
-11.408 -8.1420002 1.477
-11.351 -8.0710001 1.4680001
-12.419001 -7.9689999 1.4690001
-12.359 -7.9710002 1.473
-12.530001 -7.9379997 1.4763334
-12.535 -7.9000001 1.484
-12.499 -7.8769999 1.4529999
-13.229334 -7.8103333 1.4663334
-13.134334 -7.8266668 1.4593333
-13.073 -7.8319998 1.472
-12.996 -7.8460002 1.467
-12.491667 -7.8323336 1.4676666
-13.528 -7.756 1.452
-13.4865 -7.7635002 1.4625001
-13.338333 -7.7816672 1.4736669
-13.577002 -7.7313337 1.4636667
-13.46 -7.717 1.499
-13.613 -7.6789999 1.455
-14.174 -7.6100001 1.469
-14.122 -7.6129999 1.465
-13.582001 -7.6304998 1.4635
-14.439 -7.559 1.46
-14.382 -7.5619998 1.455
-14.318001 -7.5699997 1.4696667
-14.299 -7.5809999 1.45
-14.23 -7.592 1.473
-14.081 -7.5599999 1.488
-14.038 -7.5679998 1.484
-14.515 -7.533 1.465
-14.475 -7.5450001 1.462
-14.358 -7.5170002 1.48
-14.341 -7.54 1.48
-14.231 -7.5139999 1.498
-14.19 -7.5229998 1.495
-14.124001 -7.5355 1.4905
-14.452 -7.4699998 1.4859999
-14.411 -7.4790001 1.483
-14.369 -7.4899998 1.48
-16.528999 -7.1339998 1.4859999
-17.587 -6.9099998 1.493
-17.639999 -6.895 1.497
-18.111 -6.8280001 1.462
-18.083 -6.8169999 1.493
-18.024 -6.8309999 1.489
-17.958 -6.8410001 1.485
-18.077 -6.7790003 1.4744999
-18.07725 -6.7252502 1.4732499
-19.937 -6.4629998 1.472
-19.868 -6.48 1.4680001
-19.805 -6.4980001 1.464
-20.360001 -6.3649998 1.461
-20.339001 -6.3979998 1.46
-20.321999 -6.3144999 1.476
-20.3255 -6.277 1.4755
-24.66 -5.4029999 1.464
-24.605 -5.4349999 1.461
-24.463501 -5.448 1.475
-24.789 -5.3860002 1.471
3.957 -11.057 1.529
4.0369997 -11.0635 1.533
3.678 -11.001 1.53
3.7449999 -11.008 1.534
3.7804999 -11.019 1.5369999
3.4319999 -10.953 1.535
3.4675 -10.9645 1.5374999
3.53475 -10.978 1.52175
3.6232858 -10.979144 1.5284288
3.2790003 -10.917714 1.5212858
3.3263335 -10.918667 1.5261667
2.885 -10.858 1.5420001
2.905 -10.858 1.503
2.628 -10.801 1.546
2.6800001 -10.805 1.5085
2.7305002 -10.806999 1.52
2.779 -10.82 1.5254
2.82775 -10.828249 1.5262499
2.8731668 -10.838 1.5156667
2.4326668 -10.757334 1.5206668
2.4780002 -10.754333 1.5213335
2.5288572 -10.776287 1.5222858
2.5736666 -10.778834 1.5210001
2.6248751 -10.787375 1.5215
2.6716669 -10.785667 1.5316668
2.2353332 -10.716333 1.5220001
2.2763336 -10.726666 1.5244445
2.326 -10.730833 1.5268333
2.3728573 -10.736286 1.5231429
2.415 -10.735 1.53
1.59 -10.668 1.5
