# .PCD v0.7 - Point Cloud Data file format
VERSION 0.7
FIELDS x y z
SIZE 4 4 4
TYPE F F F
COUNT 1 1 1
WIDTH 1655
HEIGHT 1
VIEWPOINT 0 0 0 1 0 0 0
POINTS 1655
DATA ascii
9.1731253 -4.5753751 1.9758749
9.1717138 -4.5265713 1.9712858
9.1730003 -4.4740005 1.9724287
5.7317495 -4.3730001 1.9729999
5.7353754 -4.3330002 1.9812502
5.7688003 -4.3166003 1.9775
5.8257499 -4.3206248 1.9735
5.8754287 -4.323 1.9774286
5.9246254 -4.3278751 1.974125
5.9764285 -4.3308573 1.9734287
2.655 -4.2010002 1.964
2.3898749 -4.1716876 1.9746875
2.4297082 -4.1629591 1.9735001
2.4716113 -4.1660552 1.9726113
2.5209999 -4.1739287 1.9742143
2.5727196 -4.1781998 1.9760399
2.62205 -4.1857505 1.9815003
2.6523335 -4.1966667 1.9686668
2.395 -4.1479998 1.98
2.4130001 -4.1479998 1.984
2.4530001 -4.1490002 1.973
-0.92410004 -4.037075 1.9740752
-0.87848276 -4.0418615 1.9743105
-0.82966673 -4.043375 1.9784584
-0.78657138 -4.0451431 1.9728571
-0.741 -4.0430002 1.9910001
22.809502 -5.3200002 2.0150001
22.829 -5.2610002 2.0150001
22.816 -5.2160001 2.013
9.1917505 -4.6322498 2.0209999
9.171833 -4.5720005 2.0246668
9.1679993 -4.5248575 2.0262859
5.7274618 -4.4230003 2.0250001
5.7314544 -4.3768182 2.0228181
5.7343636 -4.328455 2.0238183
5.7704287 -4.3144293 2.0185716
5.8226671 -4.3185558 2.0250001
5.8720007 -4.3214998 2.0283334
5.9224997 -4.3283749 2.0267501
5.971333 -4.330667 2.0253332
2.3861763 -4.2744703 2.0250587
2.3887691 -4.2253847 2.0243077
2.3900001 -4.1756115 2.0244446
2.4226785 -4.1627498 2.0245359
2.4711998 -4.1656504 2.0241497
2.5234139 -4.1718969 2.0250001
2.5766001 -4.1763501 2.0254002
2.6231821 -4.1810451 2.027
2.654 -4.198 2.023
2.4619999 -4.1490002 2.0139999
-0.86516666 -4.0545006 2.0268335
-0.81664711 -4.0542946 2.0215297
-0.77509099 -4.0576816 2.0227728
-0.73973334 -4.0703335 2.0241334
-0.92475015 -4.0373611 2.0247223
-0.87959981 -4.0407996 2.0245142
-0.83147371 -4.0443683 2.0238948
-0.77693331 -4.0467334 2.0316
-0.74475002 -4.0434999 2.0174999
22.846001 -5.3920002 2.0610001
22.823 -5.302 2.0569999
22.851999 -5.3499999 2.0599999
9.1916676 -4.6220007 2.0763335
9.1732855 -4.5784287 2.0717144
5.7162004 -4.5052004 2.0695999
5.7214622 -4.473846 2.0755386
5.725769 -4.4266152 2.0776925
5.7313581 -4.3747859 2.0725715
2.3803892 -4.3260002 2.074389
2.3852668 -4.2754664 2.0735335
2.3857498 -4.2226248 2.0739999
-0.7398001 -4.1589999 2.073
-0.86019993 -4.0542002 2.0734003
-0.81972218 -4.0577221 2.0656667
-0.77195239 -4.0570002 2.0747144
-0.74027771 -4.0691667 2.0753891
-0.92387176 -4.037077 2.0755641
-0.87696868 -4.0412188 2.0742812
-0.82841659 -4.0447087 2.0766668
-0.77846158 -4.0468464 2.0702307
-4.119 -3.9563332 2.0913334
-4.0710773 -3.9553077 2.0745385
-4.019043 -3.9674785 2.0711303
-3.9980001 -3.9745002 2.0885
-4.2244616 -3.9299235 2.0731537
-4.1783891 -3.9377778 2.0765555
-4.1254621 -3.9419234 2.0724616
-4.0878334 -3.9448333 2.0725
-4.0395002 -3.9464998 2.069
22.924 -5.454 2.1099999
22.924 -5.4109998 2.109
22.875999 -5.3559999 2.1040001
9.2025003 -4.6274996 2.1255
5.7196002 -4.5109997 2.1238
5.7196159 -4.4696922 2.1259232
5.7263637 -4.4203644 2.1244545
2.3847499 -4.3567505 2.1294999
2.383786 -4.3240719 2.1245
2.3853333 -4.275867 2.1252666
-0.74266666 -4.2185001 2.125
-0.74033332 -4.1603336 2.1286669
-0.73799998 -4.1334 2.1222
-0.77261907 -4.057333 2.1152859
-0.74086678 -4.066267 2.1206
-4.0102 -4.0279336 2.1275334
-4.1030002 -3.96 2.1400001
-4.0721116 -3.9545555 2.123111
-4.0190372 -3.9711108 2.1245928
-3.9984999 -3.9819999 2.1465001
-4.2670002 -3.9489999 2.1370001
-4.2280669 -3.9342005 2.1223333
-4.1738329 -3.9382226 2.1230557
-4.1248751 -3.943562 2.1231248
-4.0793333 -3.9445555 2.1275554
-4.0300002 -3.9486666 2.1271667
-27.379 -2.7079999 2.125
5.7274003 -4.5106006 2.1692002
5.7214446 -4.476222 2.1755555
2.3815 -4.3515 2.158
2.3828824 -4.3248239 2.1783528
-0.74280006 -4.2184005 2.1763999
-0.74119997 -4.1664004 2.1781998
-4.0167503 -4.0736876 2.1737497
-4.0093641 -4.0219088 2.179091
-4.112 -3.954 2.175
-4.0745454 -3.9549093 2.1734545
-4.0198698 -3.9709566 2.1768262
-4.2519999 -3.934 2.152
-4.227941 -3.9333532 2.1702352
-4.1228824 -3.9430592 2.1754706
-27.334999 -2.7030001 2.1700001
30.062 -5.9400001 2.2049999
30.056999 -5.8839998 2.204
30.028999 -5.8239999 2.2019999
2.3833332 -4.355 2.2266667
-0.74259996 -4.2184 2.2233999
-4.0218673 -4.1272674 2.2238667
-4.0147505 -4.0756669 2.2245831
-4.0104003 -4.0263338 2.2253335
-4.0232496 -4.1600003 2.2735
-4.0226007 -4.1281338 2.2742
-4.0183125 -4.073875 2.27525
-4.0290003 -4.1634288 2.3240001
-4.022357 -4.1236429 2.3265717
-26.389999 -3.2639999 2.5209999
-26.424999 -3.221 2.5239999
-26.461 -3.1789999 2.527
-26.221001 -3.3369999 2.599
-26.327 -3.2795 2.5619998
-26.393 -3.217 2.5680001
-26.068001 -3.411 2.631
-26.143 -3.375 2.638
-26.184 -3.332 2.642
-26.278 -3.273 2.6040001
-26.228001 -3.29 2.6459999
-26.007 -3.451 2.6719999
-26.056 -3.4100001 2.677
-26.108 -3.3699999 2.681
-26.149 -3.3280001 2.6849999
-25.535999 -3.5239999 2.7160001
-25.934 -3.4860001 2.711
-25.615999 -3.49 2.724
-26.023001 -3.4059999 2.7190001
-25.983999 -3.447 2.7160001
30.037001 -6.5310001 2.7520001
-25.559 -3.573 2.7650001
-25.528 -3.523 2.7609999
-25.889 -3.48 2.753
-25.554001 -3.4820001 2.763
-25.924999 -3.4389999 2.756
-25.628 -3.4449999 2.7709999
30.040001 -6.586 2.8069999
30.023001 -6.5279999 2.8050001
-25.549999 -3.6170001 2.8099999
-25.552 -3.572 2.8099999
-25.539 -3.5250001 2.8080001
-24.725 -3.5450001 2.809
30.044001 -6.6430001 2.8629999
30.025 -6.5830002 2.8599999
-25.566 -3.665 2.858
-25.5275 -3.6145 2.8759999
-25.539001 -3.5704999 2.8765001
30.070999 -6.7059999 2.921
30.028999 -6.6399999 2.9159999
30.17 -6.783 2.9860001
30.114 -6.7140002 2.9790001
-21.358999 -4.099 3.023
-23.700001 -3.993 3.043
-21.2735 -4.1210003 3.0700002
-21.315001 -4.0510001 3.0550001
-21.273499 -4.0819998 3.0695
-23.611 -4.02 3.0739999
-21.450001 -4.0380001 3.073
-23.823 -3.97 3.0569999
-23.757 -3.96 3.092
-23.66 -3.9860001 3.0799999
30.943001 -7.013 3.1199999
30.965 -6.9619999 3.1210001
29.907 -6.9450002 3.1270001
-21.250999 -4.1929998 3.1270001
-21.243 -4.1529999 3.1240001
-21.254 -4.1170001 3.125
-23.618999 -4.0650001 3.119
-21.243 -4.0770001 3.1229999
-23.611 -4.02 3.1170001
-23.702999 -3.951 3.1270001
-23.666 -3.987 3.1229999
-23.844 -3.9300001 3.102
30.926001 -7.0669999 3.175
30.927 -7.0089998 3.174
29.879 -6.993 3.1789999
29.886 -6.9400001 3.1789999
-7.7849998 -4.9840002 3.1989999
-11.124 -4.7119999 3.1930001
-14.441 -4.6554999 3.1865001
-14.625 -4.6020002 3.1500001
-14.458 -4.605 3.1730001
-14.436 -4.6254997 3.1834998
-14.645 -4.5809999 3.1530001
-14.518 -4.5825 3.1554999
-14.453 -4.5749998 3.1700001
-14.429501 -4.5825 3.1929998
-14.536 -4.5325003 3.1560001
-14.452 -4.5469999 3.168
-14.430667 -4.5226669 3.1806667
-14.5315 -4.4759998 3.1515
-17.899 -4.3179998 3.151
-21.233999 -4.2280002 3.164
-21.240499 -4.1724997 3.1634998
-23.674 -4.1170001 3.1700001
-23.563 -4.1399999 3.198
-24.584999 -4.052 3.154
-23.636999 -4.0679998 3.164
-23.653999 -4.027 3.165
-23.695 -3.9920001 3.1700001
30.914 -7.0650001 3.23
29.867001 -7.0469999 3.234
30.903999 -7.0040002 3.227
29.878 -6.993 3.233
-4.4134998 -5.2140002 3.2465
-4.377667 -5.2261109 3.2422221
-4.3319998 -5.2246666 3.2448337
-4.2849998 -5.2160001 3.244
-4.4050002 -5.1570001 3.2449999
-4.3730001 -5.1693335 3.2395
-4.3215714 -5.1742859 3.2459998
-4.2919998 -5.1826668 3.2433333
-4.371572 -5.121429 3.24
-4.3286247 -5.1228752 3.2446249
-4.2820001 -5.1304998 3.247
-7.6459999 -5.0655003 3.2375002
-7.7757502 -5.0212498 3.2084999
-7.7233334 -5.027 3.219667
-7.6741667 -5.0298333 3.232667
-7.6490002 -5.0489998 3.244
-7.7730002 -4.9766669 3.2130001
-7.7248001 -4.9800005 3.2169998
-7.6767998 -4.9829998 3.2284
-7.6430001 -4.9637499 3.2389998
-7.7703338 -4.9239998 3.2080002
-7.7266006 -4.9246001 3.2142003
-7.6752501 -4.9282503 3.2237499
-14.436666 -4.6723337 3.2189999
-14.4385 -4.6129999 3.224
-14.43 -4.5773335 3.2386665
-21.270334 -4.3253336 3.2233334
-21.229 -4.3429999 3.244
-21.2675 -4.2729998 3.2280002
-23.52 -4.2160001 3.237
-21.253 -4.2319999 3.244
-21.24 -4.2290001 3.2030001
-23.506001 -4.171 3.234
-23.584999 -4.1020002 3.243
-23.517 -4.132 3.234
29.872999 -7.1040001 3.29
29.875 -7.0479999 3.289
-0.95899999 -5.4727497 3.29175
-0.94099998 -5.4692497 3.2944999
-0.95299995 -5.427 3.2969999
-0.93666667 -5.4263334 3.2923334
-0.93657142 -5.3778577 3.2911427
-4.3049998 -5.2589998 3.2520001
-4.2786999 -5.2697001 3.2725003
-4.4654999 -5.2290001 3.2824998
-4.3175001 -5.2285004 3.2515001
-4.2753005 -5.2231002 3.2699001
-4.3410001 -5.1560001 3.2539999
-4.2693639 -5.176455 3.2705457
-7.6549997 -5.1199999 3.27775
-7.652 -5.0895004 3.2705002
-7.6426668 -5.0696669 3.2700002
-7.652 -5.0120001 3.256
-7.6364288 -5.0270004 3.2744288
-7.6291251 -4.9759998 3.2777503
-14.459666 -4.7366672 3.2833335
-14.444 -4.7119999 3.26
-14.434999 -4.6672502 3.2687502
-14.432 -4.6245003 3.2655001
-21.229 -4.381 3.2839999
-21.243999 -4.3264999 3.2839999
-23.525999 -4.2600002 3.2809999
-21.253 -4.27 3.2839999
-23.546 -4.2210002 3.283
-24.275 -4.178 3.293
-24.143999 -4.1989999 3.276
-23.531 -4.1760001 3.28
-23.516001 -4.132 3.277
29.872999 -7.1040001 3.3440001
2.2445002 -5.7119999 3.3404999
2.3692861 -5.7234287 3.3371432
2.2704616 -5.675693 3.3353083
2.3235998 -5.6795001 3.3327
2.3711669 -5.6720004 3.3364999
2.2735 -5.6225004 3.3345833
2.3245714 -5.623714 3.3311431
2.3761249 -5.6262498 3.335875
2.405 -5.6090002 3.349
2.2804444 -5.5755553 3.3311112
2.3242221 -5.5738893 3.3288891
2.3664289 -5.5765715 3.3320003
-0.93000007 -5.4635 3.3192501
-0.92799997 -5.4489999 3.3269999
-0.92550004 -5.3789997 3.3045001
-4.2865005 -5.3211665 3.3204999
-4.2840004 -5.2775002 3.3301668
-4.2718005 -5.2259998 3.3251998
-7.6635714 -5.1739998 3.324857
-7.6577139 -5.1260004 3.3235714
-7.6516666 -5.0826664 3.3356667
-7.6420002 -5.0696669 3.3063333
-14.461 -4.7740002 3.323
-14.463 -4.7329998 3.3204999
-14.458334 -4.6700001 3.3336666
-14.448 -4.6849999 3.3139999
-20.476 -4.4510002 3.3239999
-20.405001 -4.473 3.3139999
-21.256001 -4.4260001 3.3280001
-20.6115 -4.4235001 3.325
-20.528 -4.4250002 3.3310001
-21.233 -4.382 3.323
-20.695999 -4.3850002 3.3180001
-23.604 -4.3169999 3.336
-21.224499 -4.3225002 3.3195
-23.52 -4.2589998 3.323
-23.517 -4.2160001 3.3210001
-24.247 -4.1729999 3.3329999
-23.518 -4.1739998 3.3199999
5.632 -5.9699998 3.3970001
5.625 -5.921 3.3970001
5.6290002 -5.8629999 3.3970001
5.6599998 -5.8959999 3.3989999
2.243 -5.7298751 3.3731251
2.25 -5.71 3.381
2.2470002 -5.6741667 3.3766668
2.2536666 -5.6620002 3.3716667
2.2541666 -5.6210003 3.3713336
-0.93050003 -5.4680004 3.3715
-4.3040004 -5.3840003 3.382
-4.2960005 -5.368 3.3683336
-4.302 -5.3400002 3.3915
-4.2952003 -5.3264003 3.3710001
-4.2888575 -5.2768574 3.3727143
-7.6818004 -5.2215996 3.3682001
-7.7020001 -5.1999998 3.3989999
-7.6703334 -5.1656666 3.3703334
-7.6707501 -5.1259999 3.3699999
-14.6185 -4.8400002 3.3885
-14.5 -4.7600002 3.358
-14.481 -4.7249999 3.352
-20.431999 -4.553 3.395
-20.416 -4.5120001 3.391
-21.219 -4.4559999 3.362
-20.443001 -4.4809999 3.395
-20.396999 -4.4710002 3.3499999
-21.226 -4.4195004 3.381
-20.484001 -4.4155002 3.3805001
-20.436001 -4.4425001 3.3734999
-21.230499 -4.382 3.3804998
-20.669001 -4.3790002 3.3510001
-20.554001 -4.3920002 3.372
-23.57 -4.309 3.3740001
-23.462999 -4.3319998 3.359
-23.594 -4.2719998 3.3759999
-23.503 -4.2129998 3.362
-24.381001 -4.152 3.3499999
15.9255 -6.5755 3.4460001
15.951 -6.5370002 3.448
12.45 -6.3670001 3.4360001
12.5655 -6.3839998 3.4375
12.399 -6.3400002 3.448
12.426001 -6.3269997 3.4395001
12.476 -6.3249998 3.437
12.576 -6.348 3.4360001
12.403 -6.2880001 3.4430001
9.0445004 -6.0815001 3.4365001
9.0643339 -6.0680003 3.425
9.1346664 -6.0846667 3.418
9.1695004 -6.073 3.4145
5.5941668 -5.9653335 3.4233336
5.6700001 -5.968667 3.4066668
5.7779999 -5.9549999 3.434
5.5955 -5.92625 3.4189999
5.6158576 -5.9231429 3.4160001
5.6812501 -5.9227495 3.4047499
5.7275 -5.9344997 3.4135001
5.5985003 -5.8830004 3.444
5.6123338 -5.8754444 3.4162223
5.6669998 -5.8683333 3.403667
5.7140002 -5.8683333 3.4063334
5.7519999 -5.8660002 3.4170001
2.2371113 -5.7759995 3.421
2.2410002 -5.7251425 3.4277146
2.2443335 -5.6868339 3.4175
-0.94 -5.5830002 3.4349999
-0.93900001 -5.5159998 3.428
-4.3129997 -5.4280005 3.4113336
-4.3117499 -5.3905001 3.4215002
-4.3062501 -5.3409996 3.4230001
-4.3000002 -5.3195 3.4130001
-7.7540002 -5.2540002 3.4260001
-7.7080002 -5.1364999 3.4060001
-14.534 -4.855 3.4000001
-14.48575 -4.8800001 3.43325
-14.633 -4.803 3.4170001
-14.569 -4.8193336 3.4136665
-14.518 -4.8210001 3.4219999
-14.488667 -4.8299999 3.4346666
-14.59 -4.789 3.4349999
-14.516 -4.7919998 3.447
-20.458 -4.559 3.437
-20.444 -4.5180001 3.434
-21.332001 -4.4809999 3.4189999
-20.471001 -4.4879999 3.437
-23.535999 -4.303 3.411
19.406 -6.7509999 3.48
19.455 -6.7290001 3.487
19.448999 -6.6900001 3.484
15.892 -6.579 3.471
15.89225 -6.5289998 3.4832501
12.391 -6.4169998 3.4809999
12.395 -6.3785 3.4645
12.4035 -6.3829999 3.467
12.4125 -6.3334999 3.4759998
9.0372 -6.1298003 3.4761999
5.5876665 -6.028667 3.4747777
5.5999999 -6.0209999 3.4530001
5.5924287 -5.9735713 3.4701431
5.6009998 -5.9689999 3.4714999
5.594667 -5.927 3.4790001
5.6009998 -5.9159999 3.4549999
2.2315001 -5.8256664 3.4731669
2.2365716 -5.777 3.474143
2.241286 -5.7302861 3.4767144
-0.95500004 -5.6743331 3.4636667
-0.94999999 -5.6389999 3.497
-4.3499999 -5.4879999 3.4560001
-14.496 -4.954 3.483
-14.515 -4.9330001 3.457
-14.491 -4.9250002 3.48
-14.483 -4.8789997 3.4744999
-17.443001 -4.8249998 3.4890001
-17.579 -4.7969999 3.48
-20.334 -4.6430001 3.4949999
-20.509001 -4.533 3.4820001
-21.302 -4.473 3.4530001
-21.327 -4.441 3.4560001
22.779999 -6.9775 3.5239999
22.922001 -6.9775 3.5015001
22.787001 -6.915 3.5220001
19.323 -6.723 3.5020001
19.35 -6.7319999 3.543
15.88375 -6.6234999 3.52
15.8815 -6.5739999 3.5155001
15.8865 -6.527 3.5285001
12.395 -6.4370003 3.5270002
12.41 -6.427 3.5120001
12.394 -6.3780003 3.5289998
12.4105 -6.3865004 3.507
12.391 -6.336 3.523
12.4095 -6.3325 3.5009999
9.0424995 -6.1724997 3.52525
5.581429 -6.0697145 3.521286
5.5881667 -6.0326667 3.5270002
5.5999999 -6.0209999 3.5209999
5.587286 -5.9771428 3.5254288
5.5999999 -5.9790001 3.5079999
2.2223334 -5.9239998 3.5271671
2.2265716 -5.8708577 3.521286
2.2297001 -5.8269997 3.5276
-0.95499998 -5.6700001 3.5020001
-14.559 -4.9759998 3.526
-16.709 -4.908 3.5469999
-16.558001 -4.9260001 3.549
-14.5235 -4.9215002 3.5425
-14.494 -4.9260001 3.5090001
-17.190001 -4.8530002 3.5079999
-17.096001 -4.8600001 3.523
-17.019001 -4.869 3.5244999
-16.83 -4.8790002 3.5369999
-14.491668 -4.877667 3.5136669
-17.3825 -4.8084998 3.5255001
-17.344 -4.8309999 3.503
-17.299 -4.8179998 3.527
-17.223999 -4.8305001 3.5295
-17.156 -4.8439999 3.533
-17.038 -4.8429999 3.543
-17.518501 -4.7804999 3.517
-17.455 -4.796 3.5220001
-17.412001 -4.7839999 3.546
-20.205 -4.652 3.5120001
-20.184 -4.684 3.5090001
-20.271 -4.6290002 3.5220001
26.257 -7.2659998 3.5940001
26.266001 -7.2189999 3.5929999
26.254999 -7.1669998 3.5899999
22.785 -7.0009999 3.5680001
22.765999 -6.9299998 3.5625
15.894 -6.677 3.573
15.874499 -6.6195002 3.5805001
15.878 -6.572 3.562
12.396 -6.5019999 3.569
12.405001 -6.5205002 3.5864999
12.399 -6.4749999 3.5669999
12.4 -6.4759998 3.5929999
12.3925 -6.4445 3.5749998
12.407499 -6.4254999 3.576
12.403749 -6.3829999 3.57025
5.5775552 -6.122889 3.5751109
5.5807505 -6.0707502 3.575875
5.5830007 -6.0232859 3.5772858
2.2290001 -5.9105 3.5599999
-11.121666 -5.2380004 3.587667
-16.622999 -4.914 3.5610001
-16.962 -4.8530002 3.5610001
-16.903 -4.868 3.55
-16.858 -4.855 3.573
-16.767668 -4.8713336 3.5663333
-16.725 -4.8800001 3.5799999
-16.667999 -4.8959999 3.569
-16.625999 -4.8829999 3.592
-17.257 -4.8060002 3.5510001
-17.153999 -4.8109999 3.563
-17.108 -4.8299999 3.556
-17.059 -4.816 3.5780001
-16.999001 -4.8319998 3.5669999
-16.929501 -4.8280001 3.5855
-16.813 -4.842 3.595
-17.458 -4.7639999 3.5539999
-17.218 -4.796 3.575
-21.128 -4.7080002 3.589
-21.018999 -4.723 3.5710001
26.256001 -7.3150001 3.6440001
26.243 -7.2620001 3.6400001
26.250999 -7.2150002 3.6389999
15.877 -6.7195001 3.6045001
15.9185 -6.7364998 3.6459999
15.884 -6.6719999 3.602
15.919001 -6.6704998 3.6399999
12.397 -6.5580001 3.6029999
12.403 -6.533 3.6010001
9.0539999 -6.3684998 3.6175001
5.5714998 -6.1795006 3.61025
5.5754995 -6.1255002 3.61075
5.5845003 -6.0775003 3.6195002
-11.0824 -5.2704 3.6262002
-11.091667 -5.224 3.6163335
-14.654 -5.152 3.6459999
-11.0655 -5.1954999 3.6329999
-15.636 -5.1020002 3.6489999
-14.662 -5.1259999 3.645
-14.663 -5.0830002 3.6424999
-14.558 -5.0609999 3.6459999
-14.677 -5.0304999 3.6415
-14.565 -5.0349998 3.645
-15.679 -4.9650002 3.6489999
-16.773001 -4.862 3.6199999
-16.684999 -4.868 3.6029999
-20.976 -4.7140002 3.6029999
29.716 -7.5609999 3.664
29.705999 -7.5019999 3.661
26.253 -7.3649998 3.6930001
26.242001 -7.3109999 3.6900001
26.259001 -7.2670002 3.691
22.754999 -7.1669998 3.6570001
15.921 -6.7870002 3.6500001
-7.8590002 -5.5594997 3.6935
-7.7954998 -5.5760002 3.6964998
-7.8730001 -5.539 3.6930001
-7.8200002 -5.5419998 3.697
-7.777 -5.5209999 3.697
-7.8575001 -5.4765 3.6935
-7.8216667 -5.4819999 3.6959999
-7.7519999 -5.473 3.698
-9.9530001 -5.4130001 3.681
-9.9295006 -5.4229999 3.6865001
-7.8569999 -5.4460001 3.687
-7.830667 -5.4276667 3.6933334
-7.7816672 -5.434 3.6983333
-11.101 -5.355 3.675
-10.027 -5.375 3.6965001
-9.9720001 -5.3779998 3.681
-9.9267502 -5.3765001 3.6837499
-11.080667 -5.329 3.6813333
-9.9104996 -5.3234997 3.6872501
-13.2875 -5.2639999 3.6845
-11.08125 -5.2860003 3.6719999
-13.4185 -5.2344999 3.6735001
-13.311 -5.2059999 3.671
-13.292 -5.2249999 3.6819999
-11.074167 -5.2358332 3.6753335
-14.520667 -5.1809998 3.675
-14.489 -5.151 3.6659999
-13.4325 -5.1865001 3.6719999
-13.325 -5.158 3.6700001
-13.286334 -5.1783333 3.6806667
-14.5605 -5.1339998 3.6515
-14.507999 -5.1295004 3.6820002
-13.452 -5.1279998 3.671
-13.43 -5.145 3.668
-13.323999 -5.118 3.6659999
-13.268 -5.1225004 3.6795001
-15.6705 -5.0669999 3.654
-14.568 -5.0929999 3.6500001
-14.5055 -5.0854998 3.6645
-14.490499 -5.0799999 3.6884999
-13.443 -5.0970001 3.6659999
-15.688 -5.0279999 3.655
-15.538668 -5.0196667 3.6626668
-14.596 -5.0170002 3.651
-15.697 -5 3.655
-15.531 -4.9775 3.6630001
29.684 -7.6069999 3.7160001
29.687 -7.5539999 3.7149999
29.695 -7.5009999 3.714
26.250999 -7.415 3.744
26.250999 -7.3639998 3.7420001
-2.275625 -5.9226251 3.737875
-2.1808572 -5.930429 3.7402861
-2.1320002 -5.929625 3.7417498
-2.2698572 -5.8674288 3.7347145
-2.2257001 -5.8743 3.7359998
-2.1753333 -5.8804445 3.737222
-2.1247001 -5.8733997 3.7412
-4.3310003 -5.8157501 3.7455001
-3.3737497 -5.8267498 3.7337499
-3.3258569 -5.8280005 3.7288575
-3.2736669 -5.8298335 3.7254999
-3.2193332 -5.8220005 3.7271113
-2.2711999 -5.8202 3.7381999
-2.2235 -5.8250999 3.7348001
-2.175 -5.8231249 3.7351248
-2.1289091 -5.8219099 3.7390912
-2.099 -5.8070002 3.747
-4.4770002 -5.7779999 3.7460001
-4.4203334 -5.7813334 3.7460001
-4.3737998 -5.7744002 3.7464001
-4.3246665 -5.7670002 3.7473335
-3.3657146 -5.7774286 3.7327147
-3.3261428 -5.778429 3.7290003
-3.2747777 -5.7778893 3.7241108
-3.2218997 -5.7748003 3.7258
-2.2646 -5.7795997 3.7376001
-2.223875 -5.7802501 3.7323749
-5.526 -5.7030001 3.7490001
-5.4695001 -5.724 3.7465
-5.4250002 -5.7172499 3.7467499
-4.4714999 -5.7327499 3.7475002
-4.4241996 -5.7238002 3.7448003
-4.3723335 -5.7253337 3.7446668
-4.3242002 -5.7218003 3.744
-3.3766 -5.7238002 3.7323997
-3.3240004 -5.725286 3.7261429
-3.2825 -5.7208328 3.7251668
-3.224889 -5.7261114 3.721889
-3.1942501 -5.7272501 3.734
-6.6775002 -5.6747499 3.73475
-6.6239996 -5.6793337 3.7338333
-6.574667 -5.6766672 3.7376666
-5.4637499 -5.6777501 3.74575
-5.4262004 -5.6743999 3.7474
-4.4630003 -5.6767502 3.74575
-4.4266 -5.6774001 3.7456002
-4.3751431 -5.6775718 3.744
-4.3227143 -5.6830001 3.7455716
-6.757 -5.632 3.7490001
-6.7255001 -5.6355 3.7395
-6.6795001 -5.6265001 3.7373333
-6.612 -5.6090002 3.7309999
-6.5793333 -5.6245003 3.7365003
-5.4720001 -5.6469998 3.7460001
-5.4279995 -5.6206675 3.7446666
-5.395 -5.6160002 3.743
-7.7624998 -5.573 3.7045
-7.7162862 -5.5730004 3.7171431
-6.7139997 -5.5664997 3.7350001
-6.6785002 -5.5760002 3.7344999
-6.6276665 -5.5826664 3.7286668
-6.5756664 -5.5749998 3.7333336
-7.908 -5.5430002 3.7049999
-7.8293338 -5.5213332 3.7013335
-7.7750001 -5.5500002 3.7030001
-7.7171249 -5.5198746 3.7135
-7.6960001 -5.5249996 3.7395
-6.6733336 -5.5423336 3.7326667
-10.175 -5.4650002 3.73
-10.116 -5.4674997 3.714
-9.916667 -5.4728332 3.7236667
-7.8179998 -5.48 3.701
-7.776 -5.4699998 3.704
-7.7162862 -5.4771428 3.7145717
-11.103 -5.427 3.7309999
-9.9112501 -5.42975 3.71525
-9.8940001 -5.4039998 3.7279999
-11.0936 -5.3887997 3.7286
-10.073 -5.3649998 3.7079999
-9.9056664 -5.3726668 3.7189999
-9.8976669 -5.3763342 3.7316666
-11.08075 -5.3327498 3.7247503
-10.093 -5.3424997 3.71
-13.301 -5.2550001 3.7
-13.2935 -5.2665 3.7260001
-11.07475 -5.2834997 3.7167499
-14.51825 -5.23175 3.7210002
-13.2825 -5.2215004 3.7325001
-14.513 -5.1879997 3.7165
-14.492 -5.152 3.723
-13.2805 -5.1807499 3.7279999
-14.51 -5.1300001 3.7249999
29.645 -7.652 3.767
29.677 -7.605 3.77
29.688999 -7.5539999 3.77
1.117 -6.1570001 3.7969999
1.153 -6.171 3.7950001
1.0875001 -6.1149998 3.799
1.1230001 -6.1267142 3.797143
1.1795001 -6.132 3.7969999
-0.0040000002 -6.0760002 3.7965
0.027799997 -6.0721998 3.7940998
0.080285713 -6.0822859 3.7954285
0.12900001 -6.0701437 3.7945716
0.155 -6.085 3.796
1.0905 -6.0714998 3.7944999
1.1232858 -6.0690007 3.7960002
1.1730001 -6.0616665 3.7956667
-1.00825 -6.0219998 3.7709999
-0.0040000002 -6.0279999 3.7955
0.028666666 -6.0300002 3.7959998
0.074250005 -6.0238748 3.7931249
0.1219 -6.0255003 3.7932
0.15766667 -6.0296664 3.7956667
1.09 -6.0389996 3.7975001
1.123 -6.0206003 3.7942002
1.1846 -6.0327997 3.7952001
-1.005 -5.9700003 3.7679999
-0.99399996 -5.9702501 3.7814999
-0.0040000002 -5.9970002 3.7980001
0.027200002 -5.9780002 3.7931001
0.073749997 -5.976625 3.792625
0.12100001 -5.9781003 3.7939999
0.1608 -5.9770002 3.7956002
-2.313 -5.9400001 3.763
-2.1115999 -5.9318004 3.767
-1.005 -5.9050002 3.7639999
-0.99175 -5.9247503 3.7825
-3.4145 -5.8800001 3.7550001
-3.2084 -5.8773999 3.7697999
-2.3010001 -5.8769999 3.7550001
-2.1053333 -5.8889999 3.7800002
-1.001 -5.8870001 3.767
-4.4183998 -5.8212004 3.7540002
-4.3212862 -5.8215723 3.7735717
-3.4059999 -5.829 3.7520001
-3.2046669 -5.823 3.7693336
-3.198 -5.8179998 3.7725
-2.1086664 -5.8423338 3.7643335
-2.0974998 -5.8179998 3.7674999
-5.5734997 -5.7714996 3.763
-5.4693336 -5.7636671 3.7519999
-5.414 -5.7777147 3.7722857
-5.4000001 -5.7709999 3.799
-4.5095 -5.7819996 3.7555001
-4.4779997 -5.7825003 3.7535
-4.434 -5.7674999 3.7537501
-4.3540001 -5.7989998 3.753
-4.3150005 -5.7713332 3.7645004
-3.1976669 -5.7693338 3.7709999
-2.29 -5.7909999 3.75
-6.5733337 -5.7256675 3.7691667
-5.528667 -5.7316675 3.7543335
-5.4990001 -5.7350001 3.7520001
-5.4101429 -5.7298574 3.7737145
-4.5110002 -5.7329998 3.76
-4.4720001 -5.7020001 3.7509999
-4.3885002 -5.7284999 3.7515001
-4.3045001 -5.7327499 3.7825
-4.2976665 -5.7103338 3.7676668
-7.691 -5.665 3.7795
-6.5707145 -5.679286 3.7705715
-5.506 -5.6810002 3.753
-5.493 -5.6880002 3.75
-5.4036002 -5.6788001 3.7751999
-5.3959999 -5.6760001 3.7565
-4.4899998 -5.6849999 3.75
-4.3754997 -5.6805 3.7509999
-7.7142868 -5.6247149 3.7751429
-6.5611429 -5.6312857 3.7741432
-5.4229999 -5.6350002 3.7595
-7.7128577 -5.5735717 3.7735717
-6.756 -5.572 3.75
-9.9109993 -5.5367498 3.7757499
-9.8979998 -5.5190001 3.7909999
-7.70575 -5.5320001 3.7820001
-11.1058 -5.4810004 3.7726002
-9.9013338 -5.4910002 3.7730002
-9.8866673 -5.46 3.7783334
-11.105 -5.428 3.779
-11.098 -5.448 3.78
-9.9085007 -5.4224997 3.7565
-9.8877497 -5.4230003 3.7782502
-13.299 -5.3759999 3.7915001
-11.091201 -5.3783998 3.7828004
-13.296 -5.3215003 3.7719998
-14.524 -5.2775002 3.7835002
-13.285 -5.2676668 3.7593334
-14.520249 -5.2327499 3.7785001
-14.509251 -5.1722498 3.77125
29.641001 -7.7059999 3.823
29.645 -7.652 3.8210001
29.676001 -7.6040001 3.8239999
4.4190001 -6.375 3.846
4.4239998 -6.3340001 3.8469999
2.3569999 -6.2820001 3.8439999
4.4489999 -6.2750001 3.8469999
4.4765 -6.2784996 3.848
4.5173335 -6.2703338 3.8480003
2.1796002 -6.2235999 3.8281999
2.2272222 -6.227222 3.8203332
2.279 -6.2348576 3.8192859
2.3198335 -6.2218337 3.8218334
1.0649999 -6.1742005 3.8257999
1.1781667 -6.1741672 3.8070002
1.2146667 -6.1688337 3.8080001
2.1851432 -6.1805711 3.8238573
2.222625 -6.1725001 3.819375
2.2704999 -6.1778002 3.8195
2.3195002 -6.177 3.8181667
2.352 -6.1869998 3.8299999
-0.019571429 -6.128572 3.8197143
0.16500001 -6.1234002 3.8082001
1.077143 -6.1361432 3.8104289
1.1376667 -6.1253338 3.8056667
1.1701429 -6.1152859 3.8015714
1.2235 -6.1296668 3.8130002
2.1920002 -6.1308579 3.8307142
2.221143 -6.1201429 3.8194287
2.2737501 -6.1261253 3.8193748
2.3244445 -6.132 3.8203332
-1.0026667 -6.0869999 3.8323333
-0.057 -6.0949998 3.8310001
-0.0296 -6.0750003 3.8327999
0.063999996 -6.0705004 3.8004999
0.1125 -6.0950003 3.8015001
0.17200001 -6.0706 3.8106
1.076 -6.0806251 3.8191252
1.12 -6.079 3.8025
1.17775 -6.0792499 3.8022499
1.223125 -6.0789995 3.8071249
-2.118 -6.0232501 3.8217502
-0.02 -6.0469999 3.8369999
0.017000001 -6.0250001 3.8010001
0.101 -6.0479999 3.8010001
0.17475002 -6.0197496 3.8065
-2.1133335 -5.9766669 3.8170002
-3.2090001 -5.9190001 3.8110001
-2.1090002 -5.9313331 3.8200002
-4.3225002 -5.8735003 3.8233333
-3.2093334 -5.8763332 3.8206668
-2.1036668 -5.8840003 3.822
-5.41575 -5.82375 3.8232501
-4.3198338 -5.8269997 3.8270001
-3.2029998 -5.8180003 3.8186002
-6.5793333 -5.7673335 3.8073335
-5.4056001 -5.7730002 3.8188
-4.3148336 -5.7785006 3.8210001
-6.5677142 -5.7190003 3.8247147
-5.408 -5.7395 3.816
-5.395 -5.7176003 3.8262002
-7.7187142 -5.6725717 3.8235714
-6.5631671 -5.6769996 3.8241668
-5.403667 -5.6879997 3.8106668
-9.8915005 -5.61625 3.8327501
-7.7177496 -5.6227503 3.82675
-9.9085007 -5.5804996 3.8150001
-9.8920012 -5.5753336 3.8210001
-11.111 -5.5144997 3.8164999
-9.8813343 -5.5241671 3.8275001
-11.115334 -5.4730005 3.8276668
-9.8759995 -5.4754 3.8260002
-11.107 -5.4289999 3.8155
-11.097 -5.448 3.803
-14.5355 -5.3247504 3.8187499
-14.533 -5.2800002 3.829
-14.521667 -5.2283335 3.8310001
11.298 -6.7529998 3.8989999
11.38 -6.7750001 3.8989999
11.308 -6.7049999 3.895
11.324 -6.6880002 3.8959999
7.8303337 -6.6316671 3.8963335
7.8742504 -6.6217499 3.8907502
7.9293337 -6.6283336 3.8900001
7.9565001 -6.6315002 3.881
7.961 -6.5766668 3.8793335
5.6059999 -6.4629998 3.895
4.4243007 -6.4232001 3.8704
4.5253997 -6.421 3.8576
4.573 -6.4258003 3.8593998
5.5777502 -6.4190001 3.88975
5.6339998 -6.4489999 3.8989999
5.6789999 -6.4099998 3.8989999
6.8346667 -6.4313335 3.8846669
6.8726668 -6.4293337 3.8830001
4.4234285 -6.3740001 3.8734286
4.4748569 -6.3760004 3.8548572
4.5277996 -6.3716006 3.8554001
4.5770001 -6.3725004 3.8559999
5.5699997 -6.3759995 3.8903337
5.6202497 -6.3832502 3.8947499
4.4243751 -6.3218751 3.8720002
4.47225 -6.3314996 3.8557498
4.5225 -6.3200002 3.85325
4.5748 -6.3346 3.8571999
2.1725001 -6.2688332 3.8803334
4.4794998 -6.283 3.8505001
4.5404997 -6.2874999 3.8540001
4.5758004 -6.2807999 3.8562
1.053 -6.2350001 3.868
2.1816669 -6.2238331 3.8753335
-0.030999999 -6.1700001 3.8625002
1.0599999 -6.1768336 3.8708332
2.1844001 -6.1750002 3.8756001
-0.036499999 -6.1235003 3.8707502
1.0684999 -6.1304998 3.8734999
-2.1215 -6.0669999 3.878
-0.9986667 -6.0653338 3.868
-0.02275 -6.0854998 3.8687501
-2.118 -6.0240002 3.875
-0.99450004 -6.0404997 3.8769999
-3.2201667 -5.9706664 3.8708334
-2.1120002 -5.9726 3.8748002
-4.3336 -5.9210005 3.8764
-3.21825 -5.9235001 3.8775001
-5.4163337 -5.8743339 3.8698335
-4.3268003 -5.8772006 3.8781998
-3.2146001 -5.8834 3.8706002
-5.4131436 -5.8264284 3.8718574
-4.3194003 -5.8283997 3.8714001
-7.7670002 -5.7839999 3.881
-5.4077144 -5.7738576 3.8685715
-7.763 -5.7283335 3.8826666
-7.7329998 -5.7480001 3.852
-7.7684999 -5.6700001 3.8930001
-7.7340002 -5.6654997 3.8715
-9.915 -5.618 3.8789999
-7.7235003 -5.6269999 3.8585
-9.8975 -5.5749998 3.8664999
-9.8690004 -5.5250001 3.8499999
-14.536 -5.4260001 3.8989999
-14.542001 -5.3842502 3.88275
-15.602 -5.302 3.868
-14.551 -5.316 3.8929999
-14.538666 -5.3303337 3.8723333
-15.601 -5.2719998 3.865
-14.5355 -5.2670002 3.8570001
-15.603 -5.2420001 3.8629999
29.945 -7.8410001 3.918
29.983999 -7.7950001 3.9219999
29.990999 -7.7410002 3.921
15.926 -7.085 3.931
15.964 -7.0700002 3.938
15.878 -7.0320001 3.948
15.976 -7.0255003 3.9360001
13.548 -6.9860001 3.944
15.867001 -6.9770002 3.9405
12.578 -6.9359999 3.931
12.4195 -6.8909998 3.9400001
12.462999 -6.8870001 3.9235001
11.27 -6.8299994 3.9288335
11.302 -6.8080001 3.9089999
11.368999 -6.8216667 3.9029999
12.427 -6.8380003 3.9345
12.4765 -6.8375001 3.9200001
12.504 -6.8099999 3.9230001
11.264251 -6.7722497 3.931
11.311 -6.7859998 3.908
11.4175 -6.7565002 3.905
11.27025 -6.7224998 3.925
11.315 -6.7360001 3.901
11.433001 -6.7115002 3.9025002
7.8199997 -6.6276002 3.9290001
4.4115005 -6.4724998 3.9263334
5.5430002 -6.4753337 3.9226665
5.5577502 -6.4765005 3.9125001
5.6269999 -6.4640002 3.902
5.7140002 -6.4720001 3.9130001
6.7682505 -6.4765 3.9159999
4.4099998 -6.4235716 3.9261432
5.546 -6.4289999 3.9369998
5.5561247 -6.4227505 3.9203749
5.6490002 -6.4439998 3.902
5.6779995 -6.423667 3.9033334
5.737 -6.4289999 3.9230001
4.4181433 -6.3802862 3.9225717
1.053 -6.302 3.9389999
2.1661668 -6.3275003 3.9250002
1.0548 -6.2733998 3.9214001
2.1721668 -6.2730002 3.9295001
1.0605 -6.2129998 3.9235001
2.1768572 -6.2307148 3.9277143
-1.007 -6.1853333 3.9389999
1.0645 -6.1715002 3.92875
-2.12375 -6.1099997 3.9182498
-1.001 -6.1440001 3.9419999
-0.015 -6.1094999 3.921
-2.1186666 -6.0596671 3.911
-3.2366667 -6.0310001 3.9293334
-2.1142502 -6.013 3.9215002
-4.3423338 -5.9773331 3.9226665
-3.2295001 -5.9755001 3.92275
-5.4250007 -5.9258003 3.9178002
-4.3337502 -5.9317498 3.9170003
-3.2224998 -5.9250002 3.911
-5.4216671 -5.8765559 3.9279997
-4.3295002 -5.8832502 3.9190001
-5.4168334 -5.8201671 3.9250002
-8.8015003 -5.7335 3.9260001
-8.7959995 -5.7410002 3.905
-8.816 -5.6774998 3.9400001
-8.7975006 -5.6875 3.9155002
-14.553 -5.4320002 3.9330001
-14.553 -5.3740001 3.928
-14.521 -5.3909998 3.921
-14.661 -5.3270001 3.9200001
-14.586 -5.329 3.931
-14.535 -5.3390002 3.9200001
29.66 -7.875 3.993
29.893 -7.881 3.9679999
29.625 -7.8099999 3.987
29.910999 -7.8319998 3.9690001
29.943001 -7.7839999 3.971
22.768 -7.5219998 3.9749999
24.046 -7.527 3.997
22.814499 -7.4720001 3.98
22.806999 -7.402 3.9749999
17.16 -7.2080002 3.96
17.023001 -7.151 3.9949999
17.052 -7.1809998 3.97
17.181 -7.1820002 3.9619999
15.8815 -7.1329999 3.974
17.023001 -7.1160002 3.993
17.076 -7.138 3.971
17.179501 -7.1279998 3.957
15.87875 -7.0810003 3.9689999
17.073999 -7.0844998 3.9665
17.186001 -7.0780001 3.954
13.5435 -7.0279999 3.9759998
15.859 -7.0229998 3.9749999
12.407 -6.9549999 3.9719999
13.559 -6.9920001 3.9760001
11.256001 -6.9160004 3.9765
12.3945 -6.934 3.98
12.41 -6.914 3.9945002
11.246 -6.8569999 3.977
11.255333 -6.8800001 3.9666667
12.394 -6.8765001 3.9720001
12.405 -6.869 3.96
11.248 -6.8299999 3.973
11.257 -6.8080001 3.9719999
12.41075 -6.8292503 3.96925
11.247499 -6.7755003 3.977
7.8168335 -6.7258334 3.9771667
6.756 -6.6603336 3.9726667
7.816 -6.6774998 3.9752498
4.3979998 -6.5380001 3.993
4.409286 -6.5308576 3.9708576
5.5433998 -6.5246005 3.9702001
4.4112864 -6.4740005 3.9794285
5.5465999 -6.4776001 3.9728
5.559 -6.4780002 3.9760001
2.1560001 -6.4250002 3.9773335
4.414 -6.423667 3.9750001
1.05 -6.3544998 3.9780002
2.1626668 -6.3771667 3.9754999
1.0534999 -6.3232498 3.971
2.1664286 -6.3185716 3.9727144
1.0586667 -6.2663336 3.9786668
1.0617499 -6.2200003 3.9737501
-2.1340001 -6.1760001 3.9660001
-2.132 -6.1350002 3.973
-0.99900001 -6.1329999 3.9584999
-4.3699999 -6.059 3.967
-2.1229999 -6.073 3.95
-4.382 -6.0430002 3.9885001
-5.4347496 -5.9742503 3.9694998
-4.3626666 -5.9606667 3.9713333
-5.4367499 -5.9342504 3.96875
-5.434 -5.8760004 3.9743335
-14.556 -5.4330001 3.9619999
-14.518 -5.448 3.9549999
-14.5355 -5.382 3.9524999
23.969 -7.6409998 4.0359998
24.040001 -7.6170001 4
22.790001 -7.5739999 4.0250001
23.965 -7.5939999 4.033
24.091 -7.5869999 4.006
22.775 -7.5240002 4.0190001
23.955 -7.5440001 4.0289998
22.749001 -7.4720001 4.013
22.754 -7.4299998 4.0110002
17.016748 -7.2709999 4.0209999
17.0205 -7.2199998 4.0174999
15.867 -7.1754999 4.0235
17.037498 -7.1925001 4.0184999
15.867 -7.1269999 4.0190001
13.536 -7.0689998 4.0359998
13.5725 -7.0725002 4.0165
15.872001 -7.0723333 4.0253334
12.395667 -7.0143332 4.0223331
13.563002 -7.0326667 4.0290003
11.247 -6.9779997 4.0474997
11.2605 -6.9595003 4.0219998
12.405334 -6.9726667 4.0190001
11.243999 -6.9219999 4.0375004
11.251 -6.9130001 4.0120001
12.392 -6.947 4.0479999
12.4035 -6.9245 4.0339999
10.036334 -6.8716669 4.0303335
11.244334 -6.8733339 4.0213337
11.251 -6.8590002 4.0040002
10.042 -6.8282499 4.0274997
11.2555 -6.8207502 4.0177498
7.8116674 -6.7730002 4.0220003
10.0445 -6.7784996 4.0310001
7.8235002 -6.7315001 4.0325003
7.8208003 -6.6748004 4.0234003
4.3969998 -6.5370002 4.0440001
4.4061427 -6.518858 4.0190001
5.5450001 -6.5236673 4.0250001
5.5506668 -6.5226669 4.0263333
2.1500001 -6.4640002 4.0219998
4.4085999 -6.4710002 4.0225997
2.1572001 -6.4246001 4.0233998
1.0504999 -6.3565001 4.0105
2.1607499 -6.3655 4.0159998
1.054 -6.3099999 4.006
-0.026000001 -6.2870002 4.013
1.0599999 -6.276 4.0159998
-4.4068332 -6.1219997 4.0308337
-4.402667 -6.0750003 4.028667
-4.3942003 -6.0259995 4.027
-15.073999 -5.4324999 4.027
27.563999 -7.7849998 4.0840001
25.083 -7.7059999 4.0689998
23.955 -7.6820002 4.0799999
25.077 -7.6570001 4.0650001
23.938 -7.631 4.0749998
22.773001 -7.5679998 4.0640001
23.933001 -7.5830002 4.072
22.768 -7.5209999 4.0609999
17.011 -7.322 4.0749998
15.862333 -7.2690005 4.0846672
17.025501 -7.2754998 4.0739999
15.844 -7.2160001 4.086
15.878 -7.2309999 4.0630002
17.028999 -7.224 4.0700002
15.865499 -7.1750002 4.0707502
13.547 -7.1350002 4.0760002
13.5605 -7.1274996 4.0635004
15.874001 -7.1294999 4.0684996
12.387335 -7.0756664 4.0826664
12.403 -7.066 4.0669999
13.546 -7.0739999 4.0679998
13.561001 -7.066 4.0845003
12.39325 -7.0174999 4.0714998
13.557 -7.0489998 4.0960002
10.05 -6.9749999 4.0929999
11.241667 -6.9703331 4.0776668
12.399 -6.9790001 4.0809999
12.402 -6.98 4.0549998
10.03575 -6.927 4.0679998
11.241 -6.9250002 4.0706668
11.252 -6.9130001 4.0879998
10.04225 -6.8804998 4.073
10.059 -6.8520002 4.0960002
11.248 -6.8756666 4.073
11.258 -6.8639998 4.0570002
7.8210001 -6.8249998 4.0765004
10.043 -6.8284998 4.0629997
7.8218002 -6.7709999 4.0734
10.054 -6.7979999 4.0599999
7.8232503 -6.7192502 4.0755
4.4076667 -6.5738335 4.0711665
5.5426669 -6.5710001 4.0718336
4.4108334 -6.5203333 4.0753336
2.1624999 -6.4809999 4.0580001
2.171 -6.415 4.0619998
2.174 -6.3870001 4.0630002
-4.4133997 -6.1738 4.0708003
-4.4061999 -6.1232004 4.0768003
-4.4033337 -6.0763335 4.0860004
-4.3983335 -6.0616665 4.060667
28.576 -7.961 4.1240001
28.611 -7.9159999 4.1269999
23.934 -7.7220001 4.1240001
25.073 -7.7030001 4.1139998
23.936001 -7.6760001 4.1220002
23.922001 -7.625 4.1170001
21.667999 -7.5370002 4.1329999
17.009001 -7.3565001 4.1285
15.832 -7.3269997 4.1265001
17.028999 -7.3299999 4.1304998
15.848 -7.2509999 4.1220002
15.853 -7.2870002 4.1269999
17.018499 -7.2715001 4.12325
15.851 -7.2189999 4.1199999
13.568 -7.1615 4.1125002
12.414 -7.1279998 4.1329999
13.567 -7.1149998 4.1059999
12.3945 -7.0749998 4.1204996
11.241 -7.0289998 4.1170001
12.388 -7.0139999 4.1100001
10.0375 -6.98 4.1259999
11.247667 -6.9833336 4.1153331
12.396 -6.9770002 4.1069999
10.039999 -6.92975 4.11725
11.244 -6.9359999 4.1149998
7.8147497 -6.8797503 4.1100001
10.041 -6.883667 4.1120005
7.8214998 -6.8255 4.1184998
5.5288334 -6.7698336 4.1246672
7.8196669 -6.7803335 4.1096668
4.4060001 -6.6240001 4.1009998
5.5409999 -6.6240005 4.1188006
4.4089999 -6.5799999 4.1009998
-4.4239998 -6.1680002 4.1324997
-4.4057503 -6.1152501 4.1160002
-4.4055004 -6.0865002 4.1160002
-11.3145 -5.8260002 4.1224999
-11.2815 -5.8340001 4.1145
-11.2255 -5.842 4.1114998
28.554001 -8.0649996 4.177
28.555 -8.0100002 4.1750002
28.555 -7.954 4.1729999
17.025 -7.3979998 4.1529999
15.834 -7.3439999 4.1609998
15.854 -7.3210001 4.1630001
15.842 -7.2810001 4.1560001
15.872 -7.2620001 4.1609998
12.418 -7.1880002 4.197
12.484 -7.197 4.1869998
12.511 -7.1849999 4.1919999
11.273 -6.98 4.1550002
10.049 -6.9229999 4.1539998
2.1416669 -6.6389999 4.1818333
2.1750667 -6.6250005 4.1794004
2.2084999 -6.6192498 4.1734996
2.1329999 -6.5999999 4.1939998
2.1732502 -6.5875001 4.1940002
2.2165 -6.5869999 4.1935
-11.368 -5.8280001 4.151
12.425667 -7.2310004 4.2139997
12.430667 -7.1760001 4.2163334
12.473 -7.1630001 4.2069998
12.505 -7.152 4.2129998
12.561501 -7.1704998 4.217
12.437 -7.1420002 4.2220001
12.486 -7.1269999 4.2319999
2.1235001 -6.6688337 4.2231665
2.13025 -6.6210003 4.2217498
2.151 -6.6139998 4.2049999
2.2244999 -6.6090002 4.2075
2.1384287 -6.582715 4.2270002
2.169111 -6.5768886 4.2145557
2.2233334 -6.5733333 4.2136664
2.2509999 -6.573 4.217
-12.128 -5.9029999 4.2020001
-12.089 -5.9099998 4.217
-11.984 -5.918334 4.2233334
-11.928499 -5.9275002 4.2255001
-11.887 -5.9394999 4.2284999
-11.823668 -5.9420004 4.2400002
-12.177333 -5.8833342 4.2213335
-12.12 -5.8859997 4.223
-12.075 -5.8894997 4.2360001
-12.008 -5.8959999 4.2179999
5.5425 -6.9435 4.2909999
5.5787497 -6.9397497 4.2905002
5.6149998 -6.947 4.2950001
2.1163998 -6.7232003 4.2683997
2.1202497 -6.6884999 4.2799997
2.1268573 -6.6302853 4.2715716
-10.902 -6.0549998 4.2930002
-10.826 -6.0609999 4.296
-10.726 -6.0780001 4.2930002
-10.921 -6.0409999 4.2969999
-11.764 -5.954 4.2589998
-11.7215 -5.9580002 4.2595
-11.6945 -5.9700003 4.2785001
-12.027 -5.9054999 4.2635002
-11.981 -5.908 4.2639999
-11.929333 -5.9173331 4.2670002
-11.871 -5.9226675 4.2766666
-11.818 -5.9310002 4.2709999
-11.777 -5.9349999 4.2725
-11.747 -5.9450002 4.2779999
-11.663 -5.9289999 4.276
-12.284 -5.8605003 4.2655001
-12.232666 -5.8666668 4.2693338
-12.182 -5.8769999 4.2649999
-12.136001 -5.8719997 4.2683334
-12.069667 -5.8830004 4.2683334
-12.04 -5.8860002 4.277
-11.964001 -5.8745003 4.2795
-11.928 -5.8569999 4.2670002
-11.870501 -5.8664999 4.2764997
-11.767 -5.8790002 4.2740002
-11.729668 -5.8780003 4.2800002
-11.692 -5.8930001 4.2789998
-11.65 -5.8959999 4.2680001
-12.319 -5.8379998 4.2719998
5.4980001 -6.9630003 4.323
5.5039997 -6.9709997 4.3279996
5.6690001 -6.9650002 4.3179998
5.493 -6.9190001 4.3239999
5.5158753 -6.92275 4.3130002
5.5679998 -6.9139996 4.3112497
5.6168337 -6.9213333 4.3083334
5.6750002 -6.9355001 4.3380003
2.1126666 -6.7711668 4.328167
2.1143336 -6.7136664 4.317667
2.1183333 -6.6713333 4.3156672
-10.646 -6.1079998 4.3460002
-10.553 -6.1279998 4.3449998
-10.5385 -6.1069999 4.3125
-10.486 -6.1254997 4.3235002
-10.907 -6.0580001 4.3439999
-10.813 -6.066 4.3410001
-10.767 -6.0649996 4.3024998
-10.731334 -6.073 4.3256674
-10.678667 -6.0843329 4.3193336
-10.633 -6.0875001 4.3260002
-10.587 -6.0985003 4.3140001
-10.971334 -6.0263338 4.3256669
-10.931 -6.0334997 4.323
-10.885 -6.033 4.309
-10.832335 -6.0479999 4.311667
5.5 -7.0679998 4.3929996
5.493 -7.0373335 4.3693333
5.5009999 -7.0310001 4.369
5.4962502 -6.9924998 4.3769999
5.5029998 -6.9632502 4.3775001
2.1129999 -6.8210001 4.3520002
2.1183333 -6.7813334 4.3803334
2.12075 -6.7292495 4.3754997
-10.615001 -6.1063337 4.368
-10.5695 -6.1129999 4.3594999
-10.851667 -6.0510001 4.375
-10.816999 -6.0559998 4.3769999
-10.770834 -6.0668335 4.3770003
-10.713667 -6.0796671 4.377667
-10.672333 -6.0893335 4.3746672
-10.623 -6.0939999 4.3839998
-11.068 -6.0079999 4.3724999
-11.02425 -6.0155001 4.3664999
-10.975 -6.02 4.3710003
-10.93375 -6.0287504 4.3780003
-10.881667 -6.0349998 4.3649998
5.4960003 -7.0629997 4.4095001
5.5029998 -7.085 4.4299998
5.4945006 -7.0181665 4.4233336
-7.9990001 -6.322 4.4099998
-7.9359999 -6.3065 4.4049997
-9.7690001 -6.2650003 4.4150004
-9.6795006 -6.2767496 4.4212503
-9.6242504 -6.2819996 4.4277496
-9.5679998 -6.2940001 4.4289999
-9.4650002 -6.2733335 4.4256668
-7.9759998 -6.2925 4.4254999
-9.8649998 -6.2210002 4.4289999
-9.8365002 -6.2389998 4.4235001
-9.7835007 -6.23 4.4274998
-9.7119999 -6.2200003 4.4254999
-9.6660004 -6.2060003 4.4309998
-9.6194992 -6.2199998 4.4299998
-9.5646667 -6.227334 4.4330006
-9.5296669 -6.2363334 4.4313335
-9.4746666 -6.2400007 4.4366665
-9.4309998 -6.25 4.4320002
-9.8689995 -6.164 4.4419999
-9.8126669 -6.1719999 4.4330001
-9.776 -6.1809998 4.4306669
-9.7270002 -6.1896667 4.4396667
-9.6759996 -6.198 4.4320002
-10.729 -6.0679998 4.4125004
-10.691 -6.0830002 4.4029999
5.513 -7.0710001 4.4660001
5.5024996 -7.02 4.4625001
-8.7069998 -6.4029999 4.4970002
-8.6739998 -6.402 4.4850001
-8.8570004 -6.3709998 4.4949999
-8.8237505 -6.3705001 4.4724998
-8.7738008 -6.3816004 4.4696002
-8.7279997 -6.3870001 4.4776669
-9.6639996 -6.2129998 4.4780002
-9.6247501 -6.2112498 4.48175
-9.5737495 -6.2139997 4.4769998
-9.5273342 -6.2266669 4.4666667
-8.4150009 -6.4560003 4.5213337
-8.3692007 -6.4606004 4.5290003
-8.3212004 -6.4654002 4.5226002
-8.6616669 -6.4083328 4.5193338
-8.6210003 -6.4089999 4.5359998
-8.5822001 -6.4174004 4.52
-8.5281429 -6.4330001 4.5289998
-8.4754 -6.4444003 4.5258002
-8.4139996 -6.4400001 4.5170002
-8.8649998 -6.3540001 4.5380001
-8.8203335 -6.3643336 4.5178337
-8.7737503 -6.36975 4.5220003
-8.7301998 -6.3826003 4.526
-8.6794996 -6.3939996 4.5237503
-8.6245003 -6.4000001 4.5229998
-8.3620005 -6.3759999 4.5479999
-8.8730001 -6.3474998 4.5279999
-5.572 -6.6650004 4.573
-5.5234447 -6.6778889 4.5771112
-5.6619997 -6.6444998 4.5780001
-5.6296668 -6.6341109 4.5867782
-5.57375 -6.6402502 4.585
-5.533 -6.6440001 4.592
-7.62675 -6.5177503 4.5795002
-8.4250002 -6.4594998 4.5585003
-8.3334999 -6.4584999 4.5599999
-8.2772503 -6.4612503 4.5630002
-8.2396679 -6.474 4.5606666
-7.658 -6.4980001 4.5949998
-7.6420002 -6.4619999 4.579
-8.6165009 -6.4175 4.5580001
-8.5755005 -6.4099998 4.5640001
-8.5230007 -6.4136672 4.5616665
-8.4685001 -6.42875 4.5597501
-8.4300003 -6.4286666 4.5630002
-8.3716669 -6.4303336 4.5656667
-8.3104992 -6.4405003 4.5690002
-8.2510004 -6.4060001 4.5609999
-8.2325001 -6.4145002 4.5675001
-8.8380003 -6.3579998 4.552
-8.7674999 -6.3655005 4.552
-8.7293339 -6.3726668 4.5626669
-8.6773338 -6.3889999 4.5643334
-8.6194992 -6.3730001 4.5585003
-8.592 -6.3760004 4.5609999
-8.5225 -6.3704996 4.5580001
-8.4759998 -6.3594999 4.5609999
-8.4250011 -6.3626666 4.5586667
-8.3226681 -6.3811674 4.5681667
-8.2746 -6.3831997 4.5762
-8.243 -6.4000001 4.5780001
-8.8859997 -6.3449998 4.5650001
-8.8216667 -6.3303337 4.554667
-8.7939997 -6.349 4.5570002
-5.5152502 -6.6767502 4.6139998
-5.6830001 -6.6339998 4.6399999
-5.6210003 -6.6197495 4.6222501
-5.5680008 -6.6200004 4.6278191
-5.5285716 -6.6328573 4.6247149
-5.6539998 -6.5999999 4.6350002
-7.6716666 -6.5173335 4.6340003
-7.6424999 -6.5194998 4.6275001
-7.684 -6.4970002 4.625
-4.6550002 -6.8260002 4.6686668
-4.6283631 -6.8282738 4.673182
-4.5759096 -6.8252726 4.6778183
-4.5227275 -6.828454 4.6811819
-5.7969999 -6.7670002 4.6929998
-4.533 -6.7989998 4.6929998
-6.3569999 -6.7480001 4.6989999
-6.3299999 -6.743 4.6869998
-6.3709998 -6.6680002 4.6939998
-6.3269997 -6.6805 4.6935
-7.7049999 -6.5149999 4.6700001
-2.375 -6.9949999 4.7350001
-2.336 -6.9980001 4.7470002
-3.4684446 -6.9245553 4.714222
-3.4279003 -6.9234004 4.7236004
-3.3782859 -6.9213576 4.7258577
-3.3227859 -6.9262862 4.7242861
-4.6919999 -6.855 4.7129998
-4.5095 -6.88025 4.7242498
-4.4959998 -6.8979998 4.7480001
-3.4590001 -6.8926673 4.7433333
-3.4250002 -6.8899999 4.7455001
-3.3369999 -6.8934999 4.7414999
-4.6595001 -6.8074999 4.7090001
-4.6210003 -6.8074999 4.7107496
-4.5656672 -6.8046665 4.7183332
-4.5126247 -6.8137503 4.7242498
-5.8283339 -6.7633338 4.725667
-5.783 -6.7509999 4.7020001
-4.6630001 -6.7870002 4.7480001
-4.6263747 -6.783875 4.7323747
-4.5776253 -6.7883754 4.7328749
-4.5306673 -6.7871675 4.7306666
-6.3629999 -6.7309999 4.7049999
-6.3280001 -6.741334 4.7066669
-6.36975 -6.6729999 4.711
-6.3249998 -6.6729999 4.7102499
-6.3540001 -6.6500001 4.7220001
-1.1603334 -7.1296668 4.7733335
-1.1405001 -7.125 4.7770004
-1.155 -7.0960002 4.7859998
-3.5480001 -7.0289998 4.7989998
-2.3666668 -7.008667 4.7660003
-2.3255 -7.0089998 4.7605
-2.2779999 -7.0085001 4.7642503
-2.2383335 -7.0168338 4.7659998
-3.51 -6.9530001 4.7659998
-3.3144999 -6.9797506 4.77425
-2.3705835 -6.9805832 4.7705836
-2.3246431 -6.9790716 4.7808571
-2.2707002 -6.9892001 4.7790999
-2.2426667 -6.9893336 4.7893333
-4.948 -6.9380002 4.796
-4.5149999 -6.901 4.7930002
-4.4760003 -6.9255996 4.7704
-3.494 -6.9229999 4.7639999
-3.411 -6.9070001 4.7509999
-3.3803334 -6.9066672 4.7603335
-3.3111999 -6.9177995 4.7742
-2.3710001 -6.9429998 4.7930002
-4.5076003 -6.8756003 4.7678003
-4.4825716 -6.885572 4.7785716
-3.467875 -6.8777499 4.7780004
-3.4230909 -6.878819 4.7752733
-3.3754168 -6.8786669 4.7825003
-3.3238182 -6.8761821 4.7752728
-4.6960001 -6.835 4.763
-4.5050001 -6.8248 4.7760005
-5.8740001 -6.7635002 4.7805004
-5.8326664 -6.7686667 4.7723331
-5.9029999 -6.7459998 4.7810001
-1.1161667 -7.1725001 4.8237505
-0.085000001 -7.198 4.8470001
-0.041000001 -7.197 4.8460002
-2.2520001 -7.1170001 4.8305001
-1.1665001 -7.1094999 4.8144999
-1.1328334 -7.118 4.8230004
-1.098 -7.138 4.8449998
-1.1578 -7.0839996 4.8368001
-1.1389999 -7.0760002 4.8345003
-3.9121666 -7.0225 4.8173332
-3.8758571 -7.0250006 4.8275714
-3.8269167 -7.0293326 4.8245835
-3.7724998 -7.0361667 4.8251667
-3.7273335 -7.0363331 4.8281665
-3.6719999 -7.0384998 4.8297501
-3.6324999 -7.04425 4.8262501
-3.5832002 -7.0440001 4.8248
-3.3270001 -7.0450001 4.8330002
-2.24 -7.0349998 4.8325
-4.9759998 -6.9520001 4.8119998
-4.9029999 -6.9510002 4.8070002
-4.8758001 -6.9598002 4.8136001
-4.8264999 -6.9683332 4.8225002
-4.791667 -6.9563332 4.8186665
-4.4730005 -6.9687147 4.8355713
-4.4244003 -6.9630008 4.8376002
-4.3785715 -6.974143 4.8360004
-3.927 -7 4.835
-3.8940001 -6.9990001 4.8249998
-3.539 -6.9809999 4.8460002
-3.3155999 -6.9776001 4.8312001
-2.404 -7 4.835
-5.0216665 -6.9222217 4.8304443
-4.9767141 -6.9275718 4.8230004
-4.9310002 -6.9349999 4.8299999
-4.875 -6.9383335 4.834167
-4.8366671 -6.9436674 4.8340006
-4.7796669 -6.9306669 4.8283329
-4.474 -6.9169998 4.8170004
-4.427 -6.9499998 4.848
-3.3076668 -6.9203334 4.8166671
-5.0250001 -6.8800001 4.8340001
-4.9679999 -6.8590002 4.8297501
-4.92275 -6.8676252 4.8382497
-4.8733339 -6.8840003 4.834167
-4.8176665 -6.8818336 4.8345003
-4.7719998 -6.8886003 4.8322005
-4.737 -6.868 4.8299999
-4.5035 -6.8590002 4.8169999
-4.4767504 -6.869 4.8206248
-4.9806666 -6.8486667 4.8369999
14.651 -8.0769997 4.8940001
14.671 -8.0380001 4.8934999
-2.112 -7.2030001 4.8850002
-2.0709999 -7.2138 4.8926005
-1.098 -7.2229996 4.8826666
-0.1045 -7.2284999 4.8772502
-0.057 -7.20925 4.868
-0.022500003 -7.2181001 4.8715
-2.5149999 -7.1769996 4.8884997
-2.2227499 -7.178 4.8907499
-2.17275 -7.1870003 4.8912497
-2.1325002 -7.1880007 4.8893332
-2.0869999 -7.1879997 4.8900003
-2.0363336 -7.1940002 4.890667
-1.9795001 -7.1945 4.8935003
-0.077416666 -7.1799998 4.8789172
-0.024500003 -7.1903334 4.8903332
-3.3280001 -7.1055002 4.8719997
-3.2735002 -7.1127 4.8723998
-3.2263334 -7.1213336 4.8781114
-3.1778889 -7.1208887 4.869556
-3.1238332 -7.1306667 4.87325
-3.071182 -7.1330914 4.8747272
-3.0257502 -7.1419997 4.875
-2.9814289 -7.1431437 4.8751435
-2.5539999 -7.1069999 4.8779998
-2.5265 -7.1285 4.8850002
-2.47 -7.1300001 4.8929996
-2.4489999 -7.1300001 4.888
-2.2565 -7.1300001 4.8769999
-1.1220001 -7.1291995 4.8741007
-1.0965 -7.1272497 4.8829994
-3.7639999 -7.0560002 4.8740001
-3.7173336 -7.0566669 4.868
-3.6570001 -7.0620003 4.8759999
-3.6145999 -7.0629997 4.8704004
-3.579 -7.0609999 4.8629999
-3.3196666 -7.0893335 4.8718338
-3.2822499 -7.0965004 4.8835001
-3.2460001 -7.099 4.8709998
-2.2479999 -7.0599999 4.8959999
-4.4559999 -7.0240002 4.855
-3.9579999 -7.013 4.8800001
-3.9190001 -7.0190001 4.8787498
-3.8767142 -7.0225716 4.8758578
-3.8285556 -7.0274453 4.878222
-3.7784545 -7.0282736 4.8759999
-3.7257779 -7.0396671 4.876111
-3.6733751 -7.0368752 4.8789997
-3.6225715 -7.042572 4.8762865
-3.5813332 -7.0446663 4.8803334
-3.3225 -7.0039997 4.8835001
-2.421 -7.0489998 4.8509998
-2.244 -7.0479999 4.869
