# .PCD v0.7 - Point Cloud Data file format
VERSION 0.7
FIELDS x y z
SIZE 4 4 4
TYPE F F F
COUNT 1 1 1
WIDTH 1592
HEIGHT 1
VIEWPOINT 0 0 0 1 0 0 0
POINTS 1592
DATA ascii
-8.9560003 -7.941 -1.419
-8.8610001 -7.8710003 -1.426
-7.8845 -1.5725 -1.4380001
-7.848 -1.569 -1.446
-7.7680001 -1.5595 -1.4455
-7.8721671 -1.5263333 -1.4173335
-7.8099999 -1.5190001 -1.423
-7.7880001 -1.5355 -1.434
-7.7232494 -1.5225 -1.4359999
-7.8060002 -1.49 -1.4069999
-7.7703333 -1.483 -1.4100001
-7.7200003 -1.473 -1.4125
-7.7069998 -1.429 -1.402
-7.513 -0.405 -1.4065
-7.6020002 -0.35699999 -1.402
-7.5605001 -0.36149999 -1.408
-7.5253329 -0.37699997 -1.4106668
-7.6087499 -0.317 -1.40625
-7.5805006 -0.32266665 -1.4181669
-7.5368004 -0.322 -1.4278001
-7.6291432 -0.27200001 -1.4181429
-7.5856676 -0.27583334 -1.4326668
-7.5132499 -0.27024999 -1.4425001
-7.4749999 -0.28500003 -1.4406667
-7.6342006 -0.22720002 -1.4374
-7.5840006 -0.245 -1.4436667
-7.5009999 -0.24699999 -1.45
-7.6429996 -0.18450001 -1.4495001
-6.901 2.8710001 -1.404
-6.8614998 3.3239999 -1.4455
-6.8240004 3.3315001 -1.41275
-6.8687501 3.3569999 -1.43625
-6.8325 3.3545001 -1.4295
-6.7605 3.6789999 -1.4454999
-6.7579999 3.7 -1.447
-6.7067499 4.0384998 -1.4319999
-6.6995001 4.0339999 -1.4195
-6.7058001 4.0784006 -1.4205999
-6.6963339 4.0616665 -1.4383334
-6.763 4.1459999 -1.447
-6.723 4.1055002 -1.416
-6.7749996 4.1525002 -1.4284999
-9.1773329 -8.6280003 -1.375
-9.1459999 -8.6389999 -1.3695
-7.8815002 -1.4685 -1.3835
-7.8225002 -1.471 -1.395
-7.7659998 -1.454 -1.399
-7.8696666 -1.4263333 -1.3636665
-7.8264999 -1.4251668 -1.3705
-7.7756667 -1.4276667 -1.3856667
-7.7325001 -1.427 -1.392
-7.6999998 -1.414 -1.4
-7.8179998 -1.3865 -1.3559999
-7.7721672 -1.3735001 -1.3645
-7.7151999 -1.3721999 -1.3790001
-7.6830001 -1.3803333 -1.3913333
-7.7610002 -1.335 -1.3515
-7.7206669 -1.3276668 -1.3658333
-7.6797152 -1.3235716 -1.3837143
-7.705667 -1.2853334 -1.3596667
-7.6738892 -1.2754445 -1.374
-7.6811666 -1.2308334 -1.3563333
-7.5230007 -0.62172729 -1.3620909
-7.5549998 -0.59299999 -1.355
-7.5176253 -0.57512504 -1.365
-7.5181818 -0.52918184 -1.3637273
-7.6149998 -0.47799999 -1.351
-7.5602007 -0.4718 -1.3598001
-7.5242858 -0.48342857 -1.3697143
-7.6242003 -0.42199999 -1.3570001
-7.57125 -0.42825001 -1.3697501
-7.5265718 -0.42857146 -1.3867143
-7.6634998 -0.36650002 -1.358
-7.6314445 -0.37577778 -1.3694445
-7.584125 -0.38387498 -1.3870001
-7.6704001 -0.32100001 -1.3728001
-7.6343336 -0.33399999 -1.3846667
-7.5929999 -0.34299999 -1.4
-7.6360002 -0.29100001 -1.3940001
-6.8779998 3.3239999 -1.352
-6.8284998 3.3340001 -1.376
-6.9835 3.3600001 -1.365
-6.8789997 3.3543334 -1.3686666
-6.8103333 3.3703334 -1.3770001
-6.8606672 3.4353333 -1.3723333
-6.8126669 3.4116669 -1.3759999
-6.8439999 3.457 -1.3710001
-6.77 3.5690002 -1.3546667
-6.7509999 3.6500001 -1.359
-6.7395 3.7049999 -1.3685
-6.7016668 4.0380001 -1.3760002
-6.6926003 4.0282001 -1.3774
-6.7066665 4.0760002 -1.3776665
-6.698 4.0574999 -1.3865
-6.7216663 4.1120005 -1.3715
-6.77 4.1500001 -1.377
-9.2040005 -9.9289999 -1.319
-9.2010002 -9.7530003 -1.306
-9.1779995 -9.7465 -1.3280001
-9.1731672 -8.6345005 -1.327
-7.8264999 -1.36 -1.3425
-7.8213329 -1.3240001 -1.3263334
-7.79 -1.3326668 -1.3426666
-7.7379999 -1.3099999 -1.347
-7.8196001 -1.2784001 -1.3064001
-7.7706671 -1.2755001 -1.3211668
-7.7391663 -1.2748334 -1.3395002
-7.7626667 -1.2303333 -1.3066666
-7.7249999 -1.2323999 -1.3232001
-7.6868334 -1.2133334 -1.3334999
-7.7143335 -1.1806667 -1.3116667
-7.687571 -1.1730001 -1.3248572
-7.6264 -1.1646 -1.3436002
-7.6738334 -1.1266668 -1.3103335
-7.6241999 -1.1234001 -1.3338
-7.6180902 -1.0756365 -1.3219091
-7.6176248 -1.0232501 -1.3123749
-7.6170001 -0.97550005 -1.3113334
-7.6117501 -0.93700004 -1.306
-7.6225004 -0.88749999 -1.303
-7.5780911 -0.8744545 -1.3243637
-7.6009998 -0.838 -1.313
-7.5738006 -0.82600003 -1.324
-7.6090002 -0.79900002 -1.313
-7.5753989 -0.77240008 -1.3205001
-7.6149998 -0.74599999 -1.313
-7.5775003 -0.72200006 -1.3200001
-7.6020002 -0.67733335 -1.3099999
-7.5639997 -0.67833334 -1.3293333
-7.5454998 -0.6785 -1.341
-7.6184998 -0.63199997 -1.3125
-7.5757504 -0.63049996 -1.3252501
-7.5439997 -0.61199999 -1.3395
-7.6114998 -0.56449997 -1.3099999
-7.5789165 -0.57499993 -1.3250833
-7.536334 -0.58266664 -1.3423333
-7.6543331 -0.51200008 -1.3076667
-7.6194997 -0.52324998 -1.3177501
-7.5805717 -0.52700007 -1.3354286
-7.5380001 -0.52600002 -1.3380001
-7.6687775 -0.47388887 -1.3143334
-7.622333 -0.46922222 -1.3366667
-7.5900002 -0.49000001 -1.346
-7.6780005 -0.42466664 -1.3274444
-7.6324997 -0.43199998 -1.3395
-7.6798334 -0.38300002 -1.3405001
-6.8529997 3.086 -1.3099999
-6.8509998 3.1210001 -1.319
-6.8530002 3.283 -1.304
-6.8287501 3.2674999 -1.3297501
-6.9260001 3.348 -1.334
-6.8712502 3.3397501 -1.325
-6.8236666 3.342 -1.327
-7 3.368 -1.3329999
-6.9396667 3.3543334 -1.3273333
-6.8666668 3.3580003 -1.3166667
-6.8270001 3.359 -1.3200001
-6.8590002 3.6930001 -1.309
-6.7529998 3.6659999 -1.3049999
-6.8645 3.727 -1.313
-6.8280001 3.7305002 -1.3074999
-6.7639999 3.7190001 -1.325
-6.7379999 3.7045002 -1.3195
-6.8600001 3.756 -1.3150001
-6.7010002 4.0430002 -1.329
-6.6960001 4.04 -1.3285
-6.7055001 4.0697498 -1.3184999
-6.6952496 4.0637498 -1.33075
-6.7247505 4.1097503 -1.32125
-6.698 4.1059999 -1.321
-9.1820011 -9.7790012 -1.2756667
-9.1490002 -8.6420002 -1.27
-7.8299999 -1.262 -1.291
-7.7782502 -1.21525 -1.2915
-7.7811999 -1.1718 -1.2720001
-7.7288575 -1.1735715 -1.2938572
-7.7746005 -1.1290001 -1.2614001
-7.7222505 -1.1255001 -1.2820001
-7.698 -1.137 -1.294
-7.7191248 -1.0782499 -1.26475
-7.6719999 -1.0744286 -1.284143
-7.6459999 -1.0680001 -1.2975
-7.7075 -1.0425 -1.2585001
-7.666429 -1.0270001 -1.2724288
-7.6328335 -1.0210001 -1.2896667
-7.7119999 -0.98099995 -1.251
-7.669692 -0.97915375 -1.275077
-7.6470003 -0.95899999 -1.2885
-7.6703339 -0.9296667 -1.266
-7.6301436 -0.92442858 -1.2838572
-7.5910001 -0.90399998 -1.298
-7.6622868 -0.87785721 -1.2625713
-7.6301818 -0.87336361 -1.2845455
-7.664834 -0.82966673 -1.2615001
-7.6274004 -0.8228001 -1.2783999
-7.598 -0.81799996 -1.298
-7.6638336 -0.77100003 -1.2578335
-7.6263003 -0.77650011 -1.2839999
-7.5910001 -0.78999996 -1.2965
-7.662858 -0.72314292 -1.2622858
-7.6242728 -0.7307272 -1.2846364
-7.5970001 -0.70300001 -1.296
-7.6652856 -0.67557156 -1.2578572
-7.6278181 -0.67127275 -1.2819091
-7.5985003 -0.68349999 -1.296
-7.6719995 -0.6236667 -1.2614444
-7.6292224 -0.62311113 -1.2864445
-7.66925 -0.57524997 -1.271875
-7.6242857 -0.58142865 -1.2928571
-7.6808887 -0.53022224 -1.2816665
-7.6405001 -0.54649997 -1.2939999
-7.6843333 -0.48233336 -1.2936667
-6.8232865 3.1750712 -1.2742143
-6.8323336 3.2726667 -1.2733333
-6.8724294 3.3424289 -1.2804285
-6.9877501 3.3694999 -1.26925
-6.9429998 3.3555 -1.289
-6.8690004 3.3729999 -1.2765001
-6.8407497 3.3839998 -1.2795
-6.8724999 3.4035001 -1.289
-6.7620001 3.5795 -1.2855
-6.7719998 3.615 -1.29
-6.8130002 3.6530001 -1.299
-6.7579999 3.6849999 -1.252
-6.7346668 3.7026668 -1.2643332
-6.704 4.0450001 -1.274
-6.6960001 4.0400004 -1.2816666
-6.7047501 4.0689998 -1.27275
-6.692667 4.0700002 -1.2743334
-6.7579999 4.1420002 -1.29
-6.7212 4.1100001 -1.2761999
-6.7709999 4.1500001 -1.278
-9.1960001 -9.9560003 -1.2253333
-9.2159996 -9.8039999 -1.217
-9.1796665 -9.823 -1.2233334
-9.2279997 -9.783 -1.24
-9.184 -9.7875004 -1.237
-7.7806664 -1.1123334 -1.2463334
-7.7772865 -1.0715716 -1.2331429
-7.75 -1.076 -1.245
-7.770834 -1.0258334 -1.217
-7.7236247 -1.0223749 -1.236375
-7.6929998 -1.013 -1.249
-7.7639999 -0.9691667 -1.2080001
-7.7303753 -0.97812504 -1.227625
-7.6945 -0.97899997 -1.2485
-7.7217269 -0.92736369 -1.2325455
-7.6999998 -0.917 -1.248
-7.7242222 -0.87355554 -1.2184445
-7.6881666 -0.87966669 -1.2406666
-7.7211428 -0.82671428 -1.2180001
-7.688858 -0.82700008 -1.2385715
-7.7246003 -0.77719998 -1.2187999
-7.6879997 -0.77333343 -1.2386668
-7.7205558 -0.72288889 -1.217
-7.6895995 -0.72580004 -1.2346001
-7.6844997 -0.67824996 -1.2415
-7.6942501 -0.63174999 -1.2390001
-6.8083334 3.2316666 -1.2396668
-6.8185 3.266 -1.237
-6.8759999 3.3455 -1.244
-6.8330002 3.3245001 -1.223
-6.7940001 3.3280001 -1.204
-6.8671999 3.3752 -1.2394
-6.8178 3.3746002 -1.2268
-6.862 3.405 -1.2460001
-6.8169999 3.428 -1.2075
-6.7925 3.4380002 -1.2114999
-6.8280001 3.4672499 -1.2085
-6.776 3.481667 -1.2123334
-6.8365002 3.52 -1.2097499
-6.8292503 3.5764999 -1.2097501
-6.7919998 3.5805001 -1.2079999
-6.8167505 3.6317499 -1.2084999
-6.777 3.6259999 -1.2295001
-6.8569999 3.6760001 -1.21
-6.8150001 3.6636667 -1.2130001
-6.7623339 3.6763332 -1.2246667
-6.7659998 3.7119999 -1.2075
-6.7220001 3.7035 -1.2214999
-6.882 3.767 -1.207
-6.7065001 4.046 -1.2255
-6.6925001 4.0374999 -1.223
-6.7033339 4.0681667 -1.2316668
-6.6954999 4.0634999 -1.2114999
-6.7610002 4.1440001 -1.22
-6.7164993 4.1045003 -1.22825
-6.691 4.1009998 -1.221
-4.6329999 16.187 -1.228
-9.2010002 -9.9969997 -1.181
-9.1844997 -9.9259996 -1.16925
-9.1814995 -9.8712502 -1.17725
-9.2250004 -9.8253336 -1.1793334
-9.1889992 -9.8280001 -1.1925
-7.7453337 -0.86833334 -1.1983333
-7.7364998 -0.81949997 -1.1965001
-6.8940001 2.7119999 -1.152
-6.8308578 3.0724287 -1.1574286
-6.8060002 3.3929999 -1.197
-6.8049998 3.4070001 -1.197
-6.7737498 3.421 -1.1702499
-6.8210001 3.4789999 -1.1875
-6.7814999 3.477 -1.165
-6.8271427 3.527 -1.1854286
-6.7979999 3.523 -1.164
-6.8179002 3.5737 -1.1823
-6.7950001 3.5770001 -1.1626667
-6.8173332 3.6240001 -1.1758333
-6.7865 3.6270001 -1.1625
-6.8196669 3.6791668 -1.1846666
-6.7790003 3.67225 -1.15825
-6.8297501 3.7232502 -1.18925
-6.7912502 3.72925 -1.1739999
-6.822 3.75 -1.156
-6.6963329 4.0393333 -1.1746668
-6.7090001 4.08775 -1.1835001
-6.6964998 4.0597501 -1.173
-6.7137499 4.1072502 -1.1717499
-6.6949997 4.1034999 -1.173
-4.6350002 16.193001 -1.199
-9.1920004 -9.9519997 -1.13
-9.1859999 -9.9099998 -1.127
-9.276 -9.8684998 -1.1175001
-9.2272005 -9.8652 -1.1214001
-9.1856003 -9.8758001 -1.1245999
-9.2460003 -9.8360004 -1.149
-6.8260002 3.0822501 -1.126375
-6.8249164 3.1241665 -1.1261667
-6.8196673 3.1721666 -1.1219168
-6.810667 3.2176666 -1.1110001
-6.8155003 3.2715001 -1.1085
-6.869 3.3414998 -1.1065
-6.777 3.5420001 -1.149
-6.7600002 3.579 -1.135
-6.7327147 3.5748572 -1.1120001
-6.7842503 3.6252501 -1.13825
-6.7306671 3.6233335 -1.1070001
-6.809 3.6735001 -1.135
-6.7861667 3.6789999 -1.1389999
-6.8213339 3.734 -1.1316667
-6.7837501 3.7135 -1.1307499
-6.7167501 3.7040002 -1.125
-6.704 4.0445004 -1.1275001
-6.6919999 4.0365 -1.125
-6.7059999 4.0692501 -1.1259999
-6.6947498 4.0630002 -1.131
-6.7188005 4.1083999 -1.1272
-6.691 4.1009998 -1.123
-9.2110004 -9.9029999 -1.057
-9.1949997 -9.9200001 -1.08
-9.3039999 -9.8990002 -1.061
-9.2720003 -9.8870001 -1.075
-9.2305002 -9.8894997 -1.069
-9.1969995 -9.8879995 -1.079
-6.895 2.7820001 -1.077
-6.8163333 3.1268888 -1.0817778
-6.8181 3.1745 -1.0760001
-6.8105006 3.2210836 -1.0735002
-6.7979999 3.2409999 -1.0775
-6.8579998 3.2850001 -1.061
-6.8142009 3.2782998 -1.0793
-6.9195004 3.3214998 -1.0574999
-6.8684998 3.3302498 -1.07525
-6.8339996 3.3395 -1.0880001
-6.776 3.3329999 -1.0940001
-6.9559999 3.3770001 -1.052
-6.9197502 3.3734999 -1.0675
-6.8641253 3.3687499 -1.0687499
-6.8283339 3.3736668 -1.0763334
-6.7687998 3.3738 -1.0876
-6.9120002 3.414 -1.076
-6.8652859 3.4261427 -1.0727143
-6.8325 3.4204998 -1.0664999
-6.7539997 3.4206667 -1.0786667
-6.8762002 3.4663999 -1.0718001
-6.8322501 3.48 -1.0597501
-6.757 3.457 -1.059
-6.7411666 3.4783335 -1.0785832
-6.8260002 3.507 -1.057
-6.7989998 3.5079999 -1.054
-6.7366161 3.5240002 -1.0795386
-6.7334547 3.5780907 -1.0740001
-6.7267861 3.625643 -1.072143
-6.7237697 3.6748462 -1.0753846
-6.7059999 3.7019999 -1.0755
-6.688333 4.034667 -1.0763333
-6.7091432 4.0772858 -1.0738572
-6.6995001 4.0570002 -1.072
-6.723834 4.1128335 -1.0766667
-6.698 4.105 -1.096
-9.3120003 -9.9186668 -1.0233333
-9.2713337 -9.9216671 -1.029
-9.2339993 -9.9285002 -1.0235
-6.9867144 2.8725715 -1.0177144
-6.8178992 3.1798999 -1.0322001
-6.7926669 3.1701667 -1.0215001
-6.8168578 3.2248576 -1.0274286
-6.7886667 3.2366667 -1.0273333
-6.8276668 3.2796667 -1.0253334
-6.7886672 3.2683334 -1.0155001
-6.8509998 3.3399999 -1.05
-6.8439999 3.3144999 -1.0074999
-6.91575 3.372 -1.0225
-6.8796368 3.3769093 -1.0188181
-6.8410001 3.3875 -1.0245
-6.9029999 3.4100001 -1.0470001
-6.8555007 3.4145 -1.0188334
-6.8377781 3.4329998 -1.0285555
-6.8666668 3.4676666 -1.0053333
-6.8346667 3.4747777 -1.0232223
-6.75 3.497 -1.0470001
-6.8530002 3.506 -1.006
-6.832715 3.5211432 -1.0267857
-6.783 3.5450001 -1.041
-6.7385001 3.5341668 -1.0438333
-6.8214169 3.5685 -1.0208334
-6.7985001 3.5910001 -1.0320001
-6.7304287 3.5775714 -1.0364287
-6.8096671 3.6195002 -1.0146667
-6.7944999 3.6424999 -1.0145
-6.7296662 3.6277776 -1.0292222
-6.7753334 3.6626668 -1.0063334
-6.7255716 3.6772146 -1.0220001
-6.7079997 3.7030001 -1.02125
-6.6882501 4.0342498 -1.02775
-6.7067499 4.0737505 -1.022
-6.6995001 4.0574999 -1.031
-6.7210002 4.1066003 -1.0264
-6.7849998 4.158 -1.026
-9.3277502 -9.9414997 -0.98124999
-9.2819996 -9.9449997 -0.991
-6.862 2.839 -0.99699998
-7.0025001 2.8905001 -0.96350002
-6.9790001 2.8763001 -0.97819996
-6.8605003 2.8594999 -0.97750002
-6.9784999 2.9089999 -0.9745
-6.7912002 3.1818001 -0.97980005
-6.8108749 3.2213752 -0.97774994
-6.7854996 3.2278333 -0.98399997
-6.8699999 3.29 -0.96799999
-6.8278003 3.2728002 -0.9788
-6.8713331 3.3302221 -0.97377777
-6.836 3.348 -0.96799999
-6.8623343 3.367667 -0.97866672
-6.8379998 3.3809998 -0.96200001
-6.9039998 3.4100001 -0.95200002
-6.8640003 3.4208336 -0.97716665
-6.835125 3.4251251 -0.97050005
-6.8660002 3.467 -0.95099998
-6.8309999 3.4693332 -0.97111118
-6.8265009 3.5241427 -0.97771436
-6.8179998 3.5738571 -0.97871435
-6.7915001 3.5869999 -0.963
-6.8107004 3.6247003 -0.98229992
-6.79 3.6282501 -0.96849996
-6.7875452 3.6691818 -0.97590911
-6.8625002 3.7325001 -0.9795
-6.8390002 3.7199998 -0.98950005
-6.7826667 3.7123334 -0.98333335
-6.7166667 3.7073333 -0.97533339
-6.6877499 4.0339999 -0.97199994
-6.7112503 4.0805001 -0.97074997
-6.6936007 4.0602002 -0.97900003
-6.7639999 4.145 -0.98100001
-6.7313337 4.1146669 -0.97033334
-6.6139998 4.5469999 -0.99199998
-6.5933332 4.5266666 -0.96500003
-6.652 4.5560002 -0.98299998
-9.323 -9.9549999 -0.94599998
-7.0264997 2.8564999 -0.91050005
-6.9814291 2.8784287 -0.92550009
-6.9256668 2.8843334 -0.92700005
-6.8780003 2.8812499 -0.93800002
-6.9679999 2.9263334 -0.90733337
-6.9310002 2.918 -0.91624999
-6.8850002 2.9059999 -0.92299998
-6.8225002 2.9005001 -0.9095
-6.7862229 3.2317777 -0.92888886
-6.8182502 3.2837501 -0.91874999
-6.7807999 3.2618001 -0.93260002
-6.8870001 3.337667 -0.91000003
-6.9226665 3.3703334 -0.94266671
-6.8845563 3.3711112 -0.92944443
-6.816 3.3970001 -0.90100002
-6.9299998 3.431 -0.93874997
-6.879333 3.4286668 -0.93200004
-6.8085003 3.4229999 -0.90149999
-6.9253998 3.4786 -0.94160002
-6.8736 3.4768002 -0.94099998
-6.8162503 3.4760001 -0.91524994
-6.796 3.4909999 -0.90399998
-6.9159999 3.5225 -0.93900001
-6.8955002 3.5349998 -0.94400001
-6.8223333 3.5196667 -0.94866669
-6.7908006 3.5272 -0.92140001
-6.8734002 3.576 -0.94380009
-6.7918334 3.5718336 -0.9283334
-6.8569999 3.6290002 -0.94533336
-6.8225002 3.63025 -0.92124999
-6.789 3.608 -0.94999999
-6.829143 3.6782861 -0.92957151
-6.7919998 3.6715002 -0.94099998
-6.8610001 3.7319999 -0.93099999
-6.8330002 3.7189999 -0.93400002
-6.789 3.7160001 -0.90200001
-6.7235003 3.7115002 -0.92874998
-6.7034998 4.0760002 -0.93499994
-6.6950002 4.0549998 -0.94
-6.7230005 4.109333 -0.94133329
-6.6149998 4.4959998 -0.93199998
-6.5767999 4.4908004 -0.92000002
-6.6285 4.5054998 -0.93400002
-6.5819998 4.5165 -0.94449997
-6.5489998 4.5019999 -0.926
-7.0043335 2.8403335 -0.86733335
-6.9920001 2.8425 -0.8725
-7.0083337 2.8693335 -0.87666667
-6.991333 2.8830001 -0.88133335
-6.9433336 2.882 -0.86733335
-6.8386664 2.874167 -0.86866665
-7.0120001 2.901 -0.898
-6.9990001 2.9100001 -0.89700001
-6.8647504 2.9260001 -0.87575001
-6.8288755 2.9160001 -0.87150002
-6.8246665 3.2776668 -0.89100003
-6.8735003 3.336 -0.88349998
-6.837667 3.3286667 -0.88633335
-6.9134998 3.3728333 -0.86033338
-6.8816671 3.3746667 -0.875
-6.8294997 3.3707001 -0.88609999
-6.9046669 3.4256668 -0.85733336
-6.8850002 3.4085 -0.86799997
-6.8362727 3.4271817 -0.87900007
-6.8000002 3.418 -0.89999998
-6.9103336 3.4736667 -0.86066669
-6.8990002 3.4990001 -0.861
-6.8285456 3.4779091 -0.87954551
-6.8990002 3.5439999 -0.86299998
-6.8122001 3.5216999 -0.88010007
-6.79 3.533 -0.86500001
-6.8682499 3.566 -0.86075002
-6.8102007 3.5648003 -0.87940007
-6.7937493 3.582375 -0.879875
-6.869 3.635 -0.85100001
-6.835 3.6094999 -0.86000001
-6.7861814 3.6221817 -0.87790906
-6.8677502 3.6730001 -0.85299999
-6.829 3.6760001 -0.88316673
-6.7752857 3.6752858 -0.87685716
-6.7162499 3.69175 -0.87299997
-6.8253999 3.7108002 -0.87260002
-6.7746668 3.7026668 -0.87700003
-6.1939998 6.395 -0.88099998
-6.2140002 6.415 -0.89999998
-7.02 2.8466668 -0.82033336
-6.9793334 2.844667 -0.82499999
-7.0196667 2.8753335 -0.83466667
-6.9744997 2.8730001 -0.82749999
-6.9260001 2.8824 -0.82639998
-6.8703337 2.870667 -0.82366675
-6.8312006 2.8785999 -0.83100003
-6.8340001 2.9258461 -0.82584625
-6.8257146 2.9661431 -0.81657147
-6.8629999 3.3455 -0.82950002
-6.8710003 3.3789997 -0.83166665
-6.8668575 3.4264288 -0.83242857
-6.8724995 3.4697499 -0.83949995
-6.8459997 3.4790001 -0.82700002
-6.8746004 3.5164001 -0.83700001
-6.8453331 3.5310001 -0.82966661
-6.878222 3.5715556 -0.83488888
-6.8424997 3.5830002 -0.83200002
-6.836 3.6252499 -0.83349997
-6.8414998 3.6745 -0.83650005
-6.7192502 3.6889999 -0.82550001
-6.8182502 3.7119999 -0.82949996
-6.7737503 3.7035 -0.82474995
-6.7036667 4.0700006 -0.8083334
-6.6999998 4.0570002 -0.81599998
-6.7540002 4.1389999 -0.81199998
-6.7200003 4.1015 -0.81349999
-6.6609998 4.408 -0.80400002
-7.0136671 2.8439999 -0.7753334
-6.9809999 2.845 -0.77899998
-6.9794173 2.8734169 -0.7796666
-6.9178343 2.8808334 -0.77866668
-6.8915 2.8794999 -0.75849998
-6.8286662 2.8818336 -0.77850002
-6.8311548 2.9289231 -0.7813077
-6.8237863 2.9780715 -0.77564293
-6.8197999 3.0138001 -0.76099998
-6.7173328 3.6913335 -0.78500003
-6.671 3.6819999 -0.787
-6.8197498 3.7202499 -0.77874994
-6.7743335 3.7130001 -0.77800006
-6.7309999 3.7150002 -0.76699996
-6.6875 3.7060001 -0.76300001
-6.7070007 4.0771999 -0.77640003
-6.6954999 4.0545001 -0.76749998
-6.7170005 4.1078334 -0.77666664
-6.6719999 4.3739996 -0.76849997
-6.6241999 4.3804002 -0.77739996
-6.5776663 4.3807778 -0.77566665
-6.9689169 2.825917 -0.72383332
-6.968215 2.8724999 -0.72485715
-6.9205003 2.8912501 -0.73524994
-6.8569999 2.8940001 -0.70999998
-6.8362865 2.885 -0.73742855
-6.9793334 2.911 -0.71700001
-6.9204998 2.9054999 -0.70950001
-6.8685713 2.931143 -0.71985716
-6.8304296 2.9272859 -0.73685718
-6.8295722 2.9725003 -0.73007143
-6.8299999 3.0214546 -0.72681808
-6.7739997 3.03475 -0.73425001
-6.8297501 3.0560002 -0.71375006
-6.7729998 3.0550001 -0.70899999
-6.7360001 3.7177498 -0.72724998
-6.6786666 3.7063332 -0.72650003
-6.7044001 4.0692 -0.72900003
-6.6966667 4.0603333 -0.72433329
-6.7157497 4.1030002 -0.72675002
-6.697 4.1033335 -0.72633338
-6.6690001 4.3309999 -0.70300001
-6.6227493 4.3337498 -0.72049999
-6.5722003 4.3366003 -0.72100002
-6.6135001 4.3525 -0.74150002
-6.9667277 2.8235455 -0.67263639
-6.9614172 2.8690002 -0.67533338
-6.9449997 2.87675 -0.66100001
-6.8559999 2.8929999 -0.68400002
-6.835 2.8989999 -0.65600002
-6.9720001 2.9130001 -0.69400001
-6.9375005 2.9091249 -0.66825002
-6.8645835 2.9229169 -0.68641675
-6.8390002 2.9319999 -0.66400003
-6.8559999 2.9714999 -0.6735
-6.8341537 2.9727693 -0.67669231
-6.8321428 3.020786 -0.68164289
-6.8209233 3.0682309 -0.67700005
-6.7747502 3.0774999 -0.68350005
-6.8239999 3.1070001 -0.66299999
-6.7969999 3.109 -0.66000003
-6.7372503 3.7177501 -0.67325002
-6.678 3.7044997 -0.67824996
-6.6500001 3.701 -0.65899998
-6.7080002 4.0751667 -0.67083335
-6.6968336 4.0738335 -0.67466676
-6.7179995 4.11625 -0.67574996
-6.6194 4.2853999 -0.66119999
-6.5679998 4.2897501 -0.65900004
-6.6166668 4.3076668 -0.68900001
-6.5795002 4.3132496 -0.68850005
-6.9689999 2.8147502 -0.62425005
-6.9438753 2.829875 -0.62462503
-6.9573998 2.8694 -0.62819999
-6.9419999 2.8743999 -0.62460005
-6.9619999 2.9230001 -0.62800002
-6.9347143 2.9095716 -0.62685716
-6.869091 2.9232731 -0.62290907
-6.8468003 2.9263999 -0.63959998
-6.8566666 2.9650002 -0.62533331
-6.8315334 2.9746668 -0.62453336
-6.8272862 3.0265 -0.62528574
-6.8240776 3.0729234 -0.63007694
-6.8000002 3.082 -0.634
-6.8195558 3.1162219 -0.62455553
-6.7767997 3.1172001 -0.6354
-6.8260002 3.151 -0.61199999
-6.7940001 3.1500001 -0.60900003
-6.7403336 3.72 -0.62633336
-6.6756248 3.7071252 -0.62800002
-6.7059999 4.0766001 -0.61940002
-6.6916666 4.0620003 -0.62800002
-6.7315001 4.1243334 -0.62166667
-6.632 4.2410002 -0.61299998
-6.6213336 4.2616668 -0.63166666
-6.5800004 4.2599998 -0.62120003
-6.9650002 2.8236666 -0.59800005
-6.9460001 2.845 -0.597
-6.9433336 2.8723335 -0.59799999
-6.9234004 2.9156001 -0.58759999
-6.8712502 2.928 -0.58149999
-6.8499999 2.9260001 -0.59299999
-6.8732004 2.9691999 -0.5776
-6.8358335 2.9768333 -0.58683336
-6.8855 3.0267501 -0.57225001
-6.8292494 3.0232499 -0.58812499
-6.9250002 3.066 -0.56300002
-6.882 3.0750003 -0.57366669
-6.8244295 3.0744288 -0.58828574
-6.796 3.095 -0.59399998
-6.8717499 3.1215 -0.57449996
-6.8337498 3.1332498 -0.58850002
-6.7790003 3.1246667 -0.59433335
-6.8643332 3.1686668 -0.57533336
-6.8343334 3.1693332 -0.58633339
-6.7754998 3.1669998 -0.57574999
-6.8614998 3.2035 -0.57000005
-6.756 3.7279999 -0.56
-6.7433333 3.7213333 -0.58599997
-6.676125 3.7071249 -0.57462502
-6.7087145 4.0872855 -0.57828569
-6.6963997 4.0578003 -0.57420003
-6.7195001 4.1210003 -0.57249999
-6.638 4.1960001 -0.55699998
-6.6264291 4.2164288 -0.58028579
-6.5831108 4.2206669 -0.57544446
-6.5319171 4.2283335 -0.56858337
-6.7655001 3.1875 -0.54299998
-6.7766666 3.2150002 -0.51833332
-6.7350001 3.21 -0.51533329
-6.7656665 3.7336669 -0.52066672
-6.7159996 3.7177498 -0.52399999
-6.6722503 3.70875 -0.53100002
-6.6310005 3.7049999 -0.52466667
-6.7053752 4.0799999 -0.52737498
-6.697 4.0656667 -0.51433337
-6.7211666 4.123167 -0.52433342
-6.6929998 4.1169996 -0.52249998
-6.6539998 4.1739998 -0.52899998
-6.6207147 4.1751432 -0.52928573
-6.5762 4.1760001 -0.52220005
-6.7620001 3.237 -0.49200001
-6.7320004 3.2375 -0.4835
-6.7763338 3.2586668 -0.46700001
-6.7270002 3.257 -0.45749998
-6.6669998 3.543 -0.46900001
-6.6209998 3.6989999 -0.484
-6.7790003 3.7410002 -0.48800001
-6.7133331 3.7203336 -0.477
-6.6634998 3.7077498 -0.48025
-6.6286669 3.7033334 -0.47600001
-6.7066665 4.0869999 -0.47433335
-6.695714 4.0631433 -0.47685719
-6.7213998 4.1244001 -0.4736
-6.6849999 4.112 -0.48800001
-6.6297779 4.1315556 -0.47622225
-6.5753756 4.1358747 -0.46562499
-6.5396667 4.1440001 -0.472
-6.6149998 4.1564999 -0.49900001
-6.5704999 4.1605 -0.49699998
-4.119 17.5905 -0.48100001
-6.8049998 3.2869999 -0.44299999
-6.771667 3.2903335 -0.42833334
-6.7198 3.2866001 -0.42300001
-6.8509998 3.339 -0.40700001
-6.757 3.3080001 -0.40200001
-6.6719999 3.605 -0.405
-6.7122498 3.7192502 -0.42949998
-6.6752501 3.7142501 -0.42774999
-6.6248002 3.7043998 -0.42360002
-6.7084002 4.0871997 -0.42220002
-6.6895995 4.0725999 -0.42899999
-6.6288004 4.0899997 -0.41859999
-6.5764999 4.085 -0.41350001
-6.5489998 4.092 -0.412
-6.7306666 4.123333 -0.43566665
-6.6849999 4.112 -0.4395
-6.626667 4.1080003 -0.44366667
-6.5745001 4.1075001 -0.43400002
-6.5056663 4.2696667 -0.42000002
-4.119 17.5895 -0.41799998
-6.7744999 3.33075 -0.37975001
-6.7254 3.3243999 -0.37960002
-6.6722002 3.3181999 -0.37439999
-6.7690001 3.3570001 -0.35100001
-6.632 3.6209998 -0.35699999
-6.7302499 3.72925 -0.37725002
-6.6767998 3.7175999 -0.3786
-6.6263328 3.71 -0.36550003
-6.6244998 4.0425 -0.36350003
-6.7030001 4.0739999 -0.391
-6.6824999 4.0695 -0.38349998
-6.6157503 4.06075 -0.38049999
-6.5706992 4.0653005 -0.3788
-6.5313334 4.0845003 -0.3753334
-6.5064287 4.2247143 -0.37728569
-6.5029998 4.2627497 -0.38125002
-4.1329999 17.507 -0.36899999
-4.118 17.586 -0.37099999
-4.085 17.583 -0.37
-6.7090001 3.342 -0.34799999
-6.6659999 3.3429999 -0.34600002
-6.7836666 3.3796668 -0.32533333
-6.73 3.3677499 -0.32600003
-6.66575 3.3645 -0.31400001
-6.6134996 3.6225002 -0.32999998
-6.6350002 3.661 -0.31200001
-6.7193336 3.7230003 -0.33000001
-6.6842499 3.7189999 -0.3215
-6.6286669 3.711 -0.32600001
-6.6123343 4.0246668 -0.34133333
-6.5712671 4.0280008 -0.32086664
-6.5403337 4.0386667 -0.32100004
-6.5124168 4.1777501 -0.3264167
-6.5100002 4.2306666 -0.32866666
-6.5190001 4.2650003 -0.33466667
-4.1350002 17.518 -0.32249999
-4.1209998 17.596001 -0.32349998
-4.0854998 17.5835 -0.32300001
-6.7579999 3.3959999 -0.29800001
-6.7160001 3.3900001 -0.29699999
-6.666667 3.389667 -0.29033336
-6.7603335 3.4123335 -0.27200001
-6.73525 3.4145002 -0.27450001
-6.6739998 3.408 -0.26466668
-6.6240001 3.6624999 -0.2985
-6.6760001 3.7202001 -0.27219999
-6.6241674 3.7108335 -0.28383335
-6.5609999 3.9875 -0.2825
-6.5359998 3.9764998 -0.26824999
-6.5580001 4.0123339 -0.28533334
-6.5313005 4.0295997 -0.27450001
-6.5202222 4.1206665 -0.27722222
-6.5203075 4.1716161 -0.27292305
-6.5257502 4.2191248 -0.27600002
-6.5495 4.2600002 -0.28099999
-4.1360002 17.524 -0.27500001
-4.119 17.587 -0.27599999
-4.0879998 17.594 -0.27599999
-6.7659998 3.4449999 -0.233
-6.7229996 3.4376667 -0.24066667
-6.6615 3.4352498 -0.22675
-6.7605 3.4640002 -0.21349999
-6.7373343 3.4593334 -0.21933334
-6.6774998 3.4654999 -0.20449999
-6.618 3.697 -0.233
-6.652 3.7160001 -0.24699999
-6.6156669 3.7113333 -0.23266667
-6.5803337 3.7066667 -0.21899998
-6.5384994 3.9867005 -0.22589998
-6.5246434 4.0240717 -0.23064284
-6.5240836 4.0755835 -0.22975002
-6.5194159 4.1200833 -0.23
-6.5194449 4.1704445 -0.22733334
-4.1350002 17.517 -0.228
-4.1199999 17.592499 -0.229
-4.0869999 17.59 -0.229
-4.0619998 17.621 -0.229
-6.7600002 3.4860001 -0.19400001
-6.7185001 3.4864998 -0.1795
-6.67875 3.4847498 -0.17875001
-6.6161995 3.4736001 -0.18000001
-6.7795 3.5185001 -0.168
-6.7145 3.507 -0.16
-6.6880002 3.5079999 -0.153
-6.6350002 3.5025001 -0.152
-6.5277281 3.9818182 -0.17418182
-6.5292506 4.0273333 -0.17766666
-6.5266933 4.0747695 -0.17438462
-6.5252314 4.1275387 -0.18023077
-4.1409998 17.542999 -0.18099999
-4.1209998 17.593 -0.182
-4.085 17.580999 -0.18099999
-4.0650001 17.635 -0.182
-6.7690001 3.5350001 -0.141
-6.7203331 3.5300002 -0.13166668
-6.6710005 3.5243335 -0.12633334
-6.6227503 3.5184999 -0.12899999
-6.7810001 3.5644999 -0.1085
-6.7384996 3.5570002 -0.108
-6.5823336 3.7076664 -0.12666667
-6.5279007 3.9798996 -0.12030001
-6.5539999 4.0310001 -0.12899999
-6.5320005 4.0256367 -0.12136363
-6.5330772 4.0748463 -0.12492307
-6.5599999 4.145 -0.14399999
-6.5279999 4.1094999 -0.1365
-5.415 10.986 -0.122
-4.3085003 16.2115 -0.1245
-4.1350002 17.516001 -0.15000001
-4.1459999 17.562 -0.119
-4.0854998 17.581001 -0.1345
-4.1245003 17.6105 -0.1345
-4.0605001 17.614 -0.1345
-9.0609999 -9.8129997 -0.064000003
-6.6750002 3.546 -0.1
-6.6209998 3.5423334 -0.095666669
-6.7600002 3.576 -0.088
-6.7179999 3.5762501 -0.074749999
-6.6684999 3.5725002 -0.070749998
-6.6230001 3.5704999 -0.067500003
-6.5719094 3.6725459 -0.078727275
-6.5766668 3.7090001 -0.080499999
-6.5309997 3.9756 -0.072399996
-6.5549998 4.0074997 -0.089000002
-6.5342002 4.0264001 -0.073899999
-6.5549998 4.0630002 -0.075999998
-6.5349998 4.0664997 -0.082000002
-5.3354998 10.9705 -0.1
-5.2746668 10.968 -0.10000001
-4.3109999 16.220001 -0.066500001
-9.0860004 -9.8059998 -0.017000001
-6.711 3.595 -0.048
-6.658 3.5895 -0.041500002
-6.6164999 3.5895002 -0.037500001
-6.5945001 3.5925 -0.0405
-6.7639999 3.6240001 -0.028000001
-6.7265 3.6187501 -0.025
-6.6925001 3.6234999 -0.015000001
-6.6363335 3.6156669 -0.012333333
-6.5766001 3.6221335 -0.0288
-6.5702724 3.670182 -0.029454546
-6.5813332 3.7116666 -0.027833333
-6.5380001 3.98125 -0.02825
-6.5656672 4.0320005 -0.026333332
-6.5406666 4.0116668 -0.044333335
-6.5753336 4.0646667 -0.044333335
-4.3099999 16.218 -0.022
-9.0270004 -9.7250004 0.0175
-8.9895 -9.7189999 0.028999999
-6.7550001 3.6489999 0.0049999999
-6.7030001 3.6359999 0.0049999999
-6.6760001 3.6423335 0.013666666
-6.6158004 3.6346002 0.018000001
-6.5809999 3.6382499 0.014749999
-6.7293334 3.6656666 0.03166667
-6.6865001 3.6655002 0.038000003
-6.625 3.6620002 0.044
-6.5736918 3.6694615 0.024000002
-6.6040001 3.7190001 0.044
-6.5760012 3.7108335 0.022333335
-6.566 3.99 0.017999999
-6.5264997 3.9660001 0.017999999
-6.5999999 4.027 0.0049999999
-5.2649999 10.998 0.027000001
-5.27 11.007 0.048
-5.243 11.001 0.027000001
-4.3150001 16.234501 0.021499999
-9.0720005 -9.7116661 0.083666667
-9.0293331 -9.7278337 0.076000005
-8.9813337 -9.7270002 0.075000003
-9.0480003 -9.6969995 0.075999998
-6.7030001 3.698 0.071999997
-6.668334 3.6783333 0.062333338
-6.63025 3.6880002 0.074249998
-6.5851669 3.683167 0.066166669
-6.723 3.71225 0.085250005
-6.6884999 3.7279999 0.097999997
-6.6157498 3.7219999 0.084249996
-6.5756006 3.7152002 0.075800002
-5.3119998 10.995 0.090999998
-5.2744999 10.990499 0.090999998
-5.2245002 10.98575 0.080499999
-5.2805004 11.004499 0.07
-4.3114996 16.220501 0.080499999
-4.0250001 17.594999 0.07
-4.0159998 17.702 0.071000002
-9.0100002 -9.6569996 0.121
-8.9654999 -9.6595001 0.121
-9.0303335 -9.6329994 0.13633333
-8.9805002 -9.6415005 0.14399999
-6.7142501 3.7384999 0.12199999
-6.6766672 3.7343335 0.13366668
-6.6261992 3.7250001 0.1212
-6.5710001 3.7153335 0.12300001
-6.5307999 3.7166002 0.12520002
-5.2639999 10.995 0.112
-5.2269998 10.991 0.1225
-5.3280001 11.011333 0.127
-5.2856669 11.005667 0.12633334
-4.3119998 16.222 0.124
-9.0050001 -9.651 0.167
-8.9440002 -9.6529999 0.19
-9.0613337 -9.6323338 0.183
-9.0205002 -9.6345005 0.1785
-8.9706669 -9.6366673 0.18233334
-6.7212501 3.7384999 0.17199999
-6.678 3.7362857 0.1744286
-6.6285996 3.7296002 0.1664
-6.5792499 3.72 0.16949999
-6.5218577 3.7152858 0.17457142
-5.2764997 10.995251 0.18125001
-5.2259998 10.988667 0.17566667
-5.3696671 11.014999 0.17666668
-5.3338337 11.015167 0.17650001
-5.283 11.008499 0.1655
-5.2030001 11.014 0.197
-4.3099999 16.2145 0.168
-9.0679998 -9.6160002 0.214
-9.0230007 -9.6366673 0.21333334
-8.9759998 -9.6205006 0.22400001
-8.9344997 -9.6260004 0.2235
-9.0240002 -9.5869999 0.236
-8.9469995 -9.5889997 0.235
-6.6796246 3.73825 0.22462499
-6.6324997 3.73475 0.2235
-6.5738573 3.7232859 0.22471431
-6.5220003 3.7144001 0.2168
-5.263 10.9915 0.229
-5.2179999 10.997 0.21799999
-5.3863335 11.032333 0.227
-5.3332496 11.01375 0.22999999
-5.2810001 11.012668 0.23300001
-5.2360001 11.009501 0.229
-5.2193336 11.065666 0.22633332
-5.1939998 11.097 0.219
-5.2210002 11.103 0.241
-4.3099999 16.214001 0.2265
-9.0100002 -9.5550003 0.25799999
-8.9685001 -9.5609999 0.25749999
-8.9785004 -9.5384998 0.28
-8.9420004 -9.5500002 0.28
-6.6782861 3.7385716 0.27714288
-6.6342502 3.73525 0.27675
-6.5758753 3.7253747 0.27474999
-6.5152001 3.7161999 0.26880002
-5.3745003 11.024 0.273
-5.3334999 11.014 0.27274999
-5.2781997 11.0134 0.26980004
-5.2603335 11.069667 0.27633333
-5.2399998 11.092 0.26300001
-5.2550001 11.125 0.285
-5.223 11.108 0.26300001
-4.3080001 16.205999 0.27000001
-8.9689999 -9.5625 0.303
-8.9235001 -9.564249 0.31999999
-9.0030003 -9.5469999 0.30399999
-8.9812508 -9.5412493 0.33750001
-8.9235001 -9.5480003 0.33649999
-6.6754999 3.7435 0.31799999
-6.6173334 3.7333333 0.32249999
-6.5722003 3.7278001 0.33140001
-6.5285001 3.7212501 0.32574999
-6.6900001 3.7520001 0.33899999
-6.4706426 3.8772149 0.32771429
-6.4626665 3.9163332 0.32749999
-5.3718333 11.027167 0.32300001
-5.3278003 11.0268 0.32600001
-5.2979999 11.015 0.30399999
-5.3340001 11.088 0.34900001
-5.2920003 11.068335 0.31266665
-5.2833338 11.116668 0.32066667
-4.3049998 16.194 0.32800001
-4.3099999 16.215 0.30000001
-8.9196663 -9.4706669 0.37666667
-6.6777496 3.74475 0.37175
-6.623858 3.7360003 0.37214288
-6.5640001 3.7260003 0.37300003
-6.5282497 3.7207499 0.37800002
-6.4772491 3.827667 0.37841672
-6.4739008 3.8701 0.37540001
-6.4706669 3.9157774 0.37400001
-6.4877501 3.9575 0.36900002
-5.342 11.080999 0.3705
-5.3242502 11.11825 0.36625001
-4.309 16.2085 0.3725
-8.9173336 -9.4793339 0.42200002
-6.677 3.7442498 0.42524999
-6.6300001 3.7403748 0.42287502
-6.5710001 3.73 0.41949999
-6.5206003 3.7222002 0.42360002
-6.4845004 3.7330003 0.42990002
-6.477417 3.7706671 0.42599997
-6.4802003 3.8219001 0.42700002
-6.4734612 3.8723083 0.42146164
-6.4665551 3.9116669 0.42055559
-6.47825 3.9514999 0.42125002
-8.9099998 -9.4659996 0.45899999
-8.8690004 -9.4060001 0.479
-7.9388342 -3.2738333 0.48649999
-7.9344292 -3.2264285 0.48742858
-6.6762495 3.7432499 0.47525001
-6.6304288 3.7415717 0.47485718
-6.5747499 3.7320001 0.47300002
-6.5238576 3.7244287 0.47071427
-6.4825001 3.7280002 0.47562498
-6.4813852 3.7784619 0.47369233
-6.4778461 3.8301537 0.4712308
-6.4713335 3.8737497 0.47275007
-6.4702144 3.9242146 0.47114289
-6.4489999 3.9189999 0.47799999
-8.8686666 -9.3946667 0.52433336
-7.9299998 -3.3188 0.53260005
-7.9215717 -3.2812858 0.52414286
-7.8889999 -3.256 0.54100001
-7.9230008 -3.2174284 0.52471435
-7.8951998 -3.2362001 0.52880001
-6.6264 3.7428002 0.52500004
-6.5738001 3.7346001 0.5244
-6.5241671 3.7255001 0.52683342
-6.4872503 3.7324998 0.52024996
-6.4797854 3.7724288 0.52035707
-6.4788575 3.8240719 0.52392852
-6.4707866 3.8739288 0.52242863
-6.4684997 3.9173 0.5284
-4.2810001 16.216999 0.50400001
-8.8649998 -9.3800001 0.58366674
-7.9224997 -3.3515 0.58249998
-7.9204998 -3.326 0.55949998
-7.8789997 -3.3113334 0.57600003
-7.8713751 -3.2792501 0.575625
-7.8429999 -3.253 0.597
-7.9174995 -3.2115002 0.57133335
-7.875 -3.2312 0.57370001
-7.8415003 -3.2365 0.58950001
-6.6570001 3.7479999 0.551
-6.6232505 3.7402501 0.57199997
-6.5880003 3.7389998 0.57975
-6.5289998 3.7279999 0.57537508
-6.4854441 3.735667 0.57066661
-6.4768672 3.7754002 0.57499999
-6.47475 3.8259997 0.57558334
-6.4718466 3.872231 0.57561541
-6.4780002 3.9120002 0.579
-6.4460001 3.901 0.59600002
-8.8249998 -9.3269997 0.611
-7.868 -3.3610001 0.64700001
-7.8643336 -3.3270001 0.61333334
-7.83675 -3.3152499 0.63600004
-7.8614998 -3.2850001 0.60699999
-7.8225002 -3.2713332 0.63149995
-7.8775549 -3.2157779 0.62355554
-7.8299999 -3.2362859 0.62800002
-6.6539998 3.7460001 0.63099998
-6.6147504 3.7392502 0.62125003
-6.5830002 3.7360001 0.62566662
-6.5267997 3.7314999 0.62519997
-6.4853749 3.740875 0.63012499
-6.4783082 3.7763078 0.62592304
-6.4755392 3.8238459 0.6275385
-6.4742146 3.8765001 0.62735718
-7.855 -3.355 0.66100001
-7.8280001 -3.3599999 0.68900001
-7.8131995 -3.3181999 0.66580003
-7.7820001 -3.3157501 0.69174999
-7.8060002 -3.2869999 0.67000002
-7.7812858 -3.2735717 0.67428577
-7.7490001 -3.2620001 0.69499999
-7.8748336 -3.2131667 0.67049998
-7.8275719 -3.2217143 0.67585719
-7.7823334 -3.2387781 0.67699993
-6.6273336 3.7463336 0.67366666
-6.5765715 3.7390003 0.67457145
-6.5197496 3.7337499 0.67675
-6.4892864 3.7364287 0.67714286
-6.6399999 3.753 0.68400002
-6.4776678 3.7725999 0.6782667
-6.4760003 3.820909 0.68136358
-6.4757996 3.8691003 0.67100006
-7.7820005 -3.3613334 0.73000002
-7.8039999 -3.349 0.70200002
-7.7655001 -3.3327501 0.72399998
-7.7393336 -3.3106668 0.73500001
-7.756 -3.2809999 0.71100003
-7.7323742 -3.2713752 0.72512501
-7.8747501 -3.2105002 0.72499996
-7.8249998 -3.2208571 0.72442859
-7.7758331 -3.2336664 0.72550005
-7.7356672 -3.2403336 0.72233337
-6.6034999 3.7474999 0.72750002
-6.5672503 3.74225 0.72425002
-6.5184283 3.7357144 0.72257143
-6.4896674 3.7433333 0.72433329
-6.6285996 3.7530003 0.72580004
-6.4801664 3.7753334 0.72508329
-6.4726996 3.8261998 0.72430003
-6.4691434 3.8591428 0.71900004
-7.7800002 -3.3710001 0.75999999
-7.7395 -3.3615 0.77850002
-7.7145 -3.3268335 0.77033329
-7.7143998 -3.2824001 0.75760001
-7.8677497 -3.2079999 0.76924998
-7.8194289 -3.2161429 0.77499998
-7.7728581 -3.2314289 0.77771431
-7.7238746 -3.2397499 0.77112496
-7.8838 -3.1901999 0.77719998
-6.5663333 3.7413337 0.78366673
-6.519125 3.737 0.77287495
-6.4879999 3.74225 0.77049994
-6.6242504 3.75525 0.76975
-6.5809999 3.75 0.759
-6.4798756 3.7751255 0.77131259
-6.4752498 3.8259168 0.77358335
-6.4230003 3.8249998 0.78149998
-6.4720001 3.8544998 0.7615
-7.723 -3.362 0.80000001
-7.8248749 -3.2101252 0.82687503
-7.7719989 -3.2241111 0.82500005
-7.7263336 -3.2370002 0.82433337
-7.8582497 -3.1919999 0.81999999
-7.8310003 -3.1930001 0.82500005
-6.579 3.7490001 0.82499999
-6.5272503 3.7416248 0.82675004
-6.4869995 3.7444 0.81920004
-6.6260004 3.757 0.81919998
-6.5839996 3.7515001 0.82599998
-6.4834619 3.7755384 0.82484621
-6.4723577 3.8198571 0.82685721
-7.809 -3.2080002 0.88300002
-7.7796669 -3.2141666 0.86816669
-7.7266369 -3.231364 0.87400007
-7.8140001 -3.194 0.86800003
-6.5620003 3.7440002 0.86366671
-6.5261669 3.7433336 0.8775
-6.4903331 3.7433336 0.87400001
-6.5844998 3.7515001 0.88600004
-6.5019999 3.75 0.884
-6.4835334 3.7756667 0.87706673
-6.478889 3.8177779 0.88000005
-6.4184999 3.8074999 0.8725
-7.8070002 -3.207 0.90499997
-7.7686667 -3.2149999 0.91616666
-7.7220006 -3.224 0.92885715
-7.7459998 -3.198 0.94300002
-6.559 3.7444999 0.93000001
-6.5267997 3.7428002 0.92080003
-6.4905 3.7435 0.91549999
-6.58075 3.7532501 0.926
-6.5100002 3.7539999 0.93800002
-6.4901819 3.7790914 0.92345458
-6.4709997 3.8124285 0.92657149
-6.4213333 3.8139999 0.93066669
-7.7201672 -3.2163332 0.97049999
-7.6778002 -3.2281003 0.97679996
-6.5749998 3.7460001 0.958
-6.5306664 3.7460001 0.97133338
-6.4932499 3.74475 0.96925002
-6.5695 3.7544999 0.97850001
-6.5172496 3.75875 0.97925001
-6.4832149 3.7802145 0.96850002
-6.474 3.8172498 0.97187495
-6.4231429 3.8185716 0.97671431
-7.6741428 -3.2202859 1.0224288
-6.4980001 3.747 1.043
-6.57375 3.7565 1.0190001
-6.5209999 3.7548752 1.0246249
-6.4871535 3.7774615 1.0213846
-6.4760909 3.8163633 1.0294545
-6.4265003 3.8193336 1.0198334
-6.3666663 3.9238336 1.0288334
-6.4499998 3.9960001 1.0420001
-6.3745003 3.9649999 1.0105
-7.671 -3.23 1.054
-6.4970002 3.747 1.0829999
-6.5808001 3.7614 1.0702
-6.5167141 3.7580001 1.0747143
-6.4866371 3.7711825 1.0770909
-6.4748464 3.8179231 1.0772308
-6.4207001 3.8323998 1.0690999
-6.4000001 3.8410001 1.051
-6.418375 3.8712497 1.0871249
-6.3865004 3.8690002 1.0560001
-6.4124999 3.9142499 1.08125
-6.3882504 3.915 1.0652499
-6.4152503 3.9547501 1.0779999
-6.4633331 4.0093336 1.0623335
-6.448 4.0100002 1.069
-6.5009999 3.7490001 1.124
-6.494 3.7449999 1.109
-6.5822001 3.7619998 1.1295999
-6.5298338 3.7628334 1.1215
-6.4902 3.7763002 1.1255001
-6.478539 3.8236921 1.1232308
-6.4419999 3.8439999 1.1094999
-6.4616671 3.8730001 1.1366667
-6.4365997 3.8785999 1.1171999
-6.4549999 3.9256668 1.1400001
-6.4349999 3.9219999 1.1168571
-6.4544997 3.95925 1.1404999
-6.4435 3.9605 1.112
-6.5019999 3.7490001 1.15
-6.5228748 3.763 1.1746249
-6.48875 3.7771668 1.1720834
-6.4824286 3.825 1.1727858
-6.4720001 3.8750002 1.1750002
-6.4680009 3.9232225 1.1774446
-6.4455004 3.9305 1.1705
-6.4618573 3.9650004 1.1755714
-6.4489999 3.98 1.189
-6.5240998 3.7622001 1.2242
-6.4869995 3.7809095 1.2289091
-6.4762669 3.8235335 1.2260667
-6.4704552 3.8735456 1.2244545
-6.4499998 3.8859999 1.2079999
-6.4675455 3.9281819 1.2225455
-6.4460001 3.9460001 1.226
-6.4674287 3.9704287 1.2174287
-6.4429998 3.9749999 1.214
-6.5152502 3.7607501 1.27075
-6.4876161 3.7805388 1.2799231
-6.4812727 3.8243637 1.2756364
-6.4702673 3.8771334 1.2720668
-6.4639177 3.9257498 1.274
-6.4658008 3.9614003 1.2732
-6.5126667 4.0026665 1.2763333
-6.5192504 3.7667499 1.3223749
-6.4895 3.7798336 1.3258333
-6.4870715 3.8263576 1.3256431
-6.4749284 3.8747146 1.3242143
-6.4640002 3.9197698 1.327077
-6.447 3.931 1.346
-6.4648571 3.9667141 1.3212858
-6.5234284 3.7681432 1.376143
-6.4894443 3.7773333 1.3735557
-6.5050001 3.8269999 1.373
-6.4852004 3.823467 1.3767333
-6.4771667 3.87675 1.3743333
-6.4676666 3.9226668 1.376
-6.4638 3.9646001 1.3727001
-6.4453335 3.977 1.378
-6.5215006 3.7703338 1.4291667
-6.4933748 3.7762499 1.4240001
-6.507 3.813 1.426
-6.4863629 3.8258185 1.424091
-6.4786663 3.875 1.4230835
-6.471333 3.923867 1.4240668
-6.463778 3.968889 1.4268889
-6.4460001 3.977 1.4184999
-6.5285997 3.7703998 1.4748
-6.4967499 3.7818751 1.47075
-6.5110002 3.8150001 1.454
-6.4894619 3.8236153 1.4759231
-6.4810677 3.8718667 1.4722
-6.4700665 3.9230669 1.4800667
-6.4618888 3.9693332 1.4721112
-6.4425001 3.967 1.4855001
-6.5211434 3.7751431 1.5258572
-6.4901252 3.78175 1.517125
-6.5009999 3.8239999 1.522
-6.4884624 3.8253844 1.5290768
-6.4781432 3.8731427 1.5276427
-6.4705005 3.9263999 1.5258001
-6.4489999 3.948 1.539
-6.4588885 3.9692223 1.5250001
-6.4499998 3.9790001 1.502
-6.5137496 3.7744999 1.57725
-6.4958 3.7818 1.5740001
-6.4871669 3.8238335 1.5740836
-6.4785461 3.8763633 1.577
-6.4731336 3.9249337 1.5741334
-6.4597774 3.9677777 1.5754446
-6.4435 3.987 1.5665001
-6.4956675 3.7855 1.6216667
-6.4856672 3.8255005 1.6219168
-6.4803076 3.8790002 1.6251538
-6.4755006 3.9244003 1.6267999
-6.467 3.9714165 1.6219168
-6.4923997 3.7821999 1.6718
-6.4873338 3.8161108 1.6722223
-6.4832311 3.8701539 1.6745386
-6.4746432 3.9272146 1.6734287
-6.4672999 3.9724998 1.6722001
-6.4460001 3.9920001 1.6815
-6.4893336 3.7866666 1.7213334
-6.4435 3.9905 1.7225001
-6.448 3.931 1.7644999
-6.4449997 3.9920001 1.7645
-4.3280001 15.335334 1.98
-7.5380001 -3.2520001 2.0020001
-7.5240002 -3.2385001 2.0273335
-4.3260002 15.2935 2.0265
-4.296 15.292 2.039
-4.302 15.31 2.013
-4.29 15.373 2.049
-7.5185003 -3.2365003 2.0715001
-4.3309999 15.26075 2.079
-4.2930002 15.279 2.0940001
-4.2989998 15.301 2.0680001
-4.29 15.371 2.0769999
-7.5235 -3.2539999 2.1044998
-7.5206003 -3.2390001 2.1239998
-4.3214998 15.227251 2.1305001
-4.2989998 15.298 2.125
-4.2915001 15.377501 2.1199999
-4.2703338 15.440333 2.1323335
-7.6035004 -3.2579999 2.1700001
-7.5896673 -3.26 2.1823335
-7.6125002 -3.2460001 2.1789999
-7.5935001 -3.2379999 2.1965001
-7.5066671 -3.2393332 2.1756668
-4.3245001 15.186501 2.1815
-4.309 15.234 2.1730001
-4.2965002 15.292 2.1659999
-4.2915001 15.3765 2.177
-4.2790003 15.436 2.1845
-4.2296667 15.431 2.1773334
-4.1919999 15.435 2.1949999
-7.5799999 -3.2550001 2.21
-7.5409999 -3.2539999 2.247
-7.6156001 -3.2180002 2.2179999
-7.5785003 -3.2277501 2.21825
-7.5163336 -3.2253332 2.2168336
-7.6149998 -3.1845 2.2425001
-7.5764999 -3.184 2.2480001
-7.5197501 -3.1837502 2.23
-7.6085 -3.1125 2.2409999
-4.3320003 15.16325 2.2344999
-4.3085003 15.231501 2.2145
-4.2940001 15.28 2.2349999
-4.302 15.311 2.211
-4.2859998 15.355499 2.2305
-4.2740002 15.417 2.224
-4.2273331 15.422333 2.2326667
-4.171 15.4095 2.2335
-4.256 15.457 2.2
-7.5594997 -3.2620001 2.2755001
-7.5314999 -3.2574999 2.283
-7.616333 -3.1669998 2.2716668
-7.5767498 -3.161 2.2725
-7.6120005 -3.1260002 2.2847998
-7.5910001 -3.1199999 2.2909999
-7.5293331 -3.1410003 2.2773333
-7.4811249 -3.1324999 2.2849998
-4.3290005 15.136667 2.2820001
-4.3079996 15.23 2.2709999
-4.2979999 15.295 2.293
-4.2780004 15.327334 2.2876668
-4.2259998 15.349 2.2980001
-4.1939998 15.337 2.2950001
-4.1370001 15.336 2.2650001
-4.2740002 15.363001 2.2735
-4.2309999 15.367 2.273
-4.1859999 15.3585 2.2695
-4.2789998 15.434 2.2550001
-4.2470002 15.422 2.2520001
-4.1900001 15.428 2.2509999
-7.5245714 -3.2561429 2.3240001
-7.6150007 -3.1146667 2.3226666
-7.5840001 -3.1135001 2.3155
-7.54 -3.1069999 2.3150001
-7.4644437 -3.1244445 2.3214445
-7.6090002 -3.0964999 2.3245001
-7.573 -3.082 2.3440001
-7.5225 -3.0770001 2.3375001
-7.472301 -3.0821002 2.3293998
-4.3559999 15.098 2.3239999
-4.3299999 15.106 2.3239999
-4.3150001 15.153 2.3164999
-4.3049998 15.219 2.3110001
-4.3000002 15.202 2.3369999
-4.2930002 15.2775 2.3329999
-4.276 15.3715 2.3315001
-4.2319999 15.369 2.3299999
-7.5120001 -3.2537501 2.3699999
-7.4735003 -3.2355001 2.3755002
-7.4520001 -3.109 2.3759999
-7.6139998 -3.0683334 2.3636668
-7.585 -3.0640001 2.3685
-7.5333338 -3.0609999 2.3563333
-7.4578004 -3.0778 2.3620002
-7.4400005 -3.0690005 2.383286
-7.6049995 -3.0393333 2.3840003
-7.5636668 -3.0380001 2.388
-7.5225 -3.0384998 2.3794999
-7.4693751 -3.0324998 2.3813751
-7.4426665 -3.0386667 2.3853335
-4.2179999 14.860001 2.381
-4.3296671 15.074 2.3663335
-4.316 15.156 2.3729999
-4.3059998 15.221 2.3824999
-4.2744999 15.367001 2.3594999
-7.4797997 -3.2465999 2.427
-7.6073332 -3.0246668 2.4140003
-7.5725002 -3.0135 2.4215
-7.5324998 -3.013 2.4100001
-7.4665999 -3.0148001 2.4150002
-7.4416256 -3.0267501 2.4265001
-7.6030002 -2.987 2.4189999
-7.5828338 -2.9916668 2.4345002
-7.5235 -2.9784999 2.4419999
-7.4737501 -2.9819999 2.425
-7.4396663 -2.9833336 2.4343333
-4.3039999 14.817 2.447
-4.263 14.8245 2.4335001
-4.2293334 14.819 2.4353333
-4.296 14.889 2.4300001
-4.2870002 14.958 2.4130001
-4.3385 15.0365 2.4130001
-4.3200002 15.071 2.4030001
-4.316 15.154 2.415
-7.46 -3.2509999 2.4719999
-7.5166664 -3.2386665 2.4703336
-7.4765716 -3.2357142 2.4721429
-7.454 -3.171 2.4909999
-7.4259229 -3.0246155 2.4753079
-7.5840001 -2.9642498 2.4692502
-7.5253334 -2.9613338 2.4616668
-7.4565001 -2.9675 2.4755001
-7.4368334 -2.9759166 2.47475
-7.5697498 -2.93225 2.4850001
-7.5326667 -2.9390001 2.4863336
-7.4688334 -2.9341667 2.4755001
-7.4426665 -2.934 2.4860001
-4.3239999 14.79 2.4990001
-4.2779999 14.780001 2.4955001
-4.2249999 14.7865 2.4802499
-4.3175001 14.816 2.4755001
-4.2719998 14.805 2.4719999
-7.5246243 -3.2224998 2.5252502
-7.4735718 -3.2364285 2.5181432
-7.4429998 -3.152 2.5009999
-7.4207783 -3.0824444 2.5274444
-7.4159098 -3.0253637 2.5228183
-7.428091 -2.973182 2.5201817
-7.5822854 -2.9159999 2.5139999
-7.5219998 -2.9100001 2.5109999
-7.4693336 -2.9096668 2.5056667
-7.4340906 -2.9304547 2.5280001
-7.5786667 -2.8916669 2.536
-7.526 -2.8863335 2.5403335
-7.4727502 -2.88325 2.52425
-7.4327502 -2.8865001 2.5341249
-7.572 -2.8399999 2.549
-4.3119998 14.748 2.5469999
-4.2529998 14.74 2.543
-4.3779998 14.784 2.529
-4.3295002 14.761499 2.5225
-4.277 14.759334 2.5286667
-4.2174997 14.761 2.5312498
-4.3719997 14.809999 2.5050001
-7.5630002 -3.2179999 2.5899999
-7.5237145 -3.2208571 2.5704286
-7.4724288 -3.2335715 2.5704286
-7.4306002 -3.0730002 2.5712001
-7.4137154 -3.0304286 2.5681429
-7.4148178 -2.974818 2.5722728
-7.4179001 -2.9265001 2.5729001
-7.5738001 -2.8668001 2.5646
-7.5243335 -2.8610001 2.5626667
-7.4645 -2.858 2.5570002
-7.4187694 -2.8756924 2.5770001
-7.5714998 -2.8354998 2.5830002
-7.514667 -2.837667 2.5829999
-7.4657497 -2.829 2.5810001
-7.4284449 -2.8327777 2.5836666
-4.381 14.7445 2.5774999
-4.3246665 14.729334 2.5816667
-4.2752495 14.72 2.5892501
-4.3860002 14.762 2.553
-4.3410001 14.756 2.55
-4.256 14.751 2.573
-4.2200003 14.7705 2.5739999
-4.1809998 14.8265 2.5815001
-4.1199999 15.165 2.5769999
-7.5200005 -3.2186251 2.6231251
-7.4729996 -3.2301669 2.6206667
-7.4197998 -3.0172002 2.6136003
-7.4101667 -2.9718332 2.6261668
-7.3990002 -2.9745002 2.6129999
-7.4063334 -2.9223335 2.6140001
-7.3955717 -2.9270003 2.6288574
-7.4136672 -2.8755002 2.6245003
-7.3959999 -2.891 2.6400001
-7.5599999 -2.8122499 2.6194999
-7.5283332 -2.8176668 2.610667
-7.4889998 -2.8080001 2.6129999
-7.4169006 -2.8220999 2.6229999
-7.4000001 -2.8039999 2.6459999
-7.533 -2.7874999 2.6395001
-7.4706001 -2.7835999 2.6318002
-7.423429 -2.7838571 2.6338573
-4.323 14.693 2.6210001
-4.3710003 14.712 2.6129999
-4.3039999 14.723 2.625
-4.2735 14.762 2.6304998
-4.2300005 14.788666 2.6143334
-4.2249999 14.834 2.6400001
-4.197 14.836 2.6110001
-4.1859999 14.896 2.6199999
-4.2049999 15.168 2.638
-4.1634998 15.1695 2.6360002
-4.1300001 15.168334 2.6156669
-7.553 -3.2290001 2.6989999
-7.5246673 -3.2168336 2.668
-7.4712858 -3.2288573 2.6722858
-7.5159998 -3.198 2.684
-7.4200001 -2.9706666 2.6676669
-7.4092503 -2.9337502 2.6802502
-7.3933334 -2.9099998 2.6726665
-7.4052505 -2.8759999 2.6645002
-7.3864441 -2.8773334 2.6781113
-7.4100003 -2.8275559 2.6743333
-7.3926673 -2.8305001 2.6753335
-7.5290008 -2.7634287 2.6665716
-7.4559999 -2.7509999 2.658
-7.4146671 -2.7731667 2.6715832
-7.4000001 -2.79 2.675
-7.5290003 -2.7336669 2.6886668
-7.4630003 -2.7319999 2.681
-7.4228573 -2.7330003 2.682286
-4.3696671 14.691 2.6603334
-4.3569999 14.71 2.681
-4.3243332 14.728 2.664
-4.3140001 14.756 2.687
-4.2853336 14.786334 2.6720004
-4.2635002 14.8245 2.6815
-4.2639999 15.071 2.681
-4.2265 15.089001 2.6819999
-4.1695004 15.092 2.6799998
-4.1139998 15.0915 2.677
