# .PCD v0.7 - Point Cloud Data file format
VERSION 0.7
FIELDS x y z
SIZE 4 4 4
TYPE F F F
COUNT 1 1 1
WIDTH 1723
HEIGHT 1
VIEWPOINT 0 0 0 1 0 0 0
POINTS 1723
DATA ascii
9.6060009 3.0390003 3.4683332
9.4560003 3.082 3.4820001
9.5321674 3.0703335 3.4761667
9.5819998 4.138 3.451
9.6429996 4.145 3.47
9.5860004 4.1765003 3.4741669
9.5912008 4.2260003 3.4737999
9.6049995 4.2480001 3.4519999
9.5906677 4.2718334 3.4714999
9.5926008 4.3228002 3.4829998
9.6013336 4.3203335 3.4679999
9.5880003 4.3676672 3.4766669
9.6079998 4.3899999 3.4719999
9.6040001 4.408 3.494
9.9530001 11.462 3.451
10.0195 11.4755 3.4635
9.9309998 11.518 3.4579999
9.9214993 11.569 3.4790001
9.9289999 11.6385 3.464
9.9179993 11.6675 3.4675002
9.9709997 12.027 3.4949999
10.024 12.003 3.4979999
10.026 12.136 3.4920001
10.071501 12.1255 3.497
9.9759998 12.164 3.49
10.013 12.164 3.4960001
9.9700003 12.2 3.4949999
10.029 12.273 3.487
10.073 12.281 3.4949999
10.1 12.271 3.497
9.9864998 12.3295 3.4914999
10.02 12.305 3.4920001
9.9750004 12.38 3.4979999
10.0355 12.4335 3.4865
10.0855 12.4065 3.4889998
9.9890003 12.488 3.4890001
10.002 12.459 3.4860001
9.9820004 12.524 3.4949999
10.095 12.529 3.4809999
10.0175 12.591 3.4815001
10.066 12.5615 3.4835
9.9840002 12.617 3.4809999
9.9919996 12.673 3.4920001
10.024 12.7365 3.4780002
10.075 12.7095 3.4795001
10.003 12.777 3.4820001
10.001 12.821 3.4890001
10.02 12.875667 3.4806666
10.067 12.858 3.474
10.101 12.857 3.4779999
9.9989996 12.911 3.474
10.006 12.967 3.484
10.118999 12.995 3.4734998
10.023001 13.0355 3.4829998
10.0605 13.014 3.4695001
10.027 13.088 3.477
10.019 13.124 3.4820001
10.073 13.147 3.4630001
10.141 13.142 3.471
10.019 13.173 3.4909999
10.059 13.177 3.4660001
10.117 13.158 3.47
10.031668 13.223 3.4806666
10.017 13.268 3.4760001
10.07 13.2655 3.4520001
10.139 13.282 3.4630001
10.024 13.3255 3.471
10.024 13.374001 3.4795001
10.027 13.427 3.473
10.023 13.4705 3.4650002
10.024 13.521 3.4735
10.0355 13.586 3.4860001
10.037 13.638 3.4790001
10.028 13.676 3.484
10.05 13.655 3.4530001
10.041 13.745 3.497
10.052 13.708 3.4619999
10.04 13.768 3.4699998
10.154 13.797 3.4579999
10.042 13.848 3.483
10.079 13.8225 3.4524999
10.051 13.861 3.4560001
10.043 13.901 3.4920001
10.054 13.917 3.4649999
10.1705 13.947001 3.4524999
10.048 13.959 3.471
10.059 14.024 3.4675
10.047 14.061 3.4879999
10.057 14.074 3.46
10.054501 14.120501 3.483
10.065 14.188 3.4790001
10.049 14.218 3.451
10.063 14.237 3.487
10.06 14.287 3.4949999
8.842 -9.5719995 3.517
8.8450003 -9.5419998 3.5120001
8.8520002 -9.5159998 3.5079999
8.8614998 -9.165 3.5244999
8.859333 -9.1186666 3.5106666
8.8699999 -8.9189997 3.513
8.8760004 -8.8330002 3.5324998
8.9139996 -8.3290005 3.5220001
8.9092503 -8.28125 3.5227499
8.9052505 -8.2277508 3.52825
8.9125004 -8.1690006 3.5239999
8.9137497 -8.1137505 3.5192499
8.9103336 -8.0773335 3.5250001
8.91675 -8.0305004 3.52075
8.9216003 -7.9819999 3.5281999
8.9282503 -7.9292498 3.526
8.9312496 -7.8767495 3.5219998
8.9294004 -7.8288002 3.5265999
8.9343338 -7.7746668 3.5160003
8.9362001 -7.7304001 3.5270002
8.9390001 -7.6780005 3.5203333
8.9549999 -7.6785002 3.5279999
8.9470005 -7.6112499 3.5187497
8.9619999 -7.6440001 3.5339999
8.9405003 -7.5714998 3.5265
8.96 -7.5879998 3.5
8.9394999 -7.5445004 3.5209999
8.9524002 -7.5127997 3.5242002
8.9602499 -7.4689999 3.533
8.9587498 -7.4145002 3.5222502
8.9597502 -7.3692498 3.5302501
8.9606667 -7.3336668 3.5253334
8.9655724 -7.2741442 3.5234289
8.9692497 -7.2164998 3.5302498
8.9727497 -7.1674995 3.5220001
8.9751673 -7.1181669 3.5239999
8.9855003 -7.0874996 3.5314999
9.0182495 -6.4761252 3.52425
9.0226669 -6.4210005 3.5266666
9.0251675 -6.3756671 3.5191667
9.0212498 -6.3214998 3.5257499
9.0297499 -6.2804999 3.5204999
9.0338583 -6.2314291 3.5231431
9.0500002 -6.2129998 3.5450001
9.0424995 -6.1724997 3.52525
9.0394001 -6.1265998 3.5264001
9.0509996 -6.1209998 3.529
9.0396671 -6.074667 3.5313334
9.052 -6.0985003 3.5145001
9.0450001 -6.0292001 3.523
9.0369997 -5.9959998 3.5020001
9.0533333 -5.9728336 3.5233335
9.0459995 -5.9349999 3.5150001
9.0597506 -5.9215002 3.5265002
9.0588341 -5.8690004 3.5238333
9.0640001 -5.82375 3.53125
9.0745001 -5.7860003 3.5274999
9.0638752 -5.7207499 3.52075
9.0714998 -5.6732497 3.5272501
9.0777998 -5.6268001 3.5234001
9.0794296 -5.5735722 3.5197146
9.08325 -5.5270004 3.526
9.0880003 -5.475286 3.5287144
9.0841675 -5.4263334 3.5191667
9.1079998 -5.401 3.5220001
9.0942507 -5.3715 3.52825
9.0933332 -5.3245001 3.5218332
9.1079998 -5.3150001 3.5280001
9.0959997 -5.2659998 3.536
9.1086674 -5.2775002 3.5250001
9.1070004 -5.2200003 3.5214999
9.1070004 -5.1763997 3.5203998
9.0837507 -5.1237497 3.5295
9.1044998 -5.1355 3.5065
9.0861664 -5.0733337 3.5318336
9.0882502 -5.0229998 3.5239999
9.0892506 -4.987 3.5235
9.1176672 -4.9666672 3.52
9.1739998 -4.9759998 3.5109999
9.1222868 -4.9222856 3.5277145
9.1301441 -4.8767147 3.5227146
9.1310005 -4.8238335 3.5311668
9.1402864 -4.7709999 3.5234287
9.1373329 -4.7319999 3.5220001
9.1520004 -4.719667 3.5243335
9.1417999 -4.6792002 3.5232003
9.1529999 -4.6609998 3.536
9.1446667 -4.6230006 3.5206668
9.1540003 -4.6409998 3.513
9.1433334 -4.5956669 3.5226667
9.1450005 -4.3600001 3.5469999
9.1929998 -4.3629999 3.503
9.2119999 -4.3725004 3.5395
9.2576666 -4.3743339 3.5250001
9.125 -4.3499999 3.5190001
9.1947145 -3.3294287 3.5220001
9.2049999 -3.3299999 3.523
9.192667 -3.2593334 3.529
9.2027502 -3.2795 3.5254998
9.2134285 -3.2238574 3.5318573
9.2722492 -3.2260001 3.5232501
9.3174992 -3.214 3.5374999
9.5300007 1.893 3.5440001
9.4805002 1.9241667 3.5258336
9.5270004 1.9189999 3.5165
9.5710001 1.9100001 3.5219998
9.4707508 1.9702501 3.5217502
9.4722233 2.0209999 3.5236669
9.4804287 2.0722857 3.5251429
9.4883337 2.1311667 3.5220001
9.5039997 2.1140001 3.5420001
9.4863997 2.1697998 3.5172002
9.5109997 2.204 3.513
9.5539999 3.0409999 3.5293336
9.6153336 3.0419998 3.5306668
9.467 3.0853336 3.5246665
9.5351114 3.0713336 3.5264447
9.6669998 4.1849999 3.5139999
9.5886669 4.2243338 3.5188336
9.6120005 4.211 3.5309999
9.5882006 4.2768002 3.5244005
9.592001 4.3266001 3.5198002
9.6009998 4.3470001 3.546
9.5909996 4.3669996 3.5202501
9.6000004 4.3870001 3.5309999
9.5890007 4.4219999 3.5323334
9.6044998 4.4184999 3.516
9.8269997 8.309 3.546
9.9289999 11.639 3.506
9.9280005 11.679 3.513
9.9265003 11.719 3.5339999
9.9624996 11.7815 3.5219998
9.9563341 11.823668 3.5236669
9.9460001 11.868 3.52
10.021 11.872334 3.5036666
9.9676666 11.922333 3.5139999
9.9589996 11.9685 3.5254998
10.063 11.986 3.5009999
9.9619999 12.016001 3.5345001
10.008 12.027 3.5
9.9633331 12.075333 3.5209999
9.9645004 12.128 3.5109999
9.9705 12.178499 3.5349998
9.9694996 12.2435 3.5174999
9.9734993 12.290501 3.526
9.9764996 12.3385 3.5345001
9.9759998 12.382 3.5280001
9.974 12.425 3.5204999
9.9860001 12.484 3.5320001
9.9879999 12.531 3.526
9.9890003 12.577499 3.5190001
9.9879999 12.623 3.5420001
10.001 12.639 3.517
9.9879999 12.668 3.52
9.9920006 12.7185 3.5145001
9.993 12.7645 3.5225
9.9910002 12.8085 3.5295
9.993 12.857 3.5239999
9.9949999 12.906 3.5020001
10.004 12.917 3.5350001
10.002501 12.9615 3.5279999
10.006 13.014 3.5220001
10.009 13.064501 3.5165
10.0145 13.118999 3.526
10.018499 13.1735 3.536
10.012 13.213 3.527
10.02 13.271999 3.5225
10.019501 13.3195 3.5310001
10.025 13.376 3.526
10.018 13.4155 3.5165
10.027 13.476 3.5274999
10.037 13.539 3.5239999
10.036 13.587 3.5320001
10.0275 13.6255 3.5220001
10.034 13.6845 3.5325
10.04 13.744 3.5280001
10.039499 13.7925 3.5205002
10.035 13.839 3.5120001
10.046 13.854 3.5469999
10.045 13.904 3.5239999
10.0425 13.952 3.516
10.045 14.006 3.5409999
10.052 14.015 3.5120001
10.043 14.056 3.549
10.052 14.069 3.5209999
10.052 14.117 3.529
10.0595 14.1805 3.5250001
10.068 14.244 3.5209999
10.062 14.29 3.527
10.062 14.343 3.536
10.032 14.379 3.5385001
10.077 14.364 3.51
8.8570004 -9.4549999 3.5940001
8.8684998 -9.1147499 3.5697501
8.9087505 -8.1662502 3.5687499
8.9157505 -8.1225004 3.5727499
8.9140005 -8.0806675 3.5796669
8.9182005 -8.0296001 3.573
8.9266005 -7.9752002 3.5823998
8.9260006 -7.9223337 3.5656669
8.931201 -7.8794007 3.5778
8.9307499 -7.8217497 3.573
8.9364004 -7.7690005 3.5708001
8.9360008 -7.7206664 3.5806665
8.9393339 -7.6870003 3.5673332
8.9397993 -7.6302004 3.5666001
8.9510002 -7.6204996 3.5829999
8.9440002 -7.5749998 3.5725
8.9534998 -7.5565 3.5710001
8.948 -7.5250001 3.552
8.9636669 -7.52 3.5843334
8.9624996 -7.4835 3.5809999
8.9572506 -7.4267497 3.5687499
8.9583998 -7.3796005 3.5748003
8.96175 -7.3197503 3.5762501
8.9696007 -7.2708011 3.5788
8.9717503 -7.2185001 3.5754998
8.9709997 -7.1632004 3.5712001
8.9767504 -7.1187496 3.5792501
8.9759998 -7.0799999 3.5714998
9.0206671 -6.4670005 3.5773335
9.0216007 -6.4238 3.5682003
9.0253334 -6.3795004 3.5729997
9.0257502 -6.3247499 3.5697498
9.0345726 -6.2782855 3.5742857
9.0366001 -6.2217999 3.5768001
9.0412502 -6.1714997 3.56675
9.04175 -6.1257496 3.5795
9.0415001 -6.0915003 3.5735002
9.0515003 -6.0749998 3.573
9.0419998 -6.046 3.5650001
9.0553999 -6.0176001 3.5700002
9.0459995 -5.98 3.5650001
9.0576668 -5.9720001 3.5803332
9.0567503 -5.9307499 3.5695
9.0439997 -5.8660002 3.5639999
9.0611668 -5.8773336 3.571167
9.0674992 -5.8262501 3.5742502
9.0668001 -5.7737999 3.5625999
9.0739994 -5.7242498 3.5735002
9.0802498 -5.6785002 3.5722499
9.078001 -5.6225004 3.5618334
9.0874996 -5.5739999 3.5664999
9.1040001 -5.573 3.592
9.0889997 -5.5307503 3.5695
9.0877495 -5.4807501 3.5652502
9.0880003 -5.418334 3.5666666
9.1129999 -5.447 3.5929999
9.0892506 -5.3790002 3.56375
9.1035004 -5.355 3.5640001
9.0955 -5.3080001 3.5739999
9.1020002 -5.3330002 3.5699999
9.0930004 -5.2750001 3.5569999
9.1084995 -5.26825 3.5760002
9.1067505 -5.2200003 3.5622501
9.0842009 -5.1632004 3.5803998
9.1140003 -5.1925001 3.5599999
9.0843992 -5.1262002 3.5743999
9.0804291 -5.067286 3.5737145
9.0885 -5.0228333 3.5746667
9.1610003 -5.0100002 3.5940001
9.0939999 -4.9949999 3.5710001
9.13025 -4.9734998 3.5687499
9.1700001 -4.9949999 3.5539999
9.132 -4.9330001 3.5663335
9.1254997 -4.8785 3.562
9.1575003 -4.8755002 3.5910001
9.1374998 -4.8340001 3.5682502
9.1383343 -4.7863336 3.5643334
9.1660004 -4.7670002 3.5764999
9.1376667 -4.7320004 3.562
9.1630001 -4.7154999 3.5869999
9.1442509 -4.671 3.5595002
9.1619997 -4.6849999 3.5829999
9.1459999 -4.6370001 3.5595
9.1529999 -4.6210003 3.5595
9.1450005 -4.5960002 3.563
9.1470003 -4.3610001 3.5669999
9.1630001 -4.369 3.5929999
9.2193336 -4.3690004 3.5783336
9.2800007 -4.3709998 3.5776668
9.1913338 -3.3195 3.577667
9.2034998 -3.3385 3.5615001
9.1940002 -3.2826002 3.5672002
9.2093334 -3.2650001 3.5869999
9.2078009 -3.2329998 3.5736001
9.2720003 -3.207 3.55
9.1973333 -3.1936669 3.5803335
9.2225008 -3.1784999 3.5746667
9.2754993 -3.1730001 3.5760002
9.3223333 -3.1796665 3.5705001
9.3559999 -3.164 3.5929999
9.2080002 -3.1500001 3.598
9.2589998 -3.1489999 3.5969999
9.475625 1.8783749 3.5787501
9.5333328 1.8710001 3.573
9.5739994 1.86725 3.5727501
9.471858 1.9218571 3.5707142
9.4741106 1.9688889 3.5777774
9.4806671 2.0228336 3.5746667
9.4831247 2.0774999 3.5725
9.4864998 2.1221666 3.5686665
9.5349998 2.1559999 3.595
9.5570002 3.0419998 3.5799999
9.6030006 3.0380001 3.5755
9.4785004 3.0895 3.5774999
9.5370007 3.072 3.5761666
9.5939999 4.243 3.55
9.6780005 4.2199998 3.552
9.5888004 4.2732005 3.5686002
9.6090002 4.25 3.576
9.7130003 4.2550001 3.5880001
9.5903339 4.3155003 3.5756669
9.6040001 4.348 3.5680001
9.5930004 4.3829999 3.569
9.6019993 4.3772502 3.576
9.5953341 4.4110003 3.5803332
9.6005001 4.4165001 3.5555
9.8260002 7.5430002 3.599
9.7849998 7.592 3.599
9.8500004 7.6430001 3.599
9.819334 7.6750002 3.5976667
9.7744999 7.737 3.5985
9.7980003 7.7989998 3.592
9.8225002 7.7755003 3.5925002
9.8590002 7.7620001 3.599
9.7889996 7.8330002 3.5955
9.7779999 7.8660002 3.599
9.8225002 7.888 3.5895
9.8830004 7.8660002 3.599
9.79 7.9320002 3.5899999
9.8039999 7.915 3.5899999
9.7824993 7.9679999 3.5945001
9.8699999 7.9825001 3.5929999
9.7910004 8.0459995 3.5869999
9.8226671 8.0150003 3.5883331
9.7840004 8.0834999 3.592
9.901 8.0790005 3.5929999
9.7749996 8.1199999 3.5969999
9.8196669 8.1276674 3.5836668
9.8765001 8.1020002 3.5915
9.79 8.191 3.589
9.8079996 8.177 3.5899999
9.9040003 8.1969995 3.5899999
9.8093338 8.2253342 3.5833335
9.8734999 8.2164993 3.5875001
9.7950001 8.2819996 3.582
9.8079996 8.2629995 3.5810001
9.7910004 8.3225002 3.5885
9.835 8.3459997 3.5780001
9.8769999 8.3365002 3.585
9.79 8.3660002 3.596
9.8134995 8.3719997 3.5785
9.8156672 8.4280005 3.5806665
9.8809996 8.4440002 3.5810001
9.9195004 8.4324999 3.5869999
9.8156662 8.4686661 3.5799999
9.7959995 8.5220003 3.5769999
9.8149996 8.5080004 3.579
9.8940001 8.5459995 3.5769999
9.9259996 8.5430002 3.5840001
9.7969999 8.5830002 3.589
9.8144999 8.5685005 3.5770001
9.8664999 8.5680008 3.576
9.8080006 8.6130009 3.5799999
9.7980003 8.6750002 3.5810001
9.8234997 8.6674995 3.5725
9.8794994 8.6709995 3.5725
9.9239998 8.6639996 3.5799999
9.8175001 8.7232504 3.5815001
9.7950001 8.7639999 3.5969999
9.8164997 8.7679996 3.5769999
9.8700008 8.7849998 3.5665002
9.9260006 8.7729998 3.5755
9.8272495 8.8237495 3.57725
9.8196669 8.8693333 3.5796669
9.8590002 8.8839998 3.5569999
9.9144993 8.8864994 3.5685
9.8282499 8.9332504 3.5724998
9.8610001 8.9169998 3.563
9.8295002 8.9809999 3.5815001
9.8262501 9.0244999 3.5757501
9.8669996 9.0305004 3.5605001
9.9179993 9.0154991 3.5675001
9.8280001 9.073 3.5725
9.8295002 9.1075001 3.5795
9.875 9.1490002 3.5580001
9.9130001 9.1359997 3.563
9.9469995 9.2469997 3.5639999
9.9540005 11.794 3.5650001
9.9530001 11.833 3.572
9.9535007 11.8775 3.566
9.9619999 11.929 3.562
9.96 11.97 3.5829999
9.9490004 12 3.572
9.9610004 12.058 3.556
9.9673338 12.123668 3.5776668
9.9675007 12.1975 3.5669999
9.9750004 12.249 3.563
9.9716673 12.274333 3.586
9.9750004 12.337 3.5780001
9.9715004 12.3765 3.5695
9.9745007 12.4245 3.5784998
9.9709997 12.466 3.5710001
9.9820004 12.5235 3.5679998
9.9809999 12.5675 3.575
9.9809999 12.614 3.569
9.9895 12.6705 3.5645001
9.9899998 12.7165 3.573
9.9849997 12.754 3.5940001
10.003 12.778 3.5710001
9.9899998 12.807 3.5739999
9.9910002 12.855 3.582
10.004 12.871 3.5569999
10.007 12.921 3.5809999
10.003 12.963 3.573
10.0035 13.0105 3.566
10.0065 13.0605 3.575
10.013 13.118 3.5710001
10.005 13.155 3.576
10.0105 13.2115 3.5715001
9.9879999 13.278 3.5650001
10.012 13.262501 3.5805001
10.0185 13.366501 3.569
10.0255 13.4255 3.5795
10.027 13.477 3.573
10.026501 13.5245 3.566
10.0235 13.5705 3.5734999
10.03 13.629499 3.5844998
10.032 13.681 3.5780001
10.032 13.7325 3.5714998
10.028 13.778 3.563
10.042 13.849 3.5769999
10.04 13.8965 3.569
10.047501 13.959499 3.5805001
10.042 14.001 3.5710001
10.048 14.062 3.582
10.036 14.148 3.595
10.0535 14.1195 3.5770001
10.051 14.169 3.569
10.061001 14.2345 3.5655
10.057 14.282499 3.573
10.0585 14.3375 3.5825
10.064 14.399 3.5780001
10.07 14.461 3.589
10.079 14.529 3.569
10.071 14.573 3.575
8.8620005 -9.46 3.6199999
8.8590002 -9.4230003 3.6359999
8.9272499 -8.0689993 3.622
8.9276676 -7.9706664 3.6213336
8.9276676 -7.9243336 3.612
8.9279995 -7.8734999 3.6170001
8.9630003 -7.8639998 3.6459999
8.9389992 -7.8243332 3.6166666
8.9379997 -7.7773337 3.6149998
8.9429998 -7.7220001 3.6125
8.9849997 -7.7449999 3.6489999
8.9370003 -7.6760001 3.602
8.958334 -7.6760001 3.6220002
8.9490004 -7.6329999 3.618
8.9709997 -7.6114998 3.6304998
8.9710007 -7.5845003 3.6255
8.9440002 -7.5479999 3.5999999
8.9626675 -7.5283337 3.6159999
8.9615002 -7.4700003 3.6110001
8.9779997 -7.4300003 3.6294999
8.9610004 -7.3759999 3.615
9.0039997 -7.3600001 3.6440001
8.9697495 -7.3257499 3.6124997
8.9775 -7.2744999 3.6209998
8.9710007 -7.2174997 3.608
9.0230007 -7.2329998 3.6459999
8.9779997 -7.184 3.6029999
9.0059996 -7.1810002 3.632
8.993 -7.1315002 3.619
8.9799995 -7.0830002 3.6059999
9.0380001 -6.4755001 3.612
9.0299997 -6.4349999 3.602
9.0880003 -6.428 3.638
9.0539999 -6.3684998 3.6175001
9.0500002 -6.3299999 3.609
9.0769997 -6.2779999 3.628
9.0685005 -6.2364998 3.618
9.0535002 -6.1800003 3.6034999
9.0930004 -6.1370001 3.6275001
9.0745001 -6.079 3.6115
9.0609999 -6.0349998 3.5999999
9.1110001 -6.0219998 3.632
9.0900002 -5.9640002 3.6159999
9.1000004 -5.9920001 3.6240001
9.0809994 -5.9239998 3.6059999
9.132 -5.8559999 3.6289999
9.1099997 -5.8200002 3.6159999
9.1110001 -5.7865 3.6104999
9.099 -5.7449999 3.5999999
9.1366673 -5.6809998 3.6200004
9.1240005 -5.618 3.605
9.1394997 -5.5170002 3.6129999
9.125 -5.4759998 3.6010001
9.1440001 -5.401 3.615
9.1339998 -5.3730001 3.6070001
9.1269999 -5.348 3.5999999
9.1429996 -5.2509999 3.609
9.1660004 -5.2859998 3.622
9.0959997 -5.2030001 3.6070001
9.1339998 -5.2354999 3.6240001
9.0791998 -5.1768003 3.6262002
9.0780001 -5.1263995 3.6211998
9.1009998 -5.1020002 3.632
9.0841675 -5.0756669 3.6225002
9.0865002 -5.0317502 3.62625
9.1170006 -5.0143332 3.6223335
9.177 -5.0194998 3.6315
9.2320004 -5.0279999 3.6389999
9.1890001 -4.9640002 3.6159999
9.1779995 -4.9274998 3.6065001
9.1929998 -4.8010001 3.6099999
9.2010002 -4.8260002 3.6170001
9.1759996 -4.7719998 3.6010001
9.2530003 -4.671 3.6289999
9.1709995 -4.3724999 3.6265001
9.22225 -4.36725 3.6219997
9.2806664 -4.3713331 3.618
9.1932859 -3.3232856 3.6282859
9.1999998 -3.346 3.5999999
9.1977501 -3.2772498 3.6247501
9.2027493 -3.2655001 3.6297498
9.1990004 -3.2280002 3.6234999
9.2066002 -3.2254002 3.6262002
9.1964998 -3.1859999 3.62275
9.21525 -3.16975 3.6225002
9.1925001 -3.1359999 3.6199999
9.2206669 -3.1211667 3.6313331
9.2764006 -3.1227999 3.6228001
9.3155003 -3.1234999 3.6230001
9.3580008 -3.128 3.6286666
9.1969995 -3.092 3.645
9.2530003 -3.0929999 3.6459999
9.3039999 -3.092 3.6440001
9.4752855 1.8335717 3.6312859
9.5200005 1.82675 3.6224999
9.5745001 1.8240001 3.6230001
9.4696674 1.8814443 3.6272223
9.4730005 1.9256667 3.6318336
9.4771671 1.9696667 3.6270003
9.4773331 2.0222223 3.6212223
9.4828005 2.0752001 3.6199996
9.5 2.079 3.615
9.5074997 2.1240001 3.612
9.5489998 3.039 3.6259999
9.5634995 3.0440001 3.6315
9.6240005 3.0444999 3.6224999
9.4846668 3.0916667 3.6293335
9.5346661 3.0713334 3.6246669
9.6459999 4.2870002 3.6129999
9.7110004 4.2849998 3.6224999
9.5922499 4.3327503 3.62325
9.6157494 4.3234997 3.62925
9.5955 4.3739996 3.6199999
9.6060009 4.3790002 3.6235001
9.6730003 5.3109999 3.6489999
9.6739998 5.4229999 3.6459999
9.7130003 5.4660001 3.642
9.6735001 5.5225 3.6405001
9.7119999 5.5110002 3.6489999
9.6700001 5.5655003 3.6459999
9.7360001 5.592 3.648
9.6890001 5.6339998 3.641
9.7159996 5.6149998 3.6455002
9.684001 5.675334 3.6466665
9.7469997 5.6890001 3.645
9.7690001 5.6684999 3.648
9.6700001 5.7119999 3.6489999
9.7183342 5.7176666 3.6416669
9.6946669 5.7730002 3.6440001
9.7390003 5.7989998 3.6389999
9.7709999 5.7723331 3.6436667
9.6826668 5.8269997 3.6426666
9.7185001 5.8214998 3.6370001
9.6940002 5.8775001 3.6395001
9.7860012 5.8736668 3.6423335
9.6876669 5.9246669 3.6383333
9.7089996 5.9219999 3.6289999
9.7530003 5.9130001 3.6395001
9.6700001 5.9679999 3.648
9.7233334 5.9853339 3.6363335
9.7805004 5.9770002 3.6360002
9.6954994 6.0194998 3.6420002
9.7275 6.039 3.632
9.7609997 6.0240002 3.638
9.6809998 6.0689998 3.6459999
9.7150002 6.079 3.6355
9.7950001 6.0815001 3.635
9.6920004 6.1236668 3.6366668
9.7374992 6.1405001 3.6294999
9.7670002 6.1114998 3.6324999
9.6854992 6.1794996 3.6440001
9.7140007 6.1739998 3.6289999
9.8150005 6.1773338 3.6340003
9.7206669 6.2223334 3.6316669
9.7754993 6.2129998 3.6294999
9.6935005 6.2799997 3.6415
9.7202501 6.2614999 3.6290002
9.8115005 6.2839999 3.6285
9.6990004 6.3429999 3.632
9.7273331 6.3299999 3.6296668
9.7736673 6.3196669 3.625
9.6899996 6.3860002 3.6359999
9.7240009 6.3756671 3.6290002
9.7176666 6.4200001 3.635
9.7719994 6.428 3.6205001
9.8144999 6.4064999 3.628
9.698 6.4889998 3.6340001
9.7259998 6.4702506 3.62725
9.7550001 6.4530001 3.6210001
9.7186003 6.5276003 3.6281998
9.7810001 6.5320001 3.618
9.8264999 6.5124998 3.6265001
9.7235003 6.5759997 3.6298332
9.7207499 6.6285 3.631
9.7860003 6.6479998 3.6170001
9.8270016 6.625 3.6236668
9.727499 6.6767502 3.62975
9.7650003 6.6715002 3.6155
9.7360001 6.7313337 3.6339998
9.7510004 6.7249999 3.6210001
9.8266678 6.7263336 3.6183333
9.7262497 6.7720003 3.6347501
9.7740002 6.7790003 3.6140001
9.8109999 6.7659998 3.6210001
9.732666 6.823 3.6263332
9.7670002 6.8130002 3.618
9.8439999 6.8410001 3.619
9.7339993 6.8785 3.6440001
9.77075 6.87925 3.6192503
9.8179998 6.8614998 3.6164999
9.7294998 6.9139996 3.638
9.7616673 6.9196672 3.6203334
9.7366667 6.9700003 3.6383333
9.7595005 6.973 3.6215
9.8290005 6.9714999 3.6155
9.7350006 7.0205002 3.6295002
9.7723341 7.0213332 3.6106668
9.8170004 7.0019999 3.618
9.7264996 7.0799999 3.6325002
9.7579994 7.0764999 3.6164999
9.842 7.0845003 3.6155
9.7370005 7.1353335 3.6373334
9.7736664 7.1186666 3.6126666
9.8109999 7.1020002 3.6110001
9.7344999 7.1634998 3.6259999
9.7676668 7.175333 3.6133335
9.7420006 7.2214999 3.6385
9.7680006 7.2405005 3.6135001
9.8110008 7.2205 3.6085
9.8509998 7.211 3.6170001
9.7404995 7.2740002 3.6360002
9.7625008 7.2764997 3.618
9.8660002 7.2989998 3.612
9.7379999 7.3255 3.6335001
9.7679996 7.3214998 3.6159999
9.8205004 7.3330002 3.6075001
9.8500004 7.3150001 3.6110001
9.7395 7.381 3.6434999
9.7697496 7.3632498 3.6127501
9.7309999 7.4159999 3.648
9.7656002 7.4200006 3.6192002
9.8414993 7.4309998 3.6065001
9.8640003 7.4070001 3.608
9.7469997 7.4819999 3.6400001
9.7727995 7.4746003 3.6170003
9.823 7.4580002 3.6070001
9.7410002 7.5050001 3.6429999
9.7712498 7.5275002 3.619
9.8605003 7.5275002 3.605
9.7399998 7.586 3.6340001
9.7632504 7.5762501 3.62025
9.8135004 7.5734997 3.602
9.7460003 7.618 3.641
9.7719994 7.6290007 3.6100001
9.8780003 7.6370001 3.605
9.7625008 7.6725001 3.6195002
9.7701998 7.7258005 3.6238
9.7605 7.776 3.62625
9.8850002 7.7540002 3.6029999
9.7630005 7.8173332 3.6186666
9.7650013 7.8723998 3.6256001
9.8719997 7.8850002 3.5999999
9.7662497 7.927 3.6192501
9.7703342 7.9819999 3.6260002
9.7705002 8.0152502 3.6182499
9.7770004 8.0777502 3.6252501
9.7823334 8.1350002 3.6326666
9.7807503 8.1830006 3.6152501
9.7796669 8.2296677 3.6333332
9.7860003 8.2670002 3.61975
9.7825003 8.3157501 3.6217501
9.7893333 8.3760004 3.6223335
9.7923336 8.4183331 3.6226668
9.7930002 8.474 3.6287498
9.7989998 8.5249996 3.615
9.8079996 8.5019999 3.6010001
9.7973337 8.5733328 3.6193333
9.8079996 8.5629997 3.6359999
9.7969999 8.6440001 3.5999999
9.8033333 8.6293335 3.6306667
9.8029995 8.6795006 3.6199999
9.7939997 8.7030001 3.6099999
9.8079996 8.7305002 3.6424999
9.8096676 8.7670002 3.6330001
9.8140001 8.8280001 3.6247499
9.8169994 8.8774996 3.6339998
9.8210001 8.9267502 3.6192501
9.8164997 8.9694996 3.6259999
9.8260002 9.0244999 3.6259999
9.8240004 9.0803337 3.6190002
9.8280001 9.1049995 3.641
9.9759998 12.033 3.6110001
9.9659996 12.107 3.6229999
9.9665003 12.1525 3.6164999
9.9697504 12.221499 3.6294999
9.9639997 12.279 3.6240001
9.9720001 12.3335 3.6205001
9.9759998 12.381001 3.6294999
9.9860001 12.44 3.6270001
9.9855003 12.483 3.6194999
9.9870005 12.53 3.6429999
9.9820004 12.568501 3.6339998
10.003 12.55 3.619
9.9860001 12.621 3.5999999
10.001 12.639 3.635
9.993 12.674 3.625
9.9899998 12.717 3.618
9.9980001 12.772 3.628
9.9945002 12.8125 3.6199999
9.9989996 12.864 3.645
10.005 12.873 3.6170001
10.001 12.914 3.6240001
9.993 12.95 3.6289999
10 12.958 3.602
10.004999 13.011999 3.6265001
10.002501 13.056 3.6339998
10.006001 13.1085 3.6135001
10.0085 13.1605 3.6229999
10.004 13.2035 3.6294999
10.015 13.266 3.6270001
10.0165 13.3165 3.6210001
10.024 13.3745 3.6315
10.019 13.416 3.6229999
10.026 13.475 3.619
10.0255 13.5235 3.6275001
10.028 13.576 3.6210001
10.025 13.621 3.6289999
10.035 13.6845 3.6255
10.032 13.733 3.618
10.0395 13.7935 3.6139998
10.0365 13.8415 3.622
10.039 13.9215 3.6199999
10.0445 14.005 3.619
10.054001 14.070499 3.632
10.049 14.114 3.6229999
10.049 14.167 3.632
10.057 14.229 3.612
10.049 14.271 3.618
10.074 14.36 3.6359999
10.069 14.406 3.6110001
10.072 14.464 3.6210001
10.084 14.565001 3.608
8.9116669 -8.7653341 3.6716669
8.9540005 -8.7559996 3.6860001
8.9700003 -8.7410002 3.687
8.9469995 -8.6890001 3.671
8.9250002 -8.6370001 3.6559999
8.9180002 -8.5109997 3.652
8.9884996 -8.0670004 3.6694999
8.9812498 -8.0249996 3.6824999
9.0179996 -8.0220003 3.6900001
9.0109997 -7.9330001 3.6700001
9.0100002 -7.3909998 3.652
9.0822506 -5.2209997 3.6725001
9.1040001 -5.25 3.6789999
9.0786657 -5.1724448 3.6784444
9.0813341 -5.1221666 3.6708333
9.0846663 -5.0723338 3.6733332
9.1239996 -5.052 3.6919999
9.2440004 -5.0560002 3.6889999
9.1230001 -5.0415001 3.6695001
9.158 -5.0300002 3.658
9.109334 -4.3626666 3.675
9.1693335 -4.3716669 3.6756668
9.2172499 -4.36975 3.671
9.2733335 -4.3676667 3.6756666
9.1960001 -3.3306 3.6666
9.2010002 -3.3195 3.6945
9.1953335 -3.2779999 3.6736667
9.2010002 -3.27425 3.674
9.1975002 -3.227 3.6620002
9.2052498 -3.2159998 3.678
9.1923332 -3.1800003 3.6929998
9.2070007 -3.1706002 3.6700001
9.2071428 -3.1315715 3.6758571
9.1949997 -3.0739999 3.681
9.2230005 -3.0740001 3.6764998
9.2813339 -3.0786667 3.6673336
9.3311996 -3.0686002 3.675
9.4682007 1.7880001 3.6812
9.5205002 1.7787501 3.6772499
9.5656672 1.7780001 3.6746669
9.4661245 1.827125 3.6772499
9.5089998 1.802 3.655
9.4706669 1.8818333 3.6756666
9.4770002 1.9265001 3.6812499
9.4790001 1.9680001 3.67325
9.4821663 2.0203335 3.6778336
9.5019999 2.0280001 3.6689999
9.4960003 2.0610001 3.651
9.5165005 2.0745001 3.6690001
9.5650005 3.0444999 3.6820002
9.6263332 3.0456667 3.6733336
9.4869995 3.092 3.6799998
9.5360012 3.0718334 3.6746671
9.5629997 3.6040001 3.698
9.6709995 3.645 3.6989999
9.5880003 3.6900001 3.697
9.6490002 3.6949999 3.698
9.6595001 3.6694999 3.6984999
9.5683336 3.7210002 3.6946666
9.6304998 3.7354999 3.697
9.6914997 3.73 3.6964998
9.5749998 3.7720001 3.6935
9.6130009 3.7674999 3.6960001
9.6719999 3.7806668 3.6966667
9.5793333 3.8223333 3.6913335
9.6440001 3.848 3.6960001
9.6569996 3.8239999 3.6975
9.5679998 3.8664999 3.6939998
9.6120005 3.8746669 3.6889999
9.684 3.8740001 3.6925001
9.71 3.855 3.698
9.5793333 3.9203336 3.6843333
9.6683331 3.9169998 3.6926668
9.5736675 3.977 3.6903334
9.6343336 3.9819999 3.6903334
9.6740007 3.9723334 3.6880002
9.7030001 3.971 3.691
9.5810003 4.02 3.678
9.625 4.0279999 3.6835001
9.6725006 4.0279999 3.6884999
9.5853338 4.0810003 3.6880002
9.6262493 4.07375 3.6850002
9.5970001 4.1355 3.6894999
9.6090002 4.1204996 3.6805
9.6833344 4.1226668 3.6843333
9.5930004 4.1830001 3.684
9.6040001 4.1680002 3.6860001
9.6616669 4.1733332 3.6846666
9.593668 4.2230005 3.6900001
9.635334 4.2220001 3.6826668
9.6890001 4.2449999 3.6830001
9.7054996 4.2224998 3.6849999
9.5955 4.2644997 3.6859999
9.618 4.2744999 3.6845
9.6730003 4.2786665 3.6823335
9.5944996 4.3339996 3.6754999
9.6099997 4.3109999 3.687
9.6593342 4.3263335 3.6776667
9.7163334 4.3180003 3.6806667
9.5970001 4.3649998 3.6500001
9.6549997 4.3509998 3.687
9.6379995 5.27 3.654
9.6850004 5.296 3.6500001
9.7060003 5.2859998 3.655
9.6440001 5.3179998 3.6630001
9.6572857 5.3281431 3.6714287
9.7379999 5.3470001 3.652
9.7676678 5.3186669 3.6560001
9.6599998 5.382 3.6778336
9.7173338 5.3806667 3.6516666
9.6704016 5.4294004 3.6629999
9.6490002 5.4970002 3.6930001
9.6636677 5.4718332 3.6719999
9.7279997 5.4970002 3.652
9.7600002 5.46 3.6545
9.6570005 5.5243335 3.668
9.7845001 5.5404997 3.6529999
9.6634998 5.5844998 3.6800001
9.7620001 5.573 3.652
9.6635714 5.6250005 3.6724286
9.79 5.6459999 3.6500001
9.6765003 5.6819997 3.6782498
9.6679993 5.7246003 3.6760004
9.6690006 5.7667999 3.675
9.6672497 5.8145003 3.67625
9.673667 5.8650007 3.6753335
9.6785994 5.9222007 3.6734002
9.6854992 5.9659996 3.6792502
9.6818342 6.0223341 3.6715
9.6821995 6.0843997 3.6756001
9.7049999 6.0599999 3.651
9.6848001 6.1286001 3.675
9.6900005 6.1790004 3.6819999
9.6855001 6.2154999 3.6615
9.7014999 6.2259998 3.6784999
9.69275 6.2797503 3.6745
9.7019997 6.25 3.661
9.6929998 6.3298001 3.6763999
9.7110004 6.3270001 3.654
9.6922503 6.369 3.67325
9.7010002 6.3920002 3.6849999
9.6966667 6.4306669 3.6836669
9.7060003 6.4324999 3.6599998
9.6990004 6.4650002 3.6530001
9.7045002 6.4809999 3.67925
9.698 6.5380001 3.688
9.7090006 6.5290003 3.6739998
9.710001 6.5862002 3.6812
9.7055006 6.6307502 3.6725001
9.7130003 6.6886001 3.6777999
9.7162504 6.7327499 3.67625
9.7166672 6.7696667 3.6809998
9.7223997 6.8178 3.6713998
9.7202501 6.8692503 3.67325
9.7257996 6.9266 3.6777999
9.7237997 6.9714007 3.6761997
9.724 7.0284004 3.6728001
9.7319994 7.0842495 3.6687498
9.7340002 7.1333332 3.6743333
9.7312002 7.1746001 3.6734002
9.7376671 7.2223334 3.6760001
9.7347507 7.2697501 3.6742501
9.7510004 7.2950001 3.677
9.7404995 7.32725 3.66875
9.7400007 7.3814998 3.6782498
9.7329998 7.4175 3.6834998
9.7449999 7.4530001 3.681
9.751667 7.4763336 3.6713333
9.743 7.5150003 3.684
9.7579994 7.5445004 3.6659999
9.7443333 7.5796671 3.672667
9.7539997 7.5689998 3.658
9.751667 7.6313338 3.6763332
9.7469997 7.6739998 3.6869998
9.7566671 7.6633334 3.6669998
9.7560005 7.7227502 3.674
9.7419996 7.7540002 3.665
9.7509995 7.7755003 3.671
9.7577496 7.8222494 3.6695001
9.7606659 7.8703337 3.6830001
9.7598009 7.9192004 3.6711998
9.7682495 7.98525 3.678
9.767333 8.0270004 3.6733336
9.7682495 8.0707493 3.6697502
9.7726669 8.1276674 3.6773334
9.7793341 8.1723328 3.6630001
9.7802505 8.2255001 3.677
9.7819996 8.2709999 3.6859999
9.7827501 8.3157501 3.6702499
9.783 8.3754997 3.6812501
9.7954998 8.4305 3.6700001
9.802 8.4069996 3.655
9.7887497 8.4707499 3.6760001
9.7870007 8.5240002 3.6650004
9.79 8.5780001 3.6600001
9.8035002 8.5740004 3.674
9.7919998 8.6389999 3.6960001
9.8039999 8.6199999 3.6824999
9.7980003 8.6759996 3.655
9.809 8.6653328 3.6716669
9.7929993 8.717 3.6737499
9.7959995 8.7959995 3.677
9.8120003 8.7790003 3.677
9.8085003 8.823 3.6599998
9.8122501 8.8730001 3.6820002
9.8120003 8.9239998 3.6626668
9.809001 8.9726677 3.6793334
9.8199997 9.024334 3.6663337
9.8185005 9.0802498 3.67225
9.9650002 12.106 3.651
9.9639997 12.15 3.6589999
9.9705 12.2225 3.6730001
9.9805002 12.3215 3.6777501
9.9870005 12.396 3.677
9.9820004 12.434999 3.6690001
9.9850006 12.4825 3.678
9.9860001 12.529 3.6719999
9.9940004 12.584 3.6830001
9.9950008 12.631001 3.677
9.9960003 12.678 3.671
9.9984999 12.7265 3.6645
9.9969997 12.77 3.658
9.9960003 12.815 3.665
10.023 12.804 3.697
10.001 12.867 3.675
9.9969997 12.909 3.652
10.028 12.949 3.694
9.9980001 12.956 3.661
10.002 13.008 3.671
10.011 13.067 3.6819999
10.0075 13.1095 3.674
10.0035 13.1545 3.6815
10.004 13.204 3.675
10.008499 13.257 3.6700001
10.021 13.322 3.668
10.022 13.42 3.655
10.016 13.461 3.661
10.036 13.587 3.655
10.05 13.656 3.6689999
10.042 13.747 3.6530001
10.033 13.784 3.658
10.048 13.908 3.6500001
10.06 13.976 3.6630001
10.096 14.18 3.671
10.094 14.229 3.6800001
10.0765 14.257 3.6665001
10.077499 14.3125 3.6760001
10.084 14.374 3.6719999
10.088 14.434 3.6665001
10.045 14.481 3.6530001
10.075 14.468 3.6705
10.038 14.526 3.6919999
10.062 14.506 3.691
8.9322491 -8.7342501 3.71275
8.9790001 -8.7345009 3.711
9.0159998 -8.7250004 3.717
9.059 -8.7210007 3.7249999
8.9350004 -8.6759996 3.737
8.9700003 -8.6743994 3.7296002
9.0349998 -8.6674995 3.733
9.0679998 -8.6689997 3.7284999
8.915 -8.3745003 3.7280002
9.1000004 -8.0679998 3.7179999
9.0149994 -8.0059996 3.7095001
9.0699997 -8.0139999 3.723
8.9790001 -7.9703331 3.7243335
9.0319996 -7.9654999 3.7280002
8.9949999 -7.947 3.7390001
9.0170002 -7.9380002 3.7420001
9.0900002 -5.2624998 3.7284999
9.0750008 -5.2268577 3.7308574
9.0725002 -5.1794996 3.7289999
9.0848331 -5.0828338 3.7258337
9.1219997 -5.072 3.7249999
9.1725006 -5.0690002 3.7205
9.2180004 -5.0630002 3.7019999
9.1099997 -4.3629999 3.7149999
9.1814995 -4.3672504 3.7242501
9.2322502 -4.3667498 3.7210002
9.2810001 -4.3646669 3.7316666
9.25 -3.365 3.717
9.2255001 -3.3195 3.7319999
9.25 -3.346 3.7349999
9.1975002 -3.2820001 3.737
9.2066669 -3.2700002 3.7226667
9.1949997 -3.2349999 3.74
9.205286 -3.2208571 3.7222862
9.1969995 -3.1630001 3.7320001
9.2119999 -3.1803336 3.7259998
9.1949997 -3.1275001 3.7360001
9.2097998 -3.1285999 3.7202001
9.210125 -3.0764999 3.723
9.309 -3.0580001 3.701
9.215251 -3.0293751 3.7241249
9.2713995 -3.0239999 3.7183998
9.3258009 -3.0234001 3.7182
9.2360001 -2.9979999 3.7449999
9.2790003 -2.994 3.7409999
9.3360004 -2.994 3.7420001
9.375 -0.090999998 3.7479999
9.4720001 0.035999998 3.7479999
9.5200005 0.0080000004 3.7479999
9.5200005 0.068000004 3.7479999
9.4209995 0.182 3.7479999
9.4239998 0.21600001 3.7490001
9.4689999 0.21699999 3.7479999
9.4180002 0.28200001 3.747
9.467 0.26699999 3.747
9.5159998 0.285 3.7479999
9.4209995 0.315 3.7490001
9.4589996 0.38299999 3.7460001
9.5275002 0.38550001 3.744
9.4169998 0.43099999 3.7490001
9.4630003 0.42449999 3.7480001
9.5089998 0.41000003 3.747
9.4565001 0.47350001 3.7465
9.5480003 0.47 3.744
9.408 0.528 3.7479999
9.474 0.52349997 3.7449999
9.5050001 0.53299999 3.7479999
9.4759998 0.57350004 3.747
9.5296669 0.57933331 3.7456665
9.4424992 0.63800001 3.7449999
9.4797497 0.62774998 3.7449999
9.5436668 0.6196667 3.7460001
9.4440002 0.67933333 3.7466667
9.4904995 0.69099998 3.7460001
9.5257502 0.66824996 3.7449999
9.4373341 0.72900003 3.7453334
9.4840002 0.73233336 3.7446668
9.5226669 0.71866667 3.7403333
9.434 0.77866668 3.7456665
9.4834995 0.77450001 3.7460001
9.5296669 0.76966667 3.7446666
9.4295006 0.829 3.7455001
9.4736671 0.83266664 3.7440002
9.5213337 0.82000005 3.743
9.4230003 0.88599998 3.7449999
9.4650002 0.88166666 3.7423334
9.5226669 0.87033337 3.7453334
9.5683336 0.87433332 3.7440002
9.4659996 0.93233335 3.7446668
9.5174999 0.92449999 3.7405
9.5703335 0.92533338 3.7400002
9.4490004 0.99699998 3.74
9.4760008 0.97766674 3.7436666
9.5262499 0.97175002 3.7409999
9.4699993 1.03275 3.7455001
9.5240002 1.0220001 3.7453334
9.5665007 1.02625 3.7395
9.4445 1.0795 3.7420001
9.4832506 1.0717499 3.7425003
9.5340004 1.073 3.7385001
9.5756674 1.072 3.7416668
9.4355001 1.12 3.7405
9.4866667 1.1176667 3.7413335
9.5310001 1.1226667 3.7396667
9.578001 1.1283333 3.7386665
9.4440002 1.163 3.7460001
9.4883337 1.1686667 3.7443333
9.5303335 1.174 3.7416668
9.5640001 1.1780001 3.7356668
9.441 1.214 3.747
9.4726667 1.2180001 3.7410002
9.5244999 1.22875 3.7372501
9.5580006 1.2205 3.7349999
9.4730005 1.2686666 3.7433333
9.5209999 1.27475 3.7384999
9.5789995 1.2724 3.7346001
9.4804001 1.3205999 3.7416
9.5387497 1.3287499 3.73825
9.5873337 1.3180001 3.7323332
9.479001 1.3711667 3.7416668
9.5310001 1.3786668 3.7333333
9.5799999 1.3690002 3.7323332
9.4469995 1.401 3.74
9.4764013 1.4256001 3.7420003
9.527667 1.4296668 3.7346668
9.5766668 1.4200001 3.7336669
9.4667997 1.4712 3.7408001
9.5220013 1.4793333 3.7356668
9.566 1.4693334 3.7326667
9.475666 1.5230001 3.7396667
9.5219994 1.53025 3.734
9.5784998 1.5222499 3.7307498
9.4787502 1.5782499 3.7395
9.5220003 1.5643333 3.7343335
9.5679998 1.5716667 3.7329998
9.475668 1.6246667 3.7366667
9.5394993 1.6094999 3.7315001
9.5780001 1.6295002 3.7322497
9.4797497 1.67625 3.7367501
9.5343342 1.6686667 3.7329998
9.5723333 1.6756667 3.7283335
9.4754 1.7270001 3.7337997
9.5282507 1.7237499 3.7297499
9.5703335 1.7273334 3.7246666
9.4760008 1.7765715 3.7234287
9.5244999 1.7535 3.7059999
9.4715004 1.8306668 3.7266669
9.4689999 1.8731251 3.7202501
9.4730015 1.9194285 3.7275717
9.4871435 1.9742858 3.7234287
9.4872007 2.0209999 3.7292001
9.5045004 2.0370002 3.7295001
9.4949999 2.0780001 3.7390001
9.5316658 2.0746667 3.7293334
9.5675001 2.0679998 3.7259998
9.4885006 2.1114998 3.7390001
9.526 2.1313334 3.7320001
9.5803337 2.1143334 3.7316666
9.6212502 2.12325 3.7259998
9.4969997 2.1739998 3.7379999
9.5159998 2.1655002 3.7297499
9.5742493 2.1742501 3.7277498
9.6173334 2.1753335 3.724
9.4969997 2.2179999 3.7420001
9.5132008 2.2222002 3.7363999
9.5749998 2.2272499 3.7227502
9.6189995 2.22 3.7184999
9.4890003 2.2785001 3.744
9.5148001 2.2758 3.734
9.5740004 2.2756002 3.7284
9.6345005 2.2684999 3.7235
9.4919996 2.323 3.73
9.5224009 2.3304002 3.7298
9.5876675 2.3286667 3.7263334
9.637001 2.323 3.7243333
9.493 2.3940001 3.737
9.5147495 2.37325 3.7327502
9.5756674 2.3793333 3.7266669
9.6153336 2.3713334 3.7206669
9.4980001 2.431 3.7420001
9.5112505 2.41675 3.7309999
9.5616674 2.429667 3.7260003
9.6150007 2.4253335 3.7253337
9.4919996 2.483 3.7449999
9.513834 2.4713333 3.7351665
9.573 2.4689999 3.724
9.6277504 2.46925 3.7244999
9.5191669 2.5261667 3.7294998
9.5802498 2.52 3.7267499
9.642333 2.5223331 3.7246666
9.5172005 2.5751998 3.7353997
9.5793343 2.5776668 3.727
9.6243343 2.572 3.7226667
9.4969997 2.6259999 3.7409999
9.520999 2.6224 3.7376001
9.567667 2.628 3.7280002
9.6149998 2.6233335 3.7243335
9.5295 2.67625 3.7335
9.573 2.678 3.7280002
9.6193342 2.6723335 3.7243333
9.5354004 2.7233999 3.7376001
9.5716667 2.7370002 3.727
9.6300001 2.7179999 3.7263334
9.5290003 2.7694998 3.7380002
9.5760002 2.7743335 3.7256668
9.6306677 2.7720001 3.7256668
9.5333328 2.816 3.7343335
9.5636673 2.8250003 3.7266669
9.6265001 2.8297498 3.72475
9.6585007 2.8255 3.721
9.5405989 2.8764 3.7358003
9.5690002 2.8629999 3.733
9.6242008 2.8755999 3.7258003
9.5375004 2.92225 3.7325001
9.5896673 2.9243333 3.727
9.6386662 2.9206667 3.724
9.5310001 2.9702501 3.7407501
9.5749998 2.9746666 3.727
9.6306667 2.9736669 3.727
9.6663332 2.9666667 3.7186668
9.5440006 3.0196667 3.7409999
9.5719995 3.0320001 3.7244
9.6125002 3.0139999 3.7244999
9.6700001 3.0270002 3.7214999
9.5373344 3.0723333 3.7245555
9.6450005 3.0510001 3.72
9.4750004 3.1070001 3.707
9.5283337 3.1116667 3.7393336
9.5640001 3.4751999 3.7104001
9.6356678 3.4783332 3.7070003
9.5469999 3.5309999 3.7234998
9.5557146 3.522429 3.7255716
9.6119995 3.5270002 3.7049999
9.6733341 3.5303333 3.7056665
9.5430002 3.5653334 3.7130001
9.5807495 3.5775001 3.7107501
9.6370001 3.5940001 3.7019999
9.6693344 3.5799999 3.704
9.5489998 3.618 3.7349999
9.5634289 3.6264288 3.7214286
9.6246672 3.6276665 3.7016666
9.5588579 3.6735716 3.7257142
9.6075001 3.6690001 3.701
9.5633993 3.723 3.7216001
9.6590004 3.7179999 3.704
9.5638332 3.7741668 3.7206666
9.5698338 3.8188334 3.7250001
9.5746002 3.875 3.7293999
9.5753756 3.921 3.7212501
9.5754004 3.9737999 3.7189999
9.5839996 4.0267143 3.7238574
9.5860004 4.0815001 3.7186668
9.5908003 4.1346002 3.7220001
9.5909996 4.1725001 3.72825
9.6044998 4.178 3.7179999
9.5940008 4.2232862 3.7255714
9.5885 4.2715001 3.7365
9.6016674 4.2803335 3.7146668
9.6070004 4.3163338 3.7146668
9.6540003 5.3460002 3.7130001
9.6525002 5.3774996 3.72875
9.6485004 5.4189997 3.734
9.6540003 5.4225001 3.7150002
9.6475 5.4630003 3.7195001
9.6634998 5.4720001 3.7255001
9.6624289 5.5272861 3.7301431
9.6645002 5.5737505 3.7212501
9.6677999 5.6256003 3.7287998
9.6634998 5.6745 3.7165
9.6674995 5.72225 3.72575
9.6682005 5.7711997 3.7276001
9.6677494 5.8147497 3.7194998
9.6706657 5.8751669 3.7233334
9.6735001 5.9239998 3.7179999
9.6833334 5.9763336 3.7224998
9.6794004 6.026 3.7217999
9.6842499 6.08325 3.7265
9.6862507 6.1325002 3.7245002
9.6832504 6.1785002 3.7207501
9.6938009 6.2353997 3.727
9.7010002 6.2249999 3.7
9.6917496 6.2790003 3.7237501
9.7069998 6.277 3.733
9.6919994 6.3269997 3.7379999
9.7005005 6.3319998 3.7189999
9.6915998 6.3772006 3.7292001
9.6899996 6.4349999 3.734
9.7086668 6.4300003 3.7236669
9.6960001 6.471334 3.7276669
9.7010002 6.4910002 3.7030001
9.6945 6.5235 3.7179999
9.6999998 6.5275002 3.72
9.7075005 6.5819998 3.7315001
9.6984997 6.6134996 3.7235
9.7016668 6.6323333 3.7203336
9.7059994 6.6812501 3.7262502
9.7014999 6.7290001 3.734
9.7150002 6.7716002 3.7202001
9.7142 6.8272004 3.7298
9.7172499 6.86725 3.7172499
9.717 6.9180002 3.7265
9.7207499 6.9717503 3.72575
9.7272501 7.0282502 3.7264998
9.724 7.0784998 3.71175
9.7200003 7.123333 3.7150002
9.7399998 7.1810002 3.7344999
9.7519999 7.164 3.7460001
9.7384996 7.2190003 3.7180002
9.734499 7.2694998 3.7259998
9.7383337 7.3258338 3.7256668
9.7369995 7.3794999 3.724
9.743 7.4250002 3.7219999
9.7375002 7.4612498 3.7215002
9.75 7.4569998 3.73
9.7462502 7.5222502 3.7290001
9.7422504 7.5740004 3.72575
9.7539997 7.5689998 3.704
9.7390003 7.6265001 3.7115002
9.7559996 7.6259999 3.7390001
9.7420006 7.6695004 3.7315001
9.7519999 7.651 3.743
9.7449999 7.7010002 3.7030001
9.7610006 7.7313337 3.7283335
9.7480001 7.7589998 3.7379999
9.757 7.7840004 3.7213333
9.7410002 7.8183336 3.724
9.7624998 7.8120003 3.7280002
9.7609997 7.8709998 3.7226665
9.7595997 7.9248004 3.7292001
9.7642498 7.9822502 3.7242501
9.7633333 8.0326672 3.7373333
9.7667503 8.0695 3.7175
9.7714996 8.1315002 3.73
9.7786674 8.1720009 3.711
9.7714996 8.2185001 3.72225
9.7768002 8.2841997 3.7284
9.7726669 8.3316669 3.7233334
9.7803335 8.3783331 3.7259998
9.7853336 8.432333 3.7130001
9.7840004 8.4720001 3.7283332
9.7891998 8.5289993 3.7190003
9.7910004 8.5785007 3.721
9.7919998 8.6296673 3.7266669
9.802 8.618 3.743
9.7906666 8.6789999 3.7276669
9.8050003 8.6820002 3.7320001
9.7930002 8.7320004 3.714
9.8039999 8.7264996 3.727
9.8066664 8.774334 3.7243333
9.8082504 8.823 3.7214999
9.8094997 8.8710003 3.7309999
9.8120003 8.9190006 3.7155001
9.9225006 11.285999 3.7344999
9.9420004 11.327 3.7320001
9.9980001 12.409 3.711
9.9969997 12.543 3.7060001
10.008 12.694 3.7049999
10.024667 12.928668 3.7393336
10.063999 12.9255 3.7245002
9.9989996 12.958 3.721
10.022 12.987 3.7
10.011 13.021 3.7190001
9.9939995 13.069 3.7405
10.004 13.059 3.71
10.003 13.104 3.7179999
10.008 13.16 3.7290001
10.0035 13.2015 3.7199998
10.024 13.278 3.7219999
10.139 14.191 3.7420001
10.174 14.185 3.7449999
10.082001 14.2125 3.7224998
10.125668 14.205 3.7216668
10.188 14.205 3.7190001
10.0735 14.253 3.7290001
10.074 14.306 3.7219999
10.0765 14.363501 3.717
10.063 14.416334 3.7296667
10.0715 14.4915 3.7220001
8.9344997 -8.6610003 3.7575002
8.9709997 -8.6520004 3.763
9.0244999 -8.658 3.7525001
9.0690002 -8.6549997 3.7609999
8.9260006 -8.6276665 3.7876668
8.9776001 -8.6276007 3.7830002
9.0240002 -8.6269999 3.7809999
9.0715008 -8.6345005 3.7815001
9.1059999 -8.6300001 3.7880001
8.9780006 -7.9175 3.7515001
9.0319996 -7.9099998 3.7625
9.0570002 -7.9460001 3.753
8.9767494 -7.8752499 3.7765
9.0324993 -7.8825002 3.7795
9.0100002 -7.849 3.79
9.0889997 -5.3039999 3.7869999
9.1199999 -5.3010001 3.7550001
9.0733995 -5.2653999 3.7798002
9.0744991 -5.22225 3.7785001
9.1800003 -5.105 3.78
9.0930004 -5.098 3.7720001
9.1350002 -5.0999999 3.786
9.224 -5.0970001 3.7620001
9.1293335 -4.3586669 3.7676666
9.1805 -4.3614998 3.7732501
9.2376671 -4.3643336 3.7776668
9.2705002 -4.3594999 3.7779999
9.191 -4.3319998 3.7969999
9.2469997 -3.309 3.7679999
9.2250004 -3.273 3.7750001
9.210001 -3.2223334 3.7730002
9.1975002 -3.1904998 3.7934999
9.210001 -3.175 3.7726002
9.1960001 -3.1270001 3.7650001
9.2078581 -3.1341431 3.7734287
9.1965008 -3.0745001 3.7785001
9.2106009 -3.0826001 3.7653999
9.2092228 -3.0252221 3.7771111
9.1964998 -2.9765 3.7765
9.2181997 -2.9708002 3.7700002
9.2702503 -2.9735 3.7645001
9.323801 -2.9690001 3.7700002
9.2309999 -2.9430001 3.7950001
9.2620001 -2.9445 3.7869999
9.2939997 -2.21 3.799
9.2690001 -2.0840001 3.7980001
9.323 -2.0780001 3.799
9.2875004 -2.0190001 3.799
9.3269997 -2.027 3.796
9.2915001 -1.9685 3.7969999
9.3385 -1.979 3.7965002
9.382 -1.988 3.7950001
9.2950001 -1.9193333 3.7940001
9.3443336 -1.9296668 3.7946668
9.3879995 -1.939 3.793
9.2959995 -1.869 3.79
9.3255005 -1.87525 3.793
9.3614998 -1.8659999 3.796
9.4055004 -1.8745 3.7944999
9.3083334 -1.8216667 3.7913337
9.3565006 -1.8225 3.7915001
9.4069996 -1.824 3.7915001
9.3163338 -1.7723334 3.7913332
9.3656673 -1.7816668 3.7916667
9.4219999 -1.7753333 3.7940001
9.3620005 -1.747 3.7880001
9.335 -1.357 3.79
9.3620005 -1.36 3.7820001
9.4256668 -1.3643335 3.7816668
9.4589996 -1.358 3.7809999
9.3277502 -1.32275 3.7897501
9.3596668 -1.3273333 3.778667
9.4176674 -1.319 3.7820003
9.4650002 -1.3253334 3.7820001
9.3241673 -1.273 3.7901669
9.3787498 -1.2804999 3.779
9.4189997 -1.2605 3.7795
9.3298006 -1.2238001 3.7876
9.3696671 -1.2290001 3.7773333
9.4200001 -1.2190001 3.7776668
9.4643335 -1.2246666 3.7763333
9.3324003 -1.1736001 3.7862
9.3710003 -1.1786666 3.7753334
9.4230003 -1.168 3.7766666
9.4690008 -1.174 3.7756667
9.3353338 -1.1241667 3.7868335
9.3743343 -1.1286666 3.7739999
9.4249992 -1.1265 3.7750001
9.4700003 -1.1233333 3.7736669
9.3391676 -1.0745001 3.7861667
9.3733339 -1.0783334 3.7713335
9.4126663 -1.0826666 3.7680001
9.4753332 -1.073 3.7733333
9.3339996 -1.028 3.7867501
9.3702002 -1.0246 3.7751999
9.4230003 -1.02575 3.7697499
9.3392506 -0.97899997 3.7819998
9.3702497 -0.97849995 3.7707498
9.4316673 -0.96866673 3.7706668
9.3479996 -0.91100001 3.773
9.3638754 -0.93099999 3.780375
9.4326668 -0.91966665 3.7693336
9.3479996 -0.87900001 3.7909999
9.3651428 -0.8828572 3.7791431
9.4272499 -0.86975002 3.7697499
9.4763336 -0.87433332 3.7656667
9.3446674 -0.82933331 3.7880001
9.3663998 -0.8344 3.7700002
9.4292507 -0.81949997 3.76875
9.4853334 -0.82433337 3.7673335
9.3409996 -0.76099998 3.7839999
9.3673744 -0.78249997 3.7741251
9.4406662 -0.76999998 3.767
9.4880009 -0.77333331 3.7666669
9.3470001 -0.74599999 3.786
9.3654289 -0.73042858 3.7738574
9.4282503 -0.71899998 3.7652502
9.4920006 -0.72366667 3.7666664
9.3702497 -0.67900002 3.7766247
9.4260006 -0.68499994 3.7650001
9.4807501 -0.66799998 3.7654998
9.349 -0.64600003 3.7839999
9.375124 -0.62924999 3.7725
9.4460001 -0.60299999 3.7639999
9.4748011 -0.62459999 3.7652001
9.3692503 -0.583 3.7736251
9.4305 -0.56800002 3.7620001
9.4840002 -0.57949996 3.76
9.5019999 -0.55500001 3.766
9.3590012 -0.53100008 3.7755001
9.4168005 -0.53100002 3.7624002
9.4787502 -0.51750004 3.7609999
9.3754549 -0.47600001 3.7732725
9.4316664 -0.46466669 3.7620001
9.4780006 -0.48300001 3.7616668
9.5019999 -0.45699999 3.7639999
9.3763752 -0.42124999 3.7732501
9.4276676 -0.41600001 3.7596664
9.4835005 -0.42424998 3.76125
9.3788576 -0.37257144 3.7764287
9.4153337 -0.37166667 3.7603335
9.4737492 -0.37400001 3.7609999
9.3479996 -0.32100001 3.777
9.3753338 -0.31900001 3.7718332
9.4249992 -0.32325 3.7600002
9.4820004 -0.33633333 3.7606666
9.3787146 -0.27485716 3.7747145
9.4274006 -0.27079999 3.7586002
9.4949999 -0.27599999 3.7590001
9.3847504 -0.221 3.7736249
9.4284992 -0.23199999 3.7605
9.4697495 -0.22499999 3.7579999
9.3866253 -0.175375 3.7741251
9.4295006 -0.16975001 3.7555001
9.4830008 -0.175 3.753
9.3852501 -0.125875 3.7729998
9.4200001 -0.108 3.756
9.4746008 -0.1284 3.7572002
9.387125 -0.072624996 3.7737498
9.4370003 -0.075333342 3.753
9.4960003 -0.075666666 3.7576666
9.3872004 -0.020299999 3.7750001
9.4295006 -0.0265 3.7565
9.4890003 -0.02275 3.75475
9.526 -0.023000002 3.7502499
9.3885288 0.01682353 3.7718236
9.4331427 0.018000001 3.7568576
9.4903336 0.015333332 3.7550001
9.5241432 0.016571429 3.7548573
9.3911667 0.073333338 3.7758336
9.4205008 0.062666669 3.7623336
9.4829998 0.068333343 3.752667
9.5244999 0.068499997 3.75
9.3885002 0.11462501 3.7741249
9.4252501 0.12099999 3.7537498
9.4879999 0.11766668 3.7543335
9.5303335 0.11833334 3.7523334
9.3926258 0.17612499 3.7763748
9.4162006 0.15979999 3.7644002
9.4776669 0.16733333 3.7513332
9.526 0.16800001 3.7510002
9.3893337 0.22900002 3.7731667
9.4206676 0.22716668 3.7633333
9.4779997 0.2175 3.7515001
9.5266676 0.21833333 3.7516668
9.3968334 0.28683335 3.7736669
9.4138002 0.27540001 3.7722001
9.4794998 0.26749998 3.7525001
9.526 0.25999999 3.7515001
9.3940001 0.33000001 3.776
9.4099998 0.33280003 3.7753003
9.4770002 0.31666669 3.7523334
9.5236673 0.31833333 3.7513332
9.3955002 0.38850001 3.7969999
9.4165545 0.38100001 3.767
9.4809999 0.35900003 3.7540002
9.5200005 0.36049998 3.7509999
9.3990002 0.414 3.7609999
9.4118567 0.433 3.7687142
9.4720001 0.40000001 3.7520001
9.5190001 0.43599999 3.7509999
9.3950005 0.479 3.7980001
9.4150009 0.47955555 3.7683334
9.4699993 0.4745 3.7519999
9.5130005 0.46833333 3.75
9.4116249 0.52837503 3.7703753
9.4659996 0.53149998 3.7515001
9.5159998 0.50099999 3.7509999
9.3959999 0.56 3.763
9.4181252 0.58025002 3.77175
9.4680004 0.57249999 3.7535
9.5080004 0.56699997 3.75
9.4104452 0.62744445 3.7701111
9.5059996 0.60000002 3.75
9.4209995 0.67755556 3.7754445
9.4205551 0.72744447 3.776778
9.4214449 0.77755558 3.7788892
9.4263744 0.82625002 3.7728751
9.4960003 0.801 3.7509999
9.4325714 0.8764286 3.7730002
9.432889 0.92866665 3.7695558
9.4301119 0.9786666 3.7704442
9.4287786 1.0282223 3.7721112
9.4354448 1.0785557 3.7771111
9.4302502 1.1322501 3.7725
9.4530001 1.131 3.7606666
9.4407501 1.183875 3.7744999
9.4560003 1.181 3.7509999
9.4389992 1.2333333 3.7700002
