# .PCD v0.7 - Point Cloud Data file format
VERSION 0.7
FIELDS x y z
SIZE 4 4 4
TYPE F F F
COUNT 1 1 1
WIDTH 1741
HEIGHT 1
VIEWPOINT 0 0 0 1 0 0 0
POINTS 1741
DATA ascii
-5.2657499 1.2272499 -1.7628751
-5.2195001 1.224 -1.7586668
-5.1798749 1.2252501 -1.7571251
-5.130125 1.226625 -1.759125
-5.0788889 1.2286665 -1.7553333
-5.0214286 1.222 -1.7537143
-4.9702001 1.2278001 -1.7534001
-4.9246669 1.2256668 -1.7513335
-4.8699999 1.2275 -1.7525001
-4.8360004 1.2325 -1.751
-4.796 1.2283335 -1.7520001
-4.717 1.22 -1.752
-4.3249998 1.249 -1.752
-4.1009998 1.216 -1.751
-3.9879999 1.237 -1.751
-3.9115 1.2284999 -1.753
-3.8825002 1.223 -1.753
-3.8338335 1.2285 -1.7518334
-3.7746429 1.227 -1.7533574
-3.7244 1.2314001 -1.7517999
-3.6807272 1.2232727 -1.7520911
-3.6257501 1.2229375 -1.75175
-3.5691769 1.2299411 -1.7541178
-3.5311158 1.2251539 -1.7616154
-3.4754002 1.2261332 -1.7565333
-3.427 1.2239333 -1.7535335
-3.37925 1.229625 -1.7538749
-3.3338335 1.224 -1.7528334
-3.2836666 1.2323334 -1.7523334
-15.121 1.271 -1.8
-14.881 1.251 -1.798
-14.639 1.257 -1.795
-14.434 1.29 -1.796
-14.222 1.2845 -1.7950001
-14.033 1.267 -1.796
-13.8345 1.2739999 -1.7950001
-13.627501 1.2795 -1.793
-13.453 1.25 -1.794
-13.436501 1.2850001 -1.7925
-13.271 1.2695 -1.7934999
-13.084 1.2745 -1.7915001
-12.936 1.272 -1.795
-12.899 1.29 -1.79
-12.738001 1.2746667 -1.79
-12.573 1.28 -1.79
-12.534 1.2539999 -1.784
-12.3905 1.272 -1.786
-12.231501 1.278 -1.7850001
-12.111 1.298 -1.79
-12.0955 1.2639999 -1.7869999
-11.967 1.2720001 -1.7895
-11.8365 1.2795 -1.7920001
-11.725668 1.2776668 -1.796
-11.613 1.286 -1.8
-7.4773331 1.2716666 -1.7973335
-7.4092498 1.2797501 -1.7952501
-7.3563337 1.2686666 -1.7963333
-7.348 1.276 -1.795
-7.2892504 1.2722499 -1.794
-7.2330003 1.2757499 -1.79425
-7.1707501 1.278 -1.793
-7.1217499 1.26925 -1.794
-7.0583334 1.2686667 -1.7913334
-7.0266666 1.2673334 -1.7926668
-6.9772501 1.27525 -1.7915001
-6.9243331 1.2783334 -1.7936667
-6.8959999 1.273 -1.791
-6.8229995 1.2718 -1.7854
-6.7653332 1.2816666 -1.7833333
-6.7162004 1.2692 -1.7808001
-6.6743331 1.2766666 -1.7810001
-6.6272006 1.2742001 -1.7782
-6.5764999 1.28025 -1.779
-6.5313334 1.2696667 -1.777
-6.4804997 1.2737499 -1.77525
-6.4265003 1.2726667 -1.774
-6.3800001 1.2793334 -1.7703333
-6.3267999 1.2722 -1.7674
-6.2850003 1.2754 -1.7683998
-6.2319999 1.2758001 -1.766
-6.1826 1.2770001 -1.7644001
-6.1278338 1.2750001 -1.7646668
-6.0796671 1.2746668 -1.763
-6.0236673 1.2701668 -1.7606666
-5.9762001 1.276 -1.7604001
-5.9227147 1.2778572 -1.7582859
-5.8754001 1.2782 -1.7594
-5.822 1.2756667 -1.7591667
-5.7834291 1.2704285 -1.761143
-5.7277999 1.2775999 -1.761
-5.6721253 1.2716249 -1.761
-5.6208 1.2766001 -1.7623999
-5.5841427 1.2779999 -1.7655716
-5.5353999 1.2714001 -1.7606001
-5.4791107 1.2782223 -1.7596667
-5.4277496 1.27475 -1.7618752
-5.378572 1.2722858 -1.7592859
-5.3281112 1.2717777 -1.7583333
-5.2741003 1.2744 -1.7573
-5.2268333 1.2763335 -1.7563334
-5.1736665 1.271889 -1.755667
-5.1176672 1.2766666 -1.7523334
-5.0756664 1.2728333 -1.7533333
-5.0376673 1.28 -1.7513335
-4.9820004 1.2732857 -1.752143
-4.9184999 1.2625 -1.7525001
-4.8309999 1.2539999 -1.751
-4.777 1.298 -1.752
-4.5419998 1.26 -1.751
-4.368 1.262 -1.752
-4.3109999 1.295 -1.752
-4.2410002 1.29 -1.752
-4.1719999 1.2826667 -1.7516668
-4.1374998 1.2825 -1.751
-4.0679998 1.2690001 -1.753
-4.0197501 1.2795 -1.75225
-3.954 1.2755001 -1.751
-3.92625 1.272375 -1.7529999
-3.8692224 1.2770001 -1.753111
-3.8257499 1.2783334 -1.7560834
-3.7744999 1.2838333 -1.7565835
-3.7223887 1.2771666 -1.7566111
-3.6771669 1.2757777 -1.7578332
-3.6255624 1.2695625 -1.7560625
-3.5762634 1.2723157 -1.7545791
-3.527647 1.277294 -1.7544119
-3.467 1.252 -1.753
-3.4200001 1.283 -1.752
-20.122999 1.3329999 -1.79
-20.094999 1.331 -1.752
-14.892 1.331 -1.8
-14.6325 1.3205 -1.7950001
-14.4335 1.329 -1.7965
-14.2285 1.3355 -1.7965
-14.032 1.3164999 -1.7965
-13.8335 1.3225 -1.796
-13.643499 1.329 -1.796
-13.459 1.334 -1.7955
-13.275 1.3049999 -1.795
-13.1145 1.323 -1.7965
-12.9185 1.326 -1.793
-12.7365 1.33 -1.791
-12.573334 1.325 -1.7906668
-12.385 1.3049999 -1.786
-12.343 1.3334999 -1.78
-12.2365 1.3225 -1.7865
-12.09 1.3280001 -1.7874999
-11.971334 1.3256667 -1.7910001
-11.843 1.322 -1.7934999
-11.7325 1.3305 -1.798
-5.1221671 1.3145001 -1.7533334
-4.98 1.3150001 -1.752
-4.8309999 1.304 -1.751
-20.122 1.368 -1.755
-20.063999 1.3815 -1.785
-20.179001 1.4069999 -1.76
-20.055 1.434 -1.785
-5.152 1.188 -1.748
-5.0652504 1.1775 -1.7487501
-4.7838578 1.1734288 -1.7479999
-4.7290001 1.18025 -1.74675
-4.6752853 1.177 -1.7472858
-4.6252503 1.1749167 -1.7463335
-4.5679164 1.1746668 -1.7449167
-4.5204997 1.1710835 -1.7449999
-4.4742222 1.1774443 -1.7438889
-4.3747997 1.1727999 -1.7436668
-4.3250713 1.1767857 -1.7440001
-4.2779174 1.1733334 -1.7426666
-4.2239413 1.1749412 -1.7425294
-4.1756153 1.1766924 -1.7430001
-4.1289415 1.1761764 -1.743294
-4.0737224 1.1753335 -1.7453333
-4.0220666 1.1731333 -1.7451333
-3.9787693 1.1763846 -1.7453077
-3.9257727 1.1735455 -1.7455908
-3.8740833 1.1776668 -1.7466668
-3.8227499 1.1753124 -1.7454376
-3.7759335 1.1720667 -1.7466002
-3.7259333 1.1711334 -1.7466664
-3.6743634 1.1687274 -1.747
-3.6203337 1.1687502 -1.7470832
-3.5750716 1.1799285 -1.7465715
-3.5433335 1.1613333 -1.7486668
-3.4647501 1.176 -1.7490001
-3.4277143 1.1747144 -1.7491429
-3.3743334 1.1772 -1.7462666
-3.3260477 1.1728572 -1.7454761
-3.275588 1.1734117 -1.7424116
-3.2265861 1.1746899 -1.7405863
-3.175586 1.176862 -1.7389998
-3.1245596 1.1751599 -1.7362802
-3.0741379 1.1736897 -1.7316898
-2.9764688 1.1767187 -1.7290624
-5.3470001 1.223 -1.75
-5.2810001 1.217 -1.75
-5.2470002 1.219 -1.75
-5.1539998 1.207 -1.75
-5.0580001 1.223 -1.75
-5.0279999 1.215 -1.75
-4.9765 1.2262501 -1.74875
-4.9226665 1.2240001 -1.7486668
-4.8744998 1.227625 -1.7477499
-4.8281999 1.2180001 -1.7482001
-4.7704444 1.222 -1.7463332
-4.7285557 1.2251111 -1.7479999
-4.6788187 1.2255455 -1.7462728
-4.6282501 1.22475 -1.7444167
-4.5747695 1.2290001 -1.7436154
-4.525167 1.2216668 -1.7445835
-4.4701538 1.2241539 -1.7424614
-4.4209285 1.2255714 -1.7439997
-4.3702502 1.2216667 -1.7427499
-4.3257275 1.2211819 -1.7428184
-4.2746668 1.2229167 -1.7424167
-4.2258005 1.2215999 -1.7414668
-4.1769996 1.2256 -1.7440668
-4.1221876 1.224625 -1.7441251
-4.0738668 1.2246001 -1.7450666
-4.0269375 1.223125 -1.7464375
-3.9734373 1.2269375 -1.7463125
-3.9265335 1.2219336 -1.7463335
-3.8743572 1.2272857 -1.7467144
-3.8250911 1.2166364 -1.7471819
-3.7879999 1.2216001 -1.7473999
-3.7231431 1.2232144 -1.7482859
-3.671875 1.221625 -1.74825
-3.6447501 1.21875 -1.748
-3.5777142 1.223 -1.7484286
-3.5405002 1.222 -1.7490001
-3.461 1.243 -1.748
-3.4224999 1.2299999 -1.7476
-3.3703334 1.2239333 -1.7462666
-3.322278 1.2247778 -1.7449443
-3.2795653 1.2264782 -1.7433044
-3.2253451 1.2248621 -1.7393104
-3.1779165 1.227375 -1.7371668
-3.1255002 1.2218437 -1.735
-3.0736897 1.2281035 -1.7316206
-3.0249002 1.2252336 -1.7282001
-2.9754002 1.2229668 -1.725567
-2.925457 1.2230858 -1.7207431
-2.8776319 1.2218161 -1.7200528
-2.8272893 1.2224213 -1.7178949
-2.7782164 1.2242163 -1.716027
-2.7277949 1.2225899 -1.7125897
-2.6761539 1.2241282 -1.7103592
-2.6246843 1.2245002 -1.7075002
-2.574769 1.223641 -1.7058719
-2.5275805 1.2250646 -1.7045482
-2.4763005 1.2263668 -1.704
-2.4224117 1.223353 -1.7028234
-2.3783753 1.22925 -1.7021874
-2.3226004 1.2232668 -1.7029333
-2.2817001 1.2283999 -1.7023001
-2.2272 1.2332001 -1.702
-2.1702857 1.2202859 -1.7024286
-2.128125 1.2293751 -1.7021251
-2.0799999 1.221 -1.7019999
-2.026 1.206 -1.701
-1.9815 1.21675 -1.7032499
-1.937 1.224 -1.7013334
-1.886 1.215 -1.702
-1.8237499 1.223 -1.70525
-1.77475 1.219 -1.7029999
-1.72025 1.22825 -1.7047499
-1.6763334 1.2226667 -1.7028335
-5.191 1.293 -1.748
-5.073 1.255 -1.748
-5.0231667 1.2706667 -1.7493334
-4.975667 1.2863333 -1.7486666
-4.9276247 1.2786249 -1.7478751
-4.8757501 1.2745 -1.747375
-4.8235998 1.2782 -1.747
-4.7728338 1.2671666 -1.7455
-4.7277694 1.275923 -1.7449231
-4.6707001 1.2753 -1.7459999
-4.6264005 1.2745 -1.7463001
-4.5746365 1.2736365 -1.7440001
-4.5300002 1.2772 -1.7454001
-4.4782729 1.271 -1.7440909
-4.428308 1.2745384 -1.7444615
-4.3766923 1.273077 -1.7449231
-4.3271432 1.2745714 -1.746143
-4.2722144 1.2731431 -1.7445002
-4.2220006 1.273 -1.7456156
-4.1764617 1.2716925 -1.7463077
-4.1272731 1.2773638 -1.7468181
-4.0758238 1.2748824 -1.7458236
-4.0267143 1.2730001 -1.7462859
-3.9729412 1.2734706 -1.7463527
-3.9221001 1.2766999 -1.7475001
-3.8777502 1.271625 -1.7477498
-3.8216667 1.2638334 -1.7488334
-3.7736001 1.2594 -1.748
-3.7290001 1.2646667 -1.7483333
-3.6700001 1.2589999 -1.747
-3.6286669 1.2846668 -1.7491667
-3.5638001 1.281 -1.7492001
-3.5122001 1.2724 -1.7488002
-3.4732354 1.2728236 -1.7477645
-3.4273183 1.2744092 -1.7461364
-3.3745418 1.27325 -1.74475
-3.3275831 1.2762083 -1.743125
-3.2757082 1.2766249 -1.7394999
-3.2247827 1.2736087 -1.7363044
-3.1740739 1.2728888 -1.7334075
-3.1252418 1.2757242 -1.7314827
-3.0752916 1.2747501 -1.7282919
-3.0266924 1.2728846 -1.7250388
-2.9781873 1.2745936 -1.722625
-2.9235754 1.2738181 -1.7202426
-2.8747342 1.2759669 -1.7186667
-2.8254001 1.2739428 -1.715686
-2.7758918 1.2737026 -1.7137029
-2.7244151 1.2739512 -1.7125612
-2.6738527 1.2732059 -1.7098238
-2.6286755 1.272892 -1.7088922
-2.5763252 1.275375 -1.7063001
-2.5243425 1.2747142 -1.7055713
-2.4760857 1.2752572 -1.7042285
-2.4254286 1.2765143 -1.7035428
-2.3744233 1.2741922 -1.7031924
-2.3260837 1.2766668 -1.7032499
-2.2821336 1.2743999 -1.7028667
-2.2307272 1.2711818 -1.7028183
-2.1780002 1.2787777 -1.7022223
-2.126143 1.2771429 -1.7012858
-2.0815556 1.2847778 -1.7026669
-2.0217144 1.2798572 -1.7037143
-1.9792857 1.2788571 -1.7022856
-1.9168572 1.2817143 -1.703143
-1.867 1.2645715 -1.7035714
-1.8171667 1.2748333 -1.7050002
-1.7762501 1.26425 -1.7032501
-1.7340001 1.2744999 -1.7026668
-1.6702 1.2708 -1.7032002
-1.6333334 1.2820001 -1.7030001
-5.0307145 1.3194287 -1.749143
-3.0780344 1.3222758 -1.7286896
-3.0272667 1.3256 -1.7252001
-2.9745667 1.3233 -1.7229334
-2.9256332 1.3239667 -1.7208002
-2.8758752 1.3245311 -1.7184374
-2.8244116 1.3259411 -1.7165293
-2.7749417 1.3239118 -1.7156178
-2.7231715 1.3250571 -1.7120572
-2.6746252 1.3240751 -1.7114502
-2.6255002 1.3254448 -1.7085278
-2.5760453 1.3237501 -1.7073183
-2.5274475 1.3238684 -1.7061321
-2.474195 1.3240733 -1.7040001
-2.4264705 1.3237354 -1.7037648
-2.372565 1.3256086 -1.7028694
-2.3279998 1.3271154 -1.7037692
-2.2798095 1.3249525 -1.7038095
-2.2215385 1.3306923 -1.7026923
-2.17975 1.3240001 -1.7026668
-2.1203001 1.3268002 -1.7026001
-2.080909 1.3230909 -1.7017273
-2.03 1.3386667 -1.7036667
-1.9833333 1.3161112 -1.7023333
-1.924 1.3258001 -1.7026001
-1.8723334 1.3283334 -1.7026666
-1.8240001 1.327 -1.7049999
-1.7866668 1.3253334 -1.702
-1.6728001 1.3162001 -1.7030001
-1.6265999 1.314 -1.7030001
-23.326 1.38 -1.747
-23.256001 1.54 -1.702
-2.5786667 1.2366667 -1.7000002
-2.5195003 1.2242501 -1.6979167
-2.4754374 1.2207501 -1.6983124
-2.4249334 1.2246332 -1.6975999
-2.3748276 1.2213793 -1.6966553
-2.3270442 1.2262887 -1.6963776
-2.2751253 1.2236001 -1.6954498
-2.2267294 1.2230628 -1.6942918
-2.1765938 1.2239687 -1.6939217
-2.1252921 1.2245836 -1.6936252
-2.0750847 1.2251019 -1.6916779
-2.0266001 1.2232925 -1.6921231
-1.9781028 1.2257353 -1.6915885
-1.9259572 1.2221 -1.6914287
-1.8750002 1.2241853 -1.690889
-1.8256711 1.2235478 -1.6903701
-1.7751048 1.2230697 -1.6909653
-1.7259268 1.2240244 -1.6909875
-1.6760712 1.2249167 -1.6902857
-1.638375 1.2337813 -1.688125
1.5859524 1.2306193 -1.6536667
1.6235832 1.2231874 -1.654979
1.6725502 1.221375 -1.6545002
1.7216767 1.2271471 -1.6537648
1.776757 1.2244325 -1.6545676
1.82125 1.2233499 -1.6533002
1.8739092 1.2230002 -1.654
1.9242942 1.2271765 -1.6541176
1.9712667 1.2201335 -1.6540002
2.0215001 1.2283334 -1.6535
2.0734003 1.2172 -1.6515999
2.105 1.248 -1.651
2.1626668 1.2283335 -1.654
2.2420001 1.2255 -1.652
2.3340001 1.234 -1.653
2.391 1.2349999 -1.652
-2.6029999 1.288 -1.6950001
-2.5799999 1.265 -1.7
-2.5198333 1.2676668 -1.6976669
-2.4797776 1.2692221 -1.6975555
-2.4238334 1.2719446 -1.6973335
-2.3767779 1.2743334 -1.6983891
-2.327148 1.2786666 -1.6971111
-2.2734611 1.2731795 -1.6961539
-2.2219286 1.2735716 -1.6948332
-2.1739597 1.2732998 -1.6953795
-2.1246667 1.275353 -1.6950587
-2.0744364 1.2725996 -1.6933088
-2.0280182 1.274509 -1.6941818
-1.9758155 1.2749232 -1.6934768
-1.9257101 1.2725652 -1.6923914
-1.8753647 1.2753648 -1.6912166
-1.8251559 1.2745714 -1.6910002
-1.774671 1.2747467 -1.6915067
-1.7228795 1.2755053 -1.6910218
-1.6748813 1.2746547 -1.6910115
-1.6274053 1.2757974 -1.6909868
-1.5931876 1.2869999 -1.6877501
1.5402222 1.2897778 -1.6548889
1.5746143 1.2752142 -1.6565999
1.6221935 1.2731936 -1.6561289
1.6746316 1.277649 -1.656
1.7263335 1.276193 -1.6562806
1.7738779 1.2768049 -1.6559021
1.8226098 1.2850729 -1.657073
1.8709999 1.2803547 -1.6555159
1.9248235 1.2767059 -1.6531178
1.9760001 1.2785333 -1.6539334
2.0261428 1.271643 -1.6525003
2.074923 1.2824615 -1.6553847
2.1251178 1.2835294 -1.6551764
2.1745336 1.2808667 -1.6542
2.2207501 1.2828335 -1.6559999
2.2852001 1.279 -1.6538
2.326375 1.2846249 -1.653
2.3722498 1.28 -1.6525
2.4287143 1.2805715 -1.6534286
2.4858334 1.2798334 -1.6530001
2.5236669 1.2850001 -1.6523333
2.632 1.283 -1.655
2.6830001 1.2766666 -1.6523333
2.7135 1.2805001 -1.655
2.767 1.278 -1.654
-2.573 1.341 -1.7
-2.5146666 1.3236666 -1.6983335
-2.4820001 1.3188 -1.6966
-2.4184546 1.3210909 -1.6982727
-2.3738849 1.3224231 -1.6965384
-2.3229527 1.3252382 -1.6969049
-2.2749004 1.3235668 -1.6966001
-2.227 1.321913 -1.6958041
-2.1750445 1.3238889 -1.6957998
-2.1263199 1.3238803 -1.6951398
-2.0763915 1.3235002 -1.6951302
-2.0261447 1.3240288 -1.6934057
-1.9732097 1.3256615 -1.692613
-1.9266438 1.3242204 -1.6928641
-1.8749539 1.3240308 -1.6915389
-1.8253332 1.3234401 -1.6913335
-1.7742963 1.3249382 -1.6902715
-1.725275 1.32485 -1.6897372
-1.6753477 1.3227193 -1.6893709
-1.625 1.3256632 -1.6900542
-1.5773855 1.3274339 -1.6892651
-1.5442859 1.3395715 -1.6857144
1.4922858 1.3398572 -1.6544287
1.5265627 1.3256249 -1.655125
1.5722221 1.3258612 -1.6558613
1.6268779 1.3208048 -1.6549025
1.6716666 1.3212566 -1.6540772
1.7193683 1.3171579 -1.6561054
1.7769284 1.3327144 -1.6558573
1.8252 1.3176001 -1.6552
1.8619999 1.3216001 -1.6538
1.926 1.3136666 -1.6546667
1.962 1.319 -1.6524999
2.0349998 1.3199999 -1.6524999
2.1199999 1.3279999 -1.651
-23.237999 1.4765 -1.659
-20.472 1.4630001 -1.678
-20.386 1.494 -1.671
-23.237 1.538 -1.659
-20.353001 1.527 -1.669
-23.26 1.58 -1.661
-20.32 1.5599999 -1.666
1.5856249 1.226375 -1.6461877
1.6244618 1.2245386 -1.6470391
1.6732779 1.2241111 -1.6464634
1.7248621 1.2230688 -1.6457243
1.7727917 1.2244167 -1.6457084
1.8242577 1.2244999 -1.6445907
1.8726869 1.2221096 -1.6442813
1.9253279 1.2252622 -1.6447376
1.973887 1.2238868 -1.6437925
2.0231771 1.2228066 -1.6442418
2.0749192 1.2242904 -1.644339
2.1226029 1.2239364 -1.6429526
2.1745002 1.2232668 -1.6431
2.2241356 1.2227628 -1.6425426
2.2751074 1.2251786 -1.6419823
2.3242743 1.222608 -1.6422353
2.3725629 1.2231251 -1.6423539
2.4240377 1.2245852 -1.6427922
2.4733751 1.2231042 -1.642104
2.5227952 1.2249545 -1.6415911
2.570756 1.2239757 -1.641878
2.6229544 1.2249771 -1.6424093
2.6732368 1.2247635 -1.6409736
2.7214999 1.2228334 -1.6402225
2.7734251 1.2240499 -1.6403252
2.8246925 1.2250769 -1.6398205
2.8742223 1.2234167 -1.6394445
2.9275749 1.2244751 -1.6379502
3.1268423 1.2293683 -1.6277368
3.1726873 1.2342501 -1.6283751
3.2175 1.2297499 -1.62525
3.273706 1.2339412 -1.6298236
3.3230624 1.2292502 -1.62725
3.3708668 1.2295333 -1.6266668
3.4274004 1.2314 -1.6282667
3.4765556 1.2270555 -1.6247778
3.5276926 1.229923 -1.627077
3.5735836 1.23125 -1.6295002
3.6202145 1.229 -1.6275713
3.677 1.2314286 -1.6307142
3.7250004 1.2307272 -1.6303635
3.7772501 1.2351668 -1.631667
3.8315387 1.2340001 -1.6323079
3.8772497 1.2279999 -1.6283333
3.9263 1.2299999 -1.6296002
3.9713638 1.2292728 -1.6294547
4.023273 1.2315454 -1.6286365
4.0733643 1.2341819 -1.6297274
4.1219234 1.2245386 -1.6258461
4.1766429 1.2274287 -1.6265
4.2251248 1.2234999 -1.62475
4.272562 1.224 -1.62275
4.3220005 1.2224617 -1.6213847
4.3706431 1.2237144 -1.6200715
4.4263573 1.2238572 -1.6175001
4.4767332 1.2233332 -1.6153334
4.5217276 1.2236365 -1.6128184
4.5741334 1.2256668 -1.6121336
4.8979998 1.245 -1.602
1.5345625 1.2880625 -1.6451253
1.5708787 1.2789092 -1.646697
1.6227442 1.2745346 -1.645907
1.6771666 1.2751108 -1.6451666
1.7272284 1.278 -1.6453426
1.7744473 1.2764893 -1.6439148
1.8255954 1.2734286 -1.643881
1.8763077 1.2751535 -1.6441233
1.9237869 1.2761801 -1.6437213
1.9749267 1.2752795 -1.6443529
2.024426 1.2749342 -1.6433775
2.0760179 1.275473 -1.6432182
2.1252353 1.2772549 -1.643314
2.1717956 1.2762448 -1.6425712
2.2240844 1.275322 -1.6426611
2.2737038 1.2757777 -1.6410002
2.3250461 1.2755815 -1.6407208
2.3743613 1.2751489 -1.6416168
2.42362 1.2754799 -1.6410601
2.4762828 1.2743914 -1.6403912
2.5266085 1.2762175 -1.6410654
2.5740652 1.2746738 -1.6404566
2.6238935 1.2754468 -1.6403188
2.6743078 1.274949 -1.6388205
2.7258005 1.2741748 -1.6398751
2.7729759 1.2762619 -1.6386669
2.8259525 1.2754049 -1.6390712
2.8774614 1.2754873 -1.6370765
2.9253936 1.2747879 -1.6371516
2.9763234 1.2725883 -1.6371765
3.0245831 1.2751666 -1.6342778
3.0748124 1.2751876 -1.6340001
3.1248791 1.2713636 -1.6324848
3.1757696 1.2768849 -1.6314232
3.2232397 1.2753201 -1.6316
3.27476 1.27292 -1.6332798
3.3255422 1.2754166 -1.6326668
3.3754399 1.2753198 -1.6329199
3.4231999 1.2744501 -1.6320499
3.4711368 1.2732273 -1.6325909
3.527143 1.2767619 -1.6337142
3.5745554 1.2746111 -1.6345
3.6241996 1.2762002 -1.6351999
3.67155 1.2744001 -1.6342499
3.7238421 1.273158 -1.6335789
3.7733889 1.2756667 -1.6330556
3.8218236 1.276353 -1.6330003
3.8736846 1.275579 -1.6328421
3.9240625 1.272125 -1.6326249
3.9771054 1.2746317 -1.6326845
4.0252776 1.2740556 -1.6296113
4.0769291 1.2722858 -1.6295
4.1236253 1.2747499 -1.6283749
4.1755295 1.2767059 -1.6271175
4.221539 1.2732307 -1.6248463
4.2757368 1.2726841 -1.622
4.3263636 1.2764546 -1.6198181
4.3734674 1.2722667 -1.6182002
4.4262862 1.2715716 -1.6175715
4.4720669 1.2737334 -1.6136668
4.5253849 1.2752308 -1.6114618
4.5785003 1.2728333 -1.6100001
4.6274614 1.2780001 -1.6083078
4.6727996 1.2754 -1.6050999
4.7262006 1.275 -1.6045001
4.77 1.2758334 -1.603
4.8017502 1.2785001 -1.6037501
1.4918461 1.3337692 -1.6459233
1.5276341 1.3257806 -1.6453899
1.5740814 1.3228363 -1.6449178
1.6207091 1.3257272 -1.6453454
1.6756489 1.3257192 -1.6434914
1.725781 1.3228356 -1.6427535
1.7756379 1.3234928 -1.6421596
1.8235735 1.32275 -1.6417056
1.8739864 1.3247917 -1.641361
1.924232 1.3264782 -1.6408405
1.9734241 1.3234395 -1.6398485
2.0233333 1.3237145 -1.6403494
2.0733538 1.3235847 -1.6390613
2.1233222 1.3240846 -1.638271
2.1740003 1.326138 -1.6380172
2.226413 1.3226193 -1.6371747
2.2777872 1.3270638 -1.638149
2.3229492 1.3257798 -1.6367124
2.3732498 1.3251606 -1.6372501
2.4244897 1.3245307 -1.6365921
2.4726224 1.3219779 -1.6354445
2.5231307 1.3229784 -1.6353911
2.5759776 1.3259772 -1.635841
2.6229265 1.3217074 -1.6339023
2.6735852 1.3222681 -1.6342438
2.7267947 1.3243076 -1.6347437
2.7766666 1.3233331 -1.6338789
2.825515 1.3267879 -1.6348486
2.8729997 1.3255882 -1.6356177
2.9259188 1.3244594 -1.6352974
2.976871 1.3250645 -1.6346774
3.0246391 1.3255278 -1.6331114
3.0747311 1.3287308 -1.6329615
3.1270292 1.3233528 -1.6331471
3.1745002 1.3230454 -1.6302726
3.2193334 1.3229048 -1.6314762
3.2721069 1.3258215 -1.6327142
3.3210001 1.3234582 -1.6325834
3.3751037 1.3244485 -1.632207
3.4259565 1.3245217 -1.6311305
3.4713335 1.3239048 -1.6312381
3.5219131 1.3236957 -1.6322609
3.575381 1.3240954 -1.6323335
3.6227498 1.3254999 -1.6324999
3.6757138 1.326619 -1.6338573
3.7224736 1.3225789 -1.6330001
3.7731054 1.3230002 -1.6331578
3.8214998 1.3274443 -1.6322222
3.8721874 1.32275 -1.63275
3.9255717 1.3225238 -1.632
3.9751427 1.3227857 -1.6304289
4.0210557 1.3266667 -1.6295
4.0776668 1.326722 -1.6284443
4.1257062 1.324353 -1.6276469
4.1722007 1.3256 -1.6249332
4.2257056 1.3235883 -1.6228236
4.2778573 1.3227143 -1.6214287
4.3243527 1.3246471 -1.6175294
4.3740001 1.3254615 -1.6160769
4.4238572 1.3236427 -1.6155
4.4758005 1.3215334 -1.6120667
4.5269003 1.3272001 -1.6108
4.573667 1.3270001 -1.6102
4.6286159 1.3219231 -1.6068462
4.6767778 1.3292223 -1.6054444
4.7215714 1.3234286 -1.6040002
4.7693338 1.3278333 -1.6026667
4.8060002 1.347 -1.602
4.8709998 1.329 -1.601
4.6726665 1.3726667 -1.6061667
4.7213335 1.3786668 -1.6033334
4.7676253 1.3742501 -1.6027499
-20.376499 1.4744999 -1.6340001
-23.4165 1.529 -1.631
-20.309 1.524 -1.6289999
-23.386 1.5880001 -1.6289999
-20.276001 1.5745 -1.6270001
-23.408001 1.631 -1.631
4.6750002 1.249 -1.599
4.7150002 1.2863334 -1.5993333
4.783 1.266 -1.5966667
4.8308892 1.2757777 -1.598889
4.8759093 1.2741817 -1.5959091
4.9269996 1.2758889 -1.5952222
4.9763641 1.2716364 -1.5938182
5.0267782 1.2725555 -1.5901113
5.0780005 1.2804445 -1.5895555
5.1230001 1.2709091 -1.585
5.1791434 1.2724285 -1.584
5.2283998 1.2747999 -1.5819
5.2808571 1.2754285 -1.5814286
5.3197999 1.2736 -1.5788001
5.3703642 1.2730911 -1.5772727
5.4225001 1.2731667 -1.5766667
5.4743996 1.2740999 -1.5761001
5.5301666 1.2728333 -1.5761669
5.5715718 1.2762858 -1.572
5.6287141 1.2717144 -1.5731429
5.6854 1.2772001 -1.5736001
5.7216001 1.275 -1.572
5.7715712 1.2741429 -1.5707145
5.8241668 1.275 -1.5711668
5.8761668 1.2683334 -1.5711668
5.9288001 1.278 -1.5702001
5.9765005 1.274 -1.5725
6.0254993 1.27175 -1.57175
6.0698004 1.2754 -1.5714
6.1212001 1.2748001 -1.5726
6.1666002 1.2732 -1.572
6.2142506 1.2775 -1.57225
6.2717505 1.27775 -1.5745
6.3257504 1.275625 -1.56925
6.3833332 1.2715001 -1.5671667
6.4414997 1.2772501 -1.5675
6.4899998 1.2869999 -1.567
6.5228338 1.2696668 -1.5655
6.5806003 1.2752 -1.5628
6.6399999 1.27775 -1.5645001
6.678 1.2748002 -1.5628
6.7336669 1.2766666 -1.5606668
6.7793999 1.2714 -1.5604
6.8429999 1.2720001 -1.5596666
6.882 1.2709999 -1.5582501
6.9460001 1.295 -1.557
6.95825 1.266 -1.55875
7.0117502 1.276 -1.5580001
7.06075 1.2722499 -1.5552499
7.1275001 1.271 -1.55625
7.1875 1.2690001 -1.55575
7.2393332 1.2803334 -1.5539999
7.2749996 1.2715001 -1.554
7.3086662 1.2793334 -1.5543332
7.4392505 1.2739999 -1.5539999
7.4945002 1.283 -1.5515001
7.5752501 1.26975 -1.5537499
7.6370001 1.273 -1.552
7.6539998 1.262 -1.5549999
7.7060003 1.271 -1.552
7.7860003 1.275 -1.5533333
7.8535004 1.26 -1.5515001
7.9373336 1.2810001 -1.5543334
8.0200005 1.266 -1.5549999
8.0889997 1.263 -1.553
8.1599998 1.274 -1.552
8.323 1.27 -1.5516667
8.4095001 1.2755001 -1.552
8.4925003 1.2585001 -1.5515001
8.5039997 1.283 -1.554
8.5726681 1.2780001 -1.551
8.6783333 1.2786667 -1.5539999
8.7616673 1.275 -1.5526667
8.8500004 1.256 -1.551
8.9490004 1.286 -1.553
8.9530001 1.263 -1.553
9.04 1.2776668 -1.552
9.0649996 1.271 -1.556
9.1440001 1.2763333 -1.5526667
9.151 1.266 -1.554
9.2344999 1.2775 -1.5515001
9.2530003 1.281 -1.5549999
9.3435001 1.2845 -1.553
9.3649998 1.263 -1.556
9.4566669 1.2746667 -1.5540001
9.5480003 1.271 -1.552
9.5649996 1.289 -1.5549999
4.684 1.3299999 -1.5994999
4.7336669 1.3356667 -1.6000001
4.7655997 1.316 -1.5992
4.8221669 1.3231666 -1.5980835
4.8738885 1.3196667 -1.5954446
4.9260907 1.3281817 -1.5938183
4.9731116 1.325111 -1.5914446
5.0260005 1.3199999 -1.5921001
5.069375 1.3256249 -1.5876251
5.1238999 1.3260001 -1.5875
5.1717 1.3218001 -1.5851001
5.2211251 1.32525 -1.5815001
5.2696247 1.325375 -1.581125
5.3238177 1.3259093 -1.5791819
5.3747144 1.3268572 -1.5774286
5.4264994 1.3205 -1.5756249
5.4771671 1.3248334 -1.5756668
5.527143 1.325 -1.5738572
5.5735717 1.3242859 -1.5741429
5.6357141 1.3228573 -1.5754287
5.6733999 1.3271999 -1.5732001
5.7186661 1.3288333 -1.5723333
5.7728572 1.3197143 -1.5721431
5.8305721 1.3252857 -1.5734286
5.8786669 1.3265001 -1.5715001
5.9264998 1.3262501 -1.57225
5.9700003 1.32525 -1.572
6.0176001 1.3191999 -1.572
6.0670004 1.3257999 -1.5714
6.1064997 1.325 -1.5715001
6.1772499 1.3264999 -1.57725
6.2424998 1.3175 -1.5810001
6.2792506 1.334125 -1.579
6.3218579 1.320143 -1.5700002
6.375 1.3261667 -1.5618334
6.4204998 1.31725 -1.561
6.47925 1.3175 -1.5625
6.5300002 1.316 -1.562
6.5755 1.316 -1.5634999
6.618 1.3186667 -1.5610001
6.6777496 1.32125 -1.55925
6.7280002 1.3163333 -1.5609999
6.7743335 1.313 -1.5586667
6.82125 1.316 -1.5565
6.875 1.3203334 -1.5556667
6.9190001 1.316 -1.5566667
6.9700003 1.3195 -1.5565
7.007 1.313 -1.5585001
7.0580001 1.3166666 -1.5563334
7.1206665 1.3156667 -1.5563334
7.1786666 1.313 -1.5553334
7.2279997 1.3155 -1.553
7.2950001 1.321 -1.553
7.302 1.3225 -1.5545
7.3616667 1.3200001 -1.5533335
7.4194999 1.3169999 -1.552
7.4840002 1.3215001 -1.5515001
7.552 1.327 -1.551
7.6370001 1.3150001 -1.554
7.691 1.3310001 -1.551
7.7020001 1.312 -1.552
7.7680001 1.337 -1.552
7.8400002 1.336 -1.551
7.9169998 1.335 -1.552
7.9879999 1.347 -1.551
8.0664997 1.3380001 -1.551
8.3970003 1.326 -1.552
8.4809999 1.3169999 -1.551
8.5685005 1.33 -1.5515001
8.6619997 1.307 -1.552
8.7489996 1.3049999 -1.551
8.8412504 1.3262501 -1.5515001
8.9419994 1.3334999 -1.553
8.9514999 1.319 -1.554
9.0353336 1.3313334 -1.5526667
9.1403341 1.3303335 -1.5536666
9.2386665 1.3276666 -1.5536666
9.3460007 1.3185 -1.554
9.3509998 1.344 -1.5549999
9.448 1.308 -1.553
9.4615002 1.335 -1.5565
9.5579996 1.306 -1.554
9.6540003 1.301 -1.552
4.7866669 1.3746667 -1.5995001
4.8330002 1.3678572 -1.5967144
4.8772864 1.3701431 -1.5978571
4.9275556 1.3743334 -1.5970001
4.9709997 1.375 -1.5933751
5.0174446 1.3765556 -1.5934445
5.0705833 1.3743333 -1.5905001
5.1256251 1.37875 -1.588375
5.1654282 1.3714287 -1.5858572
5.2235003 1.3723 -1.5845
5.2782502 1.379375 -1.58125
5.3271432 1.3762859 -1.5810001
5.3716669 1.3765 -1.5783334
5.421876 1.3715 -1.57775
5.4827147 1.3785714 -1.579
5.5231996 1.3654 -1.5761999
5.5804996 1.37525 -1.577125
5.6300001 1.3742499 -1.5755
5.6786666 1.3774999 -1.5741667
5.7266669 1.3733333 -1.5736668
5.7808337 1.3791666 -1.5753334
5.8268332 1.3738334 -1.5736666
5.8797503 1.38125 -1.5747499
5.9170003 1.3734001 -1.5724
5.9698 1.3744 -1.5748
6.0122004 1.3734 -1.5736001
6.0606003 1.3731999 -1.5746001
6.1168003 1.3790001 -1.5748001
6.1730003 1.3805001 -1.5705
6.2215004 1.377125 -1.5675001
6.2732501 1.374375 -1.567875
6.3199997 1.36875 -1.5670002
6.3730001 1.365875 -1.562875
8.4750004 1.353 -1.551
8.6599998 1.353 -1.553
8.743 1.35 -1.551
8.842 1.365 -1.553
9.033 1.363 -1.553
9.1499996 1.365 -1.556
9.2469997 1.363 -1.556
9.3649998 1.363 -1.558
9.4300003 1.373 -1.552
9.4659996 1.3609999 -1.557
-23.361 1.546 -1.586
-20.283001 1.522 -1.591
-23.375 1.587 -1.587
-20.258999 1.573 -1.59
-20.254999 1.626 -1.59
16.329 1.223 -1.51
7.3439999 1.277 -1.548
7.3515 1.2785001 -1.5495
7.4910002 1.263 -1.55
7.6230001 1.2920001 -1.55
7.6859999 1.296 -1.549
7.7550001 1.279 -1.5470001
7.8319998 1.2845 -1.5485001
7.9855003 1.2820001 -1.5485001
8.0564995 1.279 -1.5475
8.1370001 1.285 -1.548
8.1499996 1.258 -1.549
8.2285004 1.2772499 -1.5497501
8.3109999 1.298 -1.55
8.3964996 1.2739999 -1.5495
8.4729996 1.293 -1.549
8.8400002 1.278 -1.55
9.5410004 1.252 -1.55
9.6359997 1.2735 -1.5485001
9.7290001 1.2773334 -1.5456667
9.8150005 1.2709999 -1.541
9.8500004 1.275 -1.5470001
9.9250002 1.2765 -1.5404999
10.021667 1.2803333 -1.5376667
10.132334 1.276 -1.536
10.241667 1.2710001 -1.5336666
10.331 1.2640001 -1.528
10.354 1.285 -1.5319999
10.4645 1.271 -1.5295
10.581667 1.2756667 -1.5273335
10.707 1.2720001 -1.5263333
10.8305 1.2774999 -1.524
10.969 1.284 -1.524
11.0925 1.2695 -1.521
11.234333 1.2756667 -1.5206666
11.376667 1.2720001 -1.5193334
11.534 1.28 -1.5190001
11.686501 1.2765 -1.5185
11.83 1.261 -1.516
11.853 1.284 -1.5190001
12.018 1.2704999 -1.518
12.179501 1.2665 -1.5165
12.3685 1.286 -1.518
12.513 1.268 -1.5140001
12.56 1.295 -1.52
12.694 1.2640001 -1.513
12.727 1.289 -1.517
12.895 1.284 -1.5140001
12.901 1.262 -1.5140001
13.126499 1.2725 -1.517
13.2645 1.2625 -1.5095
13.4275 1.278 -1.5044999
16.3465 1.2679999 -1.512
16.534 1.298 -1.501
16.864 1.294 -1.501
6.388 1.337 -1.5455
6.4169998 1.337 -1.54
6.4709997 1.3364999 -1.5465
6.5279999 1.3364999 -1.54425
6.62325 1.33775 -1.54425
6.6940002 1.34 -1.5415001
6.7280002 1.3279999 -1.549
6.7670002 1.34 -1.5410001
6.822 1.335 -1.545
6.8675003 1.3380001 -1.5420001
6.9200001 1.342 -1.541
6.961 1.337 -1.543
7.027 1.3364999 -1.5434999
7.072 1.339 -1.5404999
7.1300001 1.3364999 -1.5465
7.1584997 1.3425 -1.539
7.2220001 1.3386667 -1.543
7.2690001 1.3430001 -1.535
7.3245001 1.3395 -1.5395
7.3889999 1.3380001 -1.546
7.4184999 1.33 -1.545
7.4749999 1.327 -1.5450001
7.5419998 1.325 -1.549
7.5574999 1.321 -1.545
7.623333 1.335 -1.5466669
7.744 1.347 -1.5470001
7.756 1.3263334 -1.5446666
7.8299999 1.33075 -1.5457499
7.9093337 1.3286667 -1.5453333
7.9874997 1.3252499 -1.5465
8.0640001 1.309 -1.5495
8.1415005 1.32175 -1.5497501
8.217 1.3266667 -1.5486667
8.2959995 1.325 -1.548
8.3035002 1.326 -1.5495
8.3810005 1.323 -1.5485001
8.4689999 1.3380001 -1.549
8.5464993 1.3269999 -1.5475
8.6440001 1.3275001 -1.549
8.7385006 1.326 -1.5495
9.526 1.3289999 -1.5356001
9.5795002 1.3345001 -1.5150001
9.6189995 1.323 -1.5295
9.6590004 1.3200001 -1.536
9.7390003 1.313 -1.548
9.8236675 1.3246667 -1.544
9.9283333 1.3210001 -1.5416667
10.041 1.3275 -1.5415001
10.138667 1.3310001 -1.5380001
10.2445 1.327 -1.5355
10.252 1.3279999 -1.536
10.361667 1.3236668 -1.5336666
10.467001 1.3183334 -1.5303334
10.589 1.334 -1.53
10.601 1.316 -1.531
10.715667 1.3306667 -1.5286667
10.841 1.317 -1.526
10.972667 1.3236667 -1.5250001
11.119334 1.3216667 -1.5253334
11.2645 1.329 -1.5255001
11.38 1.312 -1.52
11.405 1.335 -1.524
11.561501 1.323 -1.5235
11.69 1.308 -1.5190001
11.717 1.331 -1.523
11.867001 1.317 -1.521
12.037 1.3049999 -1.521
12.056 1.327 -1.524
12.198 1.301 -1.5190001
12.242 1.327 -1.525
12.389 1.321 -1.521
12.726 1.335 -1.54
12.782 1.318 -1.524
12.806499 1.3435 -1.5154999
12.854 1.326 -1.51
12.982 1.339 -1.502
13.028 1.3200001 -1.53
13.1705 1.3235 -1.523
13.293 1.301 -1.513
13.304 1.3365 -1.515
13.448 1.339 -1.507
13.463 1.318 -1.5089999
13.603 1.332 -1.501
16.263 1.3049999 -1.505
16.542 1.327 -1.501
6.2753334 1.3876667 -1.5453333
6.3140001 1.3926667 -1.539
6.3818002 1.3766001 -1.5458001
6.4382501 1.3710001 -1.5467499
6.4892001 1.376 -1.5466
6.5340004 1.37975 -1.5445
6.5923996 1.3740001 -1.5454
6.6405001 1.3779999 -1.54425
6.6963339 1.3793334 -1.5443333
6.7319999 1.3700001 -1.5433334
6.7635002 1.385 -1.5465
6.80725 1.3755 -1.5432501
6.8622503 1.37375 -1.5422499
6.9134998 1.37175 -1.54075
6.9794998 1.3720001 -1.5415
7.0355005 1.37025 -1.5405
7.092 1.375 -1.5395
7.1169996 1.3735 -1.538
7.1620002 1.3755 -1.541
7.2093334 1.3716667 -1.5376667
7.2797499 1.37825 -1.5385001
7.3357501 1.3755 -1.5362499
7.3905001 1.3855 -1.5344999
7.4025002 1.3610001 -1.536
7.4690003 1.37325 -1.536
7.5307503 1.3709999 -1.53475
7.6087499 1.3712499 -1.536
7.6729999 1.3692499 -1.5347499
7.7379999 1.36 -1.533
7.7673335 1.3790001 -1.5343332
7.8235002 1.3755 -1.5350001
7.8816671 1.3710001 -1.5320001
7.9606667 1.3710001 -1.5319999
8.0436668 1.3706667 -1.533
8.099 1.351 -1.543
8.1276665 1.3703334 -1.5336666
8.1940002 1.352 -1.545
8.2090006 1.3693333 -1.5336666
8.2927494 1.37625 -1.5377499
8.3050003 1.3559999 -1.536
8.3789997 1.3757501 -1.5385001
8.4090004 1.358 -1.539
8.4613333 1.3813334 -1.5340002
8.5275002 1.362 -1.5375
8.552 1.381 -1.534
8.632 1.3686666 -1.5376667
8.6590004 1.398 -1.538
8.7263336 1.3786668 -1.5386667
8.7510004 1.367 -1.5369999
8.8430004 1.3889999 -1.5374999
8.8540001 1.367 -1.539
8.9280005 1.3790001 -1.5410001
8.9790001 1.3710001 -1.544
9.0369997 1.396 -1.538
9.0550003 1.383 -1.541
9.1254997 1.3855 -1.5439999
9.1809998 1.3775001 -1.5450001
9.2644997 1.39 -1.5420001
9.3070002 1.372 -1.549
9.3684998 1.3895 -1.5420001
9.4904995 1.3905001 -1.5450001
9.5186663 1.3647779 -1.5260001
9.9320002 1.3665 -1.5434999
10.0525 1.365 -1.544
10.16 1.3789999 -1.5420001
10.242 1.363 -1.536
10.272 1.385 -1.541
10.373 1.3715 -1.5365
10.487333 1.3773334 -1.5343335
10.592 1.391 -1.531
10.6065 1.365 -1.5325
10.7355 1.3815 -1.5319999
10.843 1.386 -1.528
10.8645 1.359 -1.5304999
10.974501 1.3724999 -1.5265
11.123501 1.3715 -1.527
11.2725 1.37 -1.527
11.423334 1.3786668 -1.5270002
11.589 1.3776667 -1.5276668
11.744001 1.3753333 -1.5273333
11.896 1.372 -1.526
11.9085 1.3735001 -1.5274999
12.09 1.3733333 -1.529
12.282333 1.374 -1.531
12.775 1.3625 -1.5345
12.813 1.3816667 -1.5126667
13.33 1.375 -1.518
13.448 1.363 -1.508
13.45 1.387 -1.508
13.608 1.3789999 -1.501
6.1863756 1.43075 -1.53425
6.2220836 1.4235001 -1.52575
6.2747002 1.421 -1.5187
6.3261247 1.4165001 -1.515875
6.3889999 1.437 -1.503
6.4329996 1.4054999 -1.5474999
6.4840002 1.4219999 -1.5476668
6.5904999 1.4219999 -1.5469999
6.6529999 1.4170001 -1.549
6.7655001 1.416 -1.5485001
6.8126669 1.4196666 -1.5466669
6.8706665 1.4196666 -1.546
6.9229999 1.4176668 -1.5446666
6.9856672 1.418 -1.5450001
7.0349998 1.4089999 -1.5420001
7.0700002 1.4154999 -1.543
7.1572504 1.4205 -1.5420001
7.2177501 1.4192499 -1.5409999
7.3389997 1.4230001 -1.539
7.5365 1.4205 -1.538
8.0369997 1.413 -1.533
8.1350002 1.4153333 -1.5370001
-23.663 1.732 -1.524
15.907 1.248 -1.5
16.790001 1.229 -1.494
17.469 1.248 -1.493
17.77 1.239 -1.487
18.518 1.226 -1.484
18.972 1.223 -1.487
19.511999 1.224 -1.495
19.887001 1.23 -1.4890001
20.221001 1.232 -1.478
21.011 1.244 -1.462
21.459999 1.234 -1.456
22.091999 1.2309999 -1.46
22.863001 1.235 -1.471
23.18 1.212 -1.451
13.584499 1.2695 -1.4974999
13.755 1.2855 -1.4925001
13.93 1.29 -1.487
14.285999 1.2850001 -1.474
14.486 1.29 -1.469
15.035999 1.273 -1.471
15.4715 1.2825 -1.4865
15.889 1.274 -1.498
16.531 1.268 -1.5
16.827 1.261 -1.497
17.132999 1.2690001 -1.494
17.457001 1.278 -1.492
17.823 1.273 -1.492
18.1735 1.2825 -1.4890001
18.519001 1.275 -1.485
18.944 1.288 -1.485
18.986 1.257 -1.488
19.464001 1.289 -1.492
19.5 1.257 -1.494
19.889 1.283 -1.489
20.209999 1.268 -1.478
20.6005 1.2745 -1.47
21.062 1.284 -1.466
21.483 1.272 -1.4579999
22.066 1.2690001 -1.4579999
22.870001 1.275 -1.471
23.2255 1.275 -1.4535
9.6169996 1.349 -1.495
12.831 1.346 -1.484
13.595 1.306 -1.499
13.752501 1.3334999 -1.4925001
13.914499 1.325 -1.4849999
14.094999 1.3169999 -1.4795001
14.29 1.3355 -1.475
14.511999 1.3305 -1.4714999
14.747 1.314 -1.469
14.773 1.342 -1.472
15.0755 1.3305 -1.4755
15.451 1.322 -1.485
15.8885 1.3175 -1.4985
16.162001 1.326 -1.4960001
16.243 1.332 -1.475
16.837 1.321 -1.498
17.173 1.3329999 -1.4979999
17.48 1.3099999 -1.494
17.511999 1.344 -1.497
17.8295 1.321 -1.4925001
18.17 1.33 -1.489
18.555 1.326 -1.488
18.927 1.319 -1.484
19.416 1.3200001 -1.488
19.886 1.317 -1.489
20.237 1.323 -1.48
20.615999 1.33 -1.471
21.037001 1.3200001 -1.465
21.469 1.348 -1.457
21.516001 1.312 -1.46
22.087 1.3275 -1.46
22.888 1.317 -1.473
23.209 1.336 -1.4529999
9.5257998 1.3798 -1.4852
9.5626669 1.3746667 -1.47
9.6170006 1.3740001 -1.4695001
9.6803341 1.375 -1.4706668
12.798 1.388 -1.4809999
12.819334 1.375 -1.4683332
12.938 1.357 -1.474
13.6 1.355 -1.5
13.758499 1.3824999 -1.4935
13.921 1.375 -1.4859999
14.095 1.355 -1.48
14.102 1.381 -1.4809999
14.293 1.374 -1.475
14.511 1.382 -1.472
14.796 1.383 -1.475
15.085 1.37 -1.477
15.441 1.376 -1.484
15.474 1.352 -1.487
15.861 1.3715 -1.4960001
16.146999 1.354 -1.466
16.158669 1.3733333 -1.4863334
16.844999 1.352 -1.499
17.431 1.368 -1.49
19.525 1.3609999 -1.4630001
19.849001 1.35 -1.487
21.034 1.357 -1.464
6.2059999 1.441 -1.497
6.2834997 1.4414999 -1.4905
6.3243332 1.4413333 -1.4843334
6.3790002 1.446 -1.489
9.5138893 1.4194444 -1.4805555
12.7935 1.4205 -1.4809999
12.813 1.4224999 -1.4605
15.144 1.403 -1.483
6.191072 1.479 -1.4820715
6.2261248 1.47225 -1.4693749
6.2698889 1.4638889 -1.4732223
6.3196669 1.4675001 -1.4628333
6.3683333 1.467 -1.4640001
6.4109998 1.477 -1.461
-20.129999 1.689 -1.474
-20.077 1.719 -1.471
-20.055 1.7539999 -1.469
23.639 1.2359999 -1.438
26.624001 1.21 -1.433
27.177999 1.235 -1.415
23.652 1.278 -1.439
24.136 1.263 -1.426
24.703501 1.2715001 -1.416
25.563999 1.294 -1.421
26.586 1.277 -1.4315
27.171 1.2819999 -1.415
23.698999 1.321 -1.442
24.125 1.304 -1.425
24.162001 1.347 -1.428
24.745001 1.3380001 -1.419
25.569 1.3380001 -1.421
27.176001 1.329 -1.415
12.805 1.3890001 -1.436
12.897 1.399 -1.424
12.919 1.378 -1.449
12.982 1.385 -1.433
16.162001 1.383 -1.439
16.2215 1.374 -1.4300001
16.368999 1.372 -1.428
19.516001 1.395 -1.428
23.664 1.3609999 -1.4400001
9.5247498 1.4233751 -1.43325
9.5690002 1.4365001 -1.4035001
9.623333 1.4070001 -1.4333334
9.6590004 1.424 -1.416
9.7060003 1.431 -1.405
12.788 1.431 -1.4119999
12.811667 1.4186667 -1.4296668
12.898 1.421 -1.401
12.981 1.408 -1.41
16.157751 1.42625 -1.42475
19.646 1.405 -1.403
6.1890001 1.495 -1.449
6.2379999 1.4955001 -1.4425
6.2760005 1.4926 -1.4354
6.3328004 1.49 -1.4358
6.3909998 1.497 -1.434
6.4050002 1.488 -1.449
9.5074444 1.4691111 -1.4294446
12.797 1.477 -1.414
12.809001 1.4633334 -1.4303335
6.1883335 1.5292221 -1.4236666
6.2214546 1.5183636 -1.4254545
6.2810001 1.5153334 -1.4136667
6.3287501 1.51125 -1.40975
6.3740001 1.5105 -1.413
6.4289999 1.5235 -1.4135001
9.4860001 1.5 -1.427
-20.104 1.722 -1.402
-20.08 1.72 -1.4349999
-23.643999 1.772 -1.4400001
-20.110001 1.758 -1.402
-20.071999 1.773 -1.4175
-20.044001 1.788 -1.433
-23.673 1.8155 -1.4215
-19.792 1.8 -1.415
27.339001 1.29 -1.376
27.362 1.3380001 -1.377
16.32 1.397 -1.396
27.365 1.386 -1.377
9.5810003 1.447 -1.388
9.6599998 1.442 -1.3905001
12.82 1.434 -1.393
12.868 1.4400001 -1.376
12.984 1.431 -1.388
16.173 1.4323334 -1.374
16.358999 1.4299999 -1.37
19.506001 1.429 -1.393
19.652 1.4400001 -1.369
9.5225 1.4736249 -1.382375
9.5669994 1.47 -1.3610001
9.6294994 1.4625 -1.3694999
9.6820002 1.462 -1.368
12.8224 1.4664 -1.3758
12.956 1.45 -1.362
16.161251 1.48325 -1.3685
19.475498 1.47825 -1.37375
6.2132502 1.5414999 -1.39275
6.2780008 1.5347143 -1.390143
6.3292003 1.5405999 -1.3780001
6.3726668 1.5356667 -1.3843334
6.4070001 1.536 -1.392
9.4989996 1.535 -1.378
9.510499 1.5181249 -1.3793751
12.799 1.545 -1.37
12.810199 1.5194 -1.3842001
6.1898189 1.5728182 -1.3771818
6.2196364 1.5710001 -1.374
6.2747498 1.5565001 -1.3655
6.3224998 1.55725 -1.3575001
6.3940001 1.5625 -1.3605001
9.4939995 1.5599999 -1.3870001
9.5111427 1.5737144 -1.3785716
-23.67 1.7735 -1.3795
-20.116501 1.7765 -1.3675001
-23.709 1.818 -1.3609999
-19.820999 1.8199999 -1.3824999
-23.721001 1.862 -1.362
-19.808001 1.8710001 -1.382
-23.707001 1.901 -1.362
27.344 1.337 -1.3279999
27.341999 1.385 -1.3279999
27.355 1.432 -1.329
9.5349998 1.4910001 -1.348
9.5500002 1.493 -1.3329999
9.6309996 1.488 -1.344
9.6735001 1.4865 -1.3415
12.8255 1.4809999 -1.3375
12.931499 1.4815 -1.3255
16.16 1.483 -1.3255
16.313999 1.4685 -1.3234999
19.481001 1.497 -1.323
19.607 1.471 -1.331
9.4955006 1.5265 -1.335
9.5200005 1.5216665 -1.3296667
9.566 1.512 -1.319
9.6193333 1.5093334 -1.3143334
12.813112 1.5246665 -1.3252223
16.157 1.526 -1.326
19.478001 1.531 -1.323
6.1870003 1.5935 -1.349
6.2280002 1.5884001 -1.3408
6.273375 1.582875 -1.3340001
6.3208575 1.581 -1.3320001
6.3743339 1.5873334 -1.3276668
6.4160004 1.592 -1.33
9.511445 1.5713333 -1.3296667
12.796 1.579 -1.336
12.814334 1.5780001 -1.3110001
6.1911817 1.6263638 -1.3192728
6.2172222 1.6158891 -1.3256667
6.2709999 1.6120001 -1.3117501
6.3170004 1.6046667 -1.3093333
6.3559999 1.607 -1.301
6.4195004 1.617 -1.3080001
9.5134449 1.6232221 -1.3312222
3.0644 1.6902 -1.3354001
6.1949997 1.6705 -1.3085001
3.0674672 1.7127999 -1.3131335
-19.829 1.82075 -1.3312501
-23.742001 1.863 -1.322
-19.835499 1.874 -1.3315001
-23.767 1.928 -1.3234999
-19.828667 1.9200001 -1.3260001
29.969 1.311 -1.299
27.368999 1.387 -1.2819999
29.969 1.363 -1.299
27.367001 1.433 -1.2819999
29.971001 1.415 -1.299
16.163 1.498 -1.298
27.339001 1.479 -1.281
9.541667 1.5366668 -1.293
9.5939999 1.534 -1.288
9.6534996 1.5345 -1.2875
9.7010002 1.534 -1.285
12.806 1.5386667 -1.2720001
12.887 1.534 -1.2640001
12.916 1.5140001 -1.2785
12.99 1.5 -1.2970001
16.157499 1.526 -1.2835
16.295 1.51 -1.279
19.475 1.53 -1.289
19.584499 1.5220001 -1.2785001
22.750999 1.549 -1.265
9.5177784 1.5725557 -1.2791113
12.799 1.592 -1.257
12.811667 1.5776668 -1.273
16.166 1.56975 -1.284
19.467001 1.5756668 -1.277
6.191 1.6423334 -1.2903333
6.2220001 1.6384 -1.284
6.2737503 1.63325 -1.283875
6.3258753 1.6275001 -1.280375
6.3740005 1.6355 -1.2735
9.5135555 1.6234444 -1.2797779
12.81175 1.628 -1.26975
6.1937146 1.6747142 -1.275143
6.2081342 1.6746 -1.2748668
6.2744999 1.6572499 -1.25875
6.302 1.652 -1.258
9.4980001 1.655 -1.278
9.5229998 1.6784999 -1.28225
12.796 1.66 -1.257
2.9720435 1.7392175 -1.2918695
3.0280006 1.7366338 -1.2855334
3.0693502 1.7353499 -1.2874
6.1960001 1.7220001 -1.2718
2.9691892 1.766973 -1.2660811
3.0194852 1.7603712 -1.2676286
3.0686874 1.7593747 -1.2621249
-19.823999 1.873 -1.279
-23.826 1.911 -1.285
-19.823 1.925 -1.2785001
-23.874001 1.957 -1.2869999
-23.926001 2.0050001 -1.291
27.393999 1.4349999 -1.235
29.952999 1.415 -1.2460001
27.422001 1.484 -1.237
29.993 1.4680001 -1.248
12.957 1.5420001 -1.248
16.268999 1.5369999 -1.249
9.5320005 1.5863333 -1.2416667
12.828501 1.58375 -1.22525
12.877 1.5549999 -1.2410001
12.957001 1.5765001 -1.2145
16.167334 1.5746667 -1.2323334
16.243999 1.563 -1.219
19.452 1.598 -1.219
19.570999 1.572 -1.226
22.743999 1.587 -1.225
26.198 1.554 -1.227
6.3260002 1.647 -1.25
9.5216675 1.6247778 -1.2295556
12.81 1.62775 -1.224
16.173 1.6275001 -1.2279999
19.464001 1.6339999 -1.22
6.1829996 1.6784999 -1.2425001
6.2217774 1.6878889 -1.2292223
6.2731004 1.6799999 -1.2292999
6.3197498 1.6746252 -1.2268751
6.3691669 1.6763334 -1.2263334
6.4380002 1.676 -1.249
9.514555 1.674889 -1.2297779
12.815499 1.6745 -1.225
16.165001 1.6695 -1.2279999
6.1956 1.717 -1.2248
6.2075834 1.7262501 -1.2246667
6.2540002 1.71 -1.205
6.3099999 1.702 -1.2029999
9.5160007 1.7244287 -1.2260002
2.9266672 1.7904001 -1.2394668
2.9776669 1.7897408 -1.2369257
3.0261176 1.7857648 -1.233853
3.0658123 1.7823125 -1.2301873
3.1138 1.791 -1.243
6.1942 1.7678 -1.2227999
-0.13475002 1.8453929 -1.2156073
-0.023018345 1.8368989 -1.2274587
0.004173913 1.8359132 -1.220739
0.11758333 1.8463334 -1.2098333
0.28257143 1.8455715 -1.2081429
2.9732943 1.8116765 -1.2157059
3.0243332 1.8081332 -1.2125334
3.0710001 1.806875 -1.210875
-23.76 1.948 -1.24
-19.856001 1.9450001 -1.211
-19.828335 1.9196666 -1.2326667
-23.764 1.9910001 -1.24
-23.818001 2.039 -1.201
-23.778999 2.0350001 -1.2410001
-23.825001 2.0810001 -1.202
29.968 1.467 -1.194
29.995001 1.521 -1.1950001
16.204 1.5880001 -1.187
22.812 1.592 -1.189
29.959999 1.5700001 -1.194
12.81975 1.6290001 -1.17975
16.161499 1.6265 -1.1700001
19.474001 1.635 -1.186
19.525002 1.6215 -1.1725
19.620001 1.612 -1.161
22.750999 1.6289999 -1.186
22.874001 1.638 -1.152
26.240999 1.603 -1.184
6.3330002 1.696 -1.1950001
6.3569999 1.691 -1.199
9.5225554 1.6764444 -1.1793333
12.8145 1.67425 -1.1795001
16.157001 1.6786666 -1.1753334
19.4825 1.67 -1.1700001
6.2170711 1.7316431 -1.1836429
6.2734542 1.7236364 -1.1763637
6.3265004 1.724 -1.171625
6.362 1.7228001 -1.1681999
6.4120002 1.729 -1.175
9.4989996 1.724 -1.178
9.5167503 1.7267501 -1.17975
12.8205 1.72075 -1.18075
16.173 1.7183332 -1.1670001
3.0580001 1.7970001 -1.197
6.1937499 1.7689999 -1.17125
6.2090559 1.773389 -1.1762222
9.5186243 1.777125 -1.1811249
-0.11286365 1.8414094 -1.1900455
-0.069400005 1.8404194 -1.1794003
-0.048666671 1.8412224 -1.1704444
0.046999998 1.848 -1.1675
0.087500013 1.8437502 -1.1618502
0.10913045 1.8436958 -1.1815652
0.23982351 1.8437059 -1.1624118
0.26204002 1.84224 -1.1821599
2.9333465 1.8371923 -1.1853079
2.9740856 1.8342001 -1.1825143
3.0249784 1.8307396 -1.1802175
3.0710828 1.8280555 -1.1793057
3.1117501 1.83275 -1.191
6.1960001 1.8143333 -1.1730001
6.210084 1.8225001 -1.17275
-0.16263156 1.8897893 -1.1636579
-0.12156642 1.8780977 -1.1725804
-0.078387126 1.8706712 -1.1738775
-0.03038807 1.8741193 -1.1768658
0.032190461 1.8734758 -1.1817737
0.072626516 1.873337 -1.173036
0.12498602 1.8734899 -1.1742375
0.16279684 1.8789843 -1.1811407
0.2350513 1.8631537 -1.1692051
0.27015477 1.8734764 -1.1804286
0.32736364 1.8948183 -1.1747272
2.9752221 1.8580554 -1.1608889
3.0204999 1.8552999 -1.1576999
3.0666671 1.8565001 -1.158
3.1331112 1.8657777 -1.1682223
-23.781 1.993 -1.199
-23.924999 2.026 -1.1645
-23.931 2.0899999 -1.165
-23.931999 2.132 -1.165
29.976999 1.52 -1.142
29.979 1.571 -1.142
16.167 1.641 -1.128
19.610001 1.647 -1.126
26.167999 1.645 -1.135
29.486 1.647 -1.124
29.971001 1.623 -1.142
12.824201 1.6782 -1.1286
16.171 1.67 -1.1289999
19.504 1.6720001 -1.12
22.742001 1.668 -1.146
22.832001 1.675 -1.11
6.25 1.744 -1.148
6.3239999 1.747 -1.1424999
6.3740001 1.749 -1.1395
9.5218887 1.7281111 -1.1292224
12.819667 1.7206668 -1.1238334
16.167 1.7130001 -1.1285
19.477501 1.721 -1.1185
6.1849999 1.796 -1.105
6.2245717 1.7787144 -1.1316428
6.2767501 1.7754999 -1.124625
6.3262229 1.7695557 -1.1226667
6.3607502 1.7727499 -1.11475
9.5222216 1.7801111 -1.1302222
12.815166 1.7660002 -1.124
16.164499 1.7695 -1.1285
-0.116 1.8458 -1.1054
-0.077045448 1.8454092 -1.1113182
-0.031869564 1.8443478 -1.1110436
0.029999999 1.845 -1.1059999
0.083769232 1.8383079 -1.1418463
0.12633334 1.8473333 -1.1203334
0.19333331 1.8438333 -1.1116667
0.22247368 1.8413862 -1.1305963
0.252 1.8454001 -1.1424
3.0310001 1.8435 -1.1425
3.0640001 1.8446667 -1.1426667
6.1989999 1.806 -1.1305
6.2168126 1.8262501 -1.1257501
9.5201664 1.8236666 -1.1308334
-0.16207144 1.8745718 -1.117893
-0.12173786 1.8728837 -1.1199901
-0.074596584 1.8702266 -1.1196082
-0.028949596 1.8724623 -1.1162523
0.029190458 1.8744056 -1.1296309
0.077394359 1.8781271 -1.1325068
0.121781 1.8720002 -1.1259526
0.17553222 1.8781773 -1.1166452
0.22525601 1.8777442 -1.1252962
0.2577292 1.8864373 -1.1289377
0.33700001 1.8855555 -1.1137779
0.36619052 1.8849049 -1.1177857
0.41957149 1.8940001 -1.1210001
0.47200003 1.8956667 -1.110889
2.9323711 1.8861431 -1.1328857
2.9765315 1.8809358 -1.1298723
3.0267437 1.8755814 -1.1291395
3.0720794 1.8763419 -1.124842
3.1220002 1.8873999 -1.1332
6.197 1.8940001 -1.1109999
6.2114735 1.8750525 -1.1267896
-0.16800001 1.9186 -1.1232499
-0.11858332 1.9060835 -1.1140834
-0.08366666 1.9088889 -1.1056668
-0.0088823522 1.9090294 -1.1181176
0.012875001 1.9143751 -1.1330178
0.087216236 1.9183517 -1.1337702
0.12828356 1.9115373 -1.1253285
0.17010204 1.9184486 -1.1211631
0.23172733 1.9080001 -1.124891
0.27518889 1.9217772 -1.1207777
0.32224241 1.9189544 -1.1231669
0.37590697 1.914802 -1.1197095
0.42222032 1.9159132 -1.1217557
0.47366977 1.9153845 -1.1241518
0.52908343 1.930861 -1.1258332
0.56042856 1.9434286 -1.1222857
0.6278404 1.9303621 -1.1242765
0.67813343 1.9415667 -1.128867
0.70461541 1.9446155 -1.1183077
0.82121623 1.941919 -1.1241353
0.87601262 1.9388123 -1.1278501
0.9139998 1.9406483 -1.1258703
2.9788184 1.9044546 -1.107091
3.03 1.9056 -1.1086
3.0845001 1.902 -1.1015
3.12925 1.9070001 -1.1135
0.366 1.956 -1.1128
0.43733335 1.9546669 -1.103
-23.943001 2.0910001 -1.124
-23.948999 2.1340001 -1.124
-23.964001 2.177 -1.125
29.964001 1.5700001 -1.089
29.995001 1.624 -1.091
16.160336 1.6886667 -1.09
19.594999 1.6799999 -1.091
26.163 1.691 -1.089
29.483999 1.699 -1.072
29.986 1.675 -1.09
16.161999 1.7265 -1.0855
19.483 1.7215 -1.0845001
19.589001 1.714 -1.056
22.777 1.7305 -1.0680001
6.2845001 1.7950001 -1.0975001
6.342 1.788 -1.089
6.3619995 1.7876667 -1.0943334
9.5192223 1.7794443 -1.0785557
12.811 1.7655001 -1.0667499
16.145 1.753 -1.0700001
16.157001 1.7733333 -1.0906668
19.476501 1.7725 -1.0675
-0.15566668 1.8460001 -1.0933335
-0.11974999 1.8446251 -1.0951251
-0.078142859 1.8444288 -1.0967144
-0.028166667 1.8436668 -1.0978334
0.1125 1.8455 -1.095
0.18771428 1.8405715 -1.0945715
6.197 1.8226666 -1.0883334
6.2153335 1.8290833 -1.0783334
6.2748179 1.822 -1.0737274
6.3298898 1.8156667 -1.0716666
6.3705001 1.814 -1.062
9.5181675 1.8233333 -1.0795001
12.817 1.8236668 -1.0680001
16.1635 1.8255 -1.0725
-0.15799999 1.8820002 -1.0808612
-0.12939771 1.8785002 -1.0894434
-0.07156197 1.8841983 -1.0750827
-0.031000001 1.8781121 -1.0750407
0.027289463 1.8704035 -1.0680528
0.070636354 1.8769181 -1.0770091
0.12365416 1.8771657 -1.0763011
0.1805454 1.8815758 -1.0831012
