# .PCD v0.7 - Point Cloud Data file format
VERSION 0.7
FIELDS x y z
SIZE 4 4 4
TYPE F F F
COUNT 1 1 1
WIDTH 1639
HEIGHT 1
VIEWPOINT 0 0 0 1 0 0 0
POINTS 1639
DATA ascii
0.078500003 -7.4949999 -1.3940001
0.1245 -7.4990001 -1.395
0.184 -7.4876671 -1.393
0.02 -7.4414997 -1.3975
0.071499996 -7.4382501 -1.39675
0.12325 -7.4264998 -1.3945
0.17549999 -7.4229999 -1.3940001
0.02 -7.3794999 -1.3995
0.072666667 -7.3713336 -1.3976667
0.1225 -7.3722501 -1.398
0.17424999 -7.3654995 -1.397
0.082499996 -7.3150001 -1.4
0.1215 -7.3095002 -1.39925
0.17033333 -7.3073339 -1.399
0.171 -7.2434998 -1.4
0.12100001 -7.1786666 -1.4
0.16700003 -7.1626663 -1.3970001
0.14300001 -7.1094999 -1.3995
0.1865 -7.1040001 -1.3985
0.12900001 -7.0510001 -1.4
0.161 -7.0999999 -1.397
0.13500001 -7.046 -1.399
0.185 -7.04 -1.399
0.21799999 -6.9219999 -1.4
0.071000002 -6.8629999 -1.4
0.12105002 -4.2177501 -1.3600999
0.17233333 -4.2193332 -1.3582002
0.22331251 -4.2261248 -1.3594375
0.27399999 -4.2245793 -1.3577893
0.12788236 -4.1688819 -1.3668234
0.17355001 -4.1766505 -1.3642
0.2244 -4.1765499 -1.3636001
0.27558821 -4.1750588 -1.3626472
0.12184617 -4.1209998 -1.3686154
0.17661111 -4.1246109 -1.3696667
0.22537501 -4.1256876 -1.36675
0.27511767 -4.1264119 -1.366294
0.12828572 -4.0761905 -1.373
0.17511111 -4.0727777 -1.3730555
0.2236667 -4.0752859 -1.3709524
0.27342105 -4.0750527 -1.3708421
0.12173334 -4.0274334 -1.3848668
0.17457144 -4.0287504 -1.3838214
0.22309381 -4.0279369 -1.3841562
0.27293101 -4.0320344 -1.3829657
0.36300001 1.8452501 -1.3577501
0.27464405 1.8871187 -1.36839
0.31556249 1.895 -1.3625
0.37092862 1.8721715 -1.3659143
0.40833336 1.8901666 -1.3603333
0.28278574 1.9070002 -1.3889288
0.33146152 1.9149851 -1.3807693
0.36297616 1.9195949 -1.3700713
0.42790914 1.9231818 -1.3777272
0.46782544 1.9326035 -1.3711907
0.44499999 1.954 -1.365
0.46448714 1.9605129 -1.3730767
0.62466669 9.2866669 -1.3826668
0.53200006 9.335001 -1.3668334
0.579 9.3444996 -1.3659999
0.62720007 9.3268003 -1.3756001
0.47600001 9.3636665 -1.3763332
0.53049999 9.3594999 -1.3845
0.5794 9.3559999 -1.3828001
0.64600003 9.3669996 -1.362
0.66500002 9.3940001 -1.399
0.66799998 9.4359999 -1.3890001
0.50400007 9.4750004 -1.3756666
0.68000001 9.6160002 -1.381
0.67733335 9.6593332 -1.3583335
-0.12600002 -12.705667 -1.342
-0.082000002 -12.701 -1.327
-0.0265 -12.716 -1.3279999
0.017999999 -12.716 -1.3285
-0.059999999 -12.689 -1.326
0.0070000002 -12.664 -1.301
0.021666666 -10.165333 -1.3123333
0.07433334 -10.186 -1.3150001
0.12766668 -10.180334 -1.3143334
-0.031333335 -10.145667 -1.3096666
-0.031333335 -10.062668 -1.3166667
0.090000004 -10.063 -1.335
0.12566668 -10.061 -1.3343334
-0.031500001 -10.025 -1.3385
0.021000002 -10.021999 -1.3201668
0.069600001 -10.023399 -1.3188
0.12566668 -10.030001 -1.3123333
-0.022500001 -9.9939995 -1.3255
0.11800001 -4.6092 -1.347
0.11066666 -4.5725002 -1.3475001
0.108 -4.5320001 -1.3455
0.107 -4.4899998 -1.337
0.113 -4.414 -1.3143334
0.1075 -4.3629999 -1.3115001
0.1085 -4.3325 -1.3105
0.1105 -4.2706432 -1.315143
0.12554052 -4.2275944 -1.3289464
0.17509525 -4.2229991 -1.3264289
0.22607321 -4.2241468 -1.3257805
0.27521625 -4.2331891 -1.3234863
0.37900001 1.8465999 -1.3372
0.40799999 1.849 -1.313
0.27668613 1.8784013 -1.3271241
0.32308003 1.8803736 -1.3212136
0.38210931 1.8779746 -1.325513
0.41307405 1.8715185 -1.3186293
0.33301851 1.9144629 -1.3157035
0.37326753 1.9110423 -1.3252251
0.42658824 1.9123528 -1.3182353
0.47638094 1.9659523 -1.3221904
0.60833335 9.2876663 -1.3329999
0.51700002 9.3374996 -1.327
0.58100003 9.3382864 -1.3237145
0.62200004 9.3310003 -1.3226666
0.54039997 9.3608007 -1.3230001
0.57099998 9.3544998 -1.326
0.64166665 9.3793335 -1.33
0.50300002 9.4580002 -1.34
0.67199999 9.6740007 -1.3178573
0.028999999 -12.659 -1.3
-0.103 -12.604 -1.294
-0.07 -12.6115 -1.295
-0.026000001 -12.6165 -1.2955
0.028999999 -12.611 -1.273
0.0726 -12.6196 -1.2738
-0.07 -12.5795 -1.27
-0.026000001 -12.593 -1.2715
0.0070000002 -12.583 -1.27
-0.039999999 -10.231001 -1.2755001
0.039000001 -10.216 -1.283
0.074500002 -10.2065 -1.2815
0.12799999 -10.2075 -1.2819999
-0.048999999 -10.183 -1.278
0.022 -10.19 -1.279
0.074000001 -10.179501 -1.2690001
0.12800001 -10.194 -1.28
-0.031333335 -10.132334 -1.29
0.017250001 -10.13325 -1.28575
0.074000001 -10.137 -1.2906667
0.12733334 -10.146667 -1.2916667
0.13624999 -4.4162502 -1.288
0.15933333 -4.4043331 -1.2596667
0.13433334 -4.3623333 -1.2826667
0.15450001 -4.3804998 -1.2635
0.133 -4.3175001 -1.281
0.15400001 -4.3276668 -1.2590001
0.1355 -4.2636433 -1.2823571
0.15814286 -4.2612858 -1.2621429
0.14016667 -4.2353334 -1.2948334
0.17559093 -4.2242951 -1.2765455
0.22630435 -4.2205215 -1.2745216
0.27448383 -4.2254834 -1.275645
0.3125 1.8485 -1.29
0.32075828 1.882781 -1.2775823
0.37233335 1.891346 -1.2765186
0.4220244 1.8759924 -1.2760162
0.45375001 1.8835 -1.2704999
0.32424605 1.9120924 -1.2801077
0.37497142 1.9187714 -1.2763859
0.41533712 1.9222474 -1.2751573
0.48008341 1.9308611 -1.2793611
0.39700001 1.952 -1.2815
0.40644446 1.9531111 -1.2841111
0.48166668 1.9688852 -1.2734252
0.59200001 9.29 -1.2585001
0.49650002 9.3430004 -1.2655001
0.51300001 9.3479996 -1.274
0.58200002 9.3312502 -1.2767501
0.611 9.3325005 -1.2815
0.49700001 9.3549995 -1.2920001
0.53262496 9.3638754 -1.2768749
0.56300008 9.3619995 -1.2770001
0.62433332 9.373333 -1.279
0.64700001 9.6300001 -1.271
0.67649996 9.6849995 -1.2869999
0.67380005 9.7237997 -1.265
0.021666666 -12.603667 -1.2353334
0.067999996 -12.613601 -1.2332
-0.069833338 -12.580833 -1.2256666
-0.026000001 -12.589 -1.2263334
0.014333333 -12.580001 -1.2179999
0.072666667 -12.591 -1.2120001
-0.102 -12.55 -1.223
0.175 -4.4180002 -1.2410001
0.207 -4.4369998 -1.206
0.18566668 -4.375 -1.224
0.20449999 -4.3865004 -1.204
0.17918181 -4.3239999 -1.2310909
0.20100001 -4.3189998 -1.206
0.18120003 -4.2730007 -1.2337335
0.20662501 -4.2729998 -1.209875
0.1899091 -4.2278185 -1.2369092
0.22665851 -4.2216582 -1.2252195
0.27423817 -4.2204523 -1.2263573
0.3200224 1.889742 -1.2267529
0.37154713 1.8923585 -1.2236792
0.43156829 1.8841588 -1.2345457
0.32589883 1.9124047 -1.2199777
0.37099108 1.918018 -1.2215357
0.42304894 1.9235386 -1.2230628
0.47979715 1.9348842 -1.2188408
0.38452178 1.9675649 -1.2157829
0.41432554 1.9639537 -1.2179768
0.47234213 1.9642892 -1.2347106
0.47499999 2.0050001 -1.2029999
0.57599998 9.2989998 -1.219
0.58525002 9.3170004 -1.22525
0.498 9.3616676 -1.2263334
0.53144443 9.3786669 -1.228889
0.5715 9.3647499 -1.22325
0.61400002 9.3850002 -1.2385
0.61749995 9.4379997 -1.212
0.63599998 9.7194996 -1.214
0.65433335 9.7346678 -1.2246666
0.67900002 9.7726669 -1.2410001
0.68624997 9.8290005 -1.2194999
0.69700003 9.8579998 -1.206
-0.069499999 -12.516 -1.175
-0.015 -12.511 -1.175
0.021666666 -12.514999 -1.1676667
0.075999998 -12.5198 -1.1670001
-0.037 -12.496 -1.173
0.0070000002 -12.494 -1.151
0.050000001 -12.496 -1.151
0.255 -4.4619999 -1.155
0.229625 -4.4242501 -1.1765
0.25299999 -4.427 -1.154
0.22811113 -4.3783331 -1.1771111
0.25099999 -4.3870001 -1.152
0.22707142 -4.325572 -1.1771429
0.22670589 -4.2777648 -1.1825883
0.2525 -4.2627497 -1.15675
0.23933335 -4.2294998 -1.1854999
0.27507147 -4.2220955 -1.1729523
0.32382497 -4.2239003 -1.1759249
0.32736364 1.8948183 -1.1747272
0.36625001 1.893625 -1.18625
0.32614481 1.9211512 -1.1770064
0.37466082 1.9236966 -1.1713928
0.42541233 1.9305878 -1.1748142
0.47793335 1.9250956 -1.1758761
0.32088128 1.9651361 -1.1725931
0.38439998 1.9618 -1.1946
0.42519999 1.9549999 -1.1854
0.46674472 1.9678297 -1.1867234
0.31900001 2.0079999 -1.196
0.46700001 2.003 -1.189
0.32133335 2.7321668 -1.1563333
0.32300001 2.8688335 -1.179
0.5776667 9.3336668 -1.174
0.52899998 9.3852863 -1.1842858
0.57660002 9.3676004 -1.1811999
0.5205 9.4037495 -1.16975
0.60000002 9.4274998 -1.1605
0.634 9.6920004 -1.1849999
0.63599998 9.7210007 -1.1625
0.65600002 9.7559996 -1.193
0.66949999 9.8414993 -1.186
0.67720002 9.8755999 -1.169
0.70300001 9.9510002 -1.182
-0.059 -12.514 -1.131
-0.037 -12.503 -1.13
0.021666666 -12.511667 -1.1233335
0.071999997 -12.516001 -1.1201667
-0.071599998 -12.4824 -1.1284001
-0.023800001 -12.489 -1.1286
0.0070000002 -12.49 -1.107
0.27540001 -4.4131999 -1.1220999
0.249 -4.3520002 -1.15
0.27340001 -4.3806 -1.126
0.27318752 -4.3279381 -1.12375
0.2747778 -4.275167 -1.1269444
0.303 -4.2529998 -1.102
0.2839444 -4.2323895 -1.1328334
0.32208693 -4.2214565 -1.1256304
0.33700001 1.8855555 -1.1137779
0.36619052 1.8849049 -1.1177857
0.41957149 1.8940001 -1.1210001
0.47200003 1.8956667 -1.110889
0.32224241 1.9189544 -1.1231669
0.37590697 1.914802 -1.1197095
0.42222032 1.9159132 -1.1217557
0.47366977 1.9153845 -1.1241518
0.33400002 1.9561249 -1.1413749
0.366 1.956 -1.1128
0.43733335 1.9546669 -1.103
0.32800001 2.6489999 -1.126
0.32620001 2.6876004 -1.1403999
0.33636367 2.7306821 -1.1273638
0.35299999 2.72525 -1.104
0.33690479 2.7765238 -1.1312858
0.35316667 2.776 -1.1056666
0.3409231 2.8205388 -1.1290001
0.35624999 2.8300002 -1.1092501
0.34149998 2.8594999 -1.14
0.35799998 2.8755 -1.11975
0.56199998 9.3450003 -1.142
0.54799998 9.3955002 -1.1395
0.57320005 9.3675995 -1.1248001
0.51961535 9.4202309 -1.125
0.56650001 9.4219999 -1.1015
0.60299999 9.474 -1.133
0.60799998 9.5469999 -1.1160001
0.61299998 9.6330004 -1.109
0.639 9.7729998 -1.143
0.64700001 9.8940001 -1.14
0.67299998 9.8902502 -1.1259999
0.64899999 9.9250002 -1.126
0.66600007 9.9180012 -1.1130002
0.70899999 10.036 -1.103
0.050999999 -12.504 -1.086
-0.057999998 -12.456 -1.082
-0.026000001 -12.457 -1.082
0.017999999 -12.481501 -1.084
0.082499996 -12.499001 -1.086
-0.071999997 -12.419001 -1.0643333
-0.0255 -12.4115 -1.0565
0.017999999 -12.419 -1.057
0.071666665 -12.433001 -1.0583334
0.31099999 -4.4790001 -1.094
0.29899999 -4.4229999 -1.096
0.31733334 -4.4219999 -1.0746667
0.2965 -4.3765001 -1.097
0.31836364 -4.3790002 -1.0721818
0.29899999 -4.3099999 -1.1
0.31761542 -4.3228464 -1.0734615
0.29699999 -4.2750001 -1.099
0.32162499 -4.2753749 -1.0748127
0.3324483 -4.2321033 -1.080862
0.32790715 1.8776804 -1.0744432
0.373254 1.8882065 -1.0758253
0.41742858 1.8952861 -1.0821429
0.47665212 1.8951302 -1.0771738
0.32463643 1.9150909 -1.0804547
0.37829629 1.9207157 -1.07821
0.42627963 1.9259444 -1.0767641
0.47392181 1.9187173 -1.073343
0.39059094 1.9605457 -1.0682273
0.42929575 1.9665065 -1.0634646
0.45885715 1.9585 -1.0614287
0.4226 2.0044 -1.0542001
0.47966668 2.3899999 -1.0623333
0.4856765 2.4247355 -1.0646471
0.51170009 2.4387 -1.0644001
0.44400001 2.477 -1.051
0.48599997 2.4619377 -1.0587499
0.51480001 2.4707665 -1.0612001
0.45666668 2.5268335 -1.0631667
0.52200001 2.5079999 -1.0599999
0.43606669 2.580267 -1.0702667
0.45877782 2.5722222 -1.0684444
0.38410002 2.6294 -1.0576
0.43400005 2.624625 -1.073125
0.46038091 2.6231427 -1.0801905
0.34900001 2.664 -1.095
0.37909093 2.6781363 -1.0645001
0.42387316 2.6762538 -1.0718871
0.46374997 2.6763749 -1.08425
0.37360004 2.7282572 -1.0741714
0.40933338 2.7182777 -1.0646111
0.46651852 2.7245555 -1.0786668
0.37438229 2.7751179 -1.074706
0.40642104 2.7750525 -1.0654739
0.47353849 2.7691541 -1.0818462
0.37682354 2.8175297 -1.0758235
0.4059 2.8253 -1.0604999
0.38424999 2.8617501 -1.08125
0.41 2.8740001 -1.06725
0.56400001 9.3806667 -1.0796667
0.52225 9.4424992 -1.0782499
0.5636 9.4320002 -1.0722001
0.51599997 9.4635992 -1.0656
0.58499998 9.46 -1.056
0.61400002 9.6490002 -1.094
0.61699998 9.6999998 -1.0829999
0.64899999 9.934 -1.074
0.65980005 9.9306002 -1.0738
0.68700004 9.9729996 -1.087
0.68900001 10.003 -1.064
0.72533333 10.020834 -1.075
-0.057999998 -12.402 -1.012
-0.035999998 -12.415 -1.013
0.022 -12.416334 -1.0203333
0.071500003 -12.422333 -1.0246667
-0.078999996 -12.37425 -1.02575
-0.022 -12.394 -1.026
0.0070000002 -12.392 -1.033
0.32375178 1.8824676 -1.0276058
0.35615 1.8889 -1.02915
0.49225 1.89375 -1.0239999
0.32791668 1.9207268 -1.0221903
0.37330776 1.9309134 -1.0222787
0.42013523 1.9398109 -1.0272434
0.48217198 1.9278386 -1.0348494
0.34099999 1.9525001 -1.0115
0.37830234 1.96307 -1.0146511
0.42721549 1.9674566 -1.0231122
0.4752115 1.9703814 -1.0288535
0.43567571 2.0220809 -1.011919
0.47856343 2.0246763 -1.023366
0.5162968 2.0243747 -1.0138282
0.43786213 2.0739999 -1.0061725
0.47704411 2.0742505 -1.0229118
0.5104081 2.0710816 -1.0122855
0.44092861 2.1257143 -1.0047858
0.4761945 2.1244302 -1.0207084
0.50705719 2.1237144 -1.0099429
0.43566665 2.1813333 -1.0023334
0.47606415 2.1734996 -1.0156922
0.50418746 2.1707499 -1.0073125
0.44299999 2.2309999 -1.006
0.47706148 2.2222309 -1.0132923
0.50400001 2.2390001 -1.0039999
0.44850001 2.2810001 -1.0150001
0.47775 2.2694683 -1.0157187
0.43933332 2.322 -1.0063334
0.47653848 2.3180771 -1.0270771
0.51914287 2.3284287 -1.0068572
0.43633336 2.3600001 -1.0116667
0.48216665 2.3610001 -1.0361667
0.51880002 2.3706 -1.0152
0.44800001 2.448 -1.044
0.47027862 2.4306226 -1.0218362
0.46924999 2.469841 -1.0283409
0.52423328 2.4662838 -1.0211
0.46213049 2.522826 -1.0215652
0.46614996 2.5775497 -1.0202501
0.46911108 2.6246109 -1.0167779
0.43330353 2.6779997 -1.0274822
0.46210003 2.6735671 -1.0179666
0.4262895 2.7235794 -1.0256052
0.46685714 2.7184286 -1.0365715
0.42288238 2.7744122 -1.0277351
0.42186207 2.8222759 -1.0251724
0.42950004 2.870667 -1.0190001
0.56224996 9.4300003 -1.0352499
0.51999998 9.4821663 -1.0326667
0.56919998 9.4764004 -1.0204
0.588 9.5100002 -1.011
0.60899997 9.5745001 -1.043
0.611 9.6020002 -1.0125
0.64700001 9.9040003 -1.018
0.66600001 9.9169998 -1.02
0.7015 9.9274998 -1.012
0.67275 9.95825 -1.0369999
0.72200006 9.9726667 -1.026
0.73033333 10.006334 -1.0413333
-0.015 -12.401 -0.99000001
0.028999999 -12.404 -0.99000001
0.071500003 -12.4165 -0.99150002
-0.079000004 -12.382 -0.98866671
-0.035999998 -12.389 -0.98900002
0.015000001 -12.375334 -0.97366667
0.071000002 -12.383501 -0.97250003
0.114 -12.38 -0.96700001
-0.0255 -12.341 -0.96350002
0.32455555 1.9341667 -0.97962046
0.37052459 1.939574 -0.97986895
0.40700001 1.940125 -0.99412507
0.3226237 1.9719503 -0.97205961
0.37175253 1.9696289 -0.97814435
0.41018519 1.9736296 -0.99355549
0.37487149 2.0248282 -0.96921444
0.41302505 2.0253503 -0.99330008
0.37471929 2.0758598 -0.96691221
0.41508573 2.076143 -0.99077135
0.37675998 2.1249399 -0.96547997
0.4185909 2.1261597 -0.99020469
0.37897825 2.1734571 -0.96408695
0.41904551 2.1731367 -0.98759115
0.38061106 2.2229173 -0.96238887
0.41924998 2.2248497 -0.98570013
0.49600005 2.2285717 -0.99828577
0.52479756 2.2255473 -0.97851211
0.38181818 2.2715454 -0.96133333
0.41682142 2.2685716 -0.98278576
0.49313337 2.2646003 -0.99573338
0.52596974 2.2718785 -0.97512138
0.37654549 2.3255455 -0.96254551
0.41399997 2.3212221 -0.98711121
0.38 2.3529999 -0.97100002
0.40000001 2.3740001 -0.99000001
0.48328993 2.4298699 -0.97702891
0.51793474 2.4394567 -0.9694131
0.47638237 2.4755588 -0.97529423
0.53287506 2.4600935 -0.98284382
0.47824249 2.5259697 -0.97445452
0.47987998 2.5736399 -0.97464001
0.48132142 2.6264291 -0.97653568
0.44508335 2.6764169 -0.98533332
0.46958447 2.6745713 -0.97401297
0.44382355 2.725647 -0.98688239
0.45599997 2.7219472 -0.96184218
0.44161901 2.773905 -0.98757154
0.45475 2.7705836 -0.96150011
0.44165 2.8245003 -0.98484993
0.45418745 2.8245623 -0.96168756
0.44400001 2.8656669 -0.99000001
0.454 2.8570001 -0.963
0.56433338 9.4870005 -0.98600006
0.53100002 9.5380001 -0.99650002
0.57266665 9.5333338 -0.97966671
0.58325005 9.566 -0.96624994
0.56 9.6000004 -0.95300001
0.61199999 9.6140003 -0.98799998
0.61450005 9.6610003 -0.96749997
0.63549995 9.7199993 -0.97350001
0.63700002 9.7539997 -0.95099998
0.65700001 9.7805004 -0.9795
0.66849995 9.8249998 -0.96700001
0.68000001 9.8745003 -0.98049998
0.7015 9.9309998 -0.97750002
0.71249998 9.9629993 -0.972
0.72600001 10.029 -0.97000003
0.73699999 10.437 -0.963
0.62400001 10.553751 -0.96399999
-0.014 -12.309 -0.94
0.0185 -12.307751 -0.92875004
0.07100001 -12.316001 -0.92949998
0.12450001 -12.33025 -0.93050003
-0.028666666 -12.289332 -0.92399997
0.33180001 1.9382001 -0.94340003
0.33148646 1.9798108 -0.94351351
0.32949999 2.0246055 -0.94057888
0.32931253 2.0750418 -0.93935418
0.35139999 2.0796001 -0.94919997
0.3286604 2.1245286 -0.93611318
0.35257143 2.1297145 -0.94657147
0.35622224 2.1764443 -0.94588882
0.35520002 2.2251 -0.94539994
0.35850006 2.2742858 -0.94528568
0.35433334 2.3156667 -0.94733334
0.34200001 2.352 -0.949
0.49225003 2.4260421 -0.93395841
0.51838952 2.433208 -0.92488307
0.49234611 2.4725003 -0.93496156
0.52852374 2.4702699 -0.91552383
0.49352175 2.5255215 -0.93199998
0.52127588 2.5190003 -0.90589666
0.49418181 2.5745909 -0.93231827
0.51592857 2.5736427 -0.90642864
0.493375 2.6240625 -0.9379375
0.50560004 2.6252666 -0.9124667
0.48172227 2.6768613 -0.94013882
0.50500005 2.678143 -0.91300011
0.48044831 2.7247241 -0.93910354
0.50493753 2.7287502 -0.91581249
0.47772729 2.7730906 -0.9411515
0.50639999 2.7735 -0.9188
0.47386366 2.8246365 -0.94059086
0.51349998 2.8295 -0.92649996
0.48249999 2.8735001 -0.94799995
0.57300001 9.5430002 -0.94700003
0.57550001 9.5815001 -0.92499995
0.59533334 9.6276665 -0.92133331
0.57099998 9.6520004 -0.92400002
0.61549997 9.677 -0.93499994
0.55949998 9.7444992 -0.9325
0.61799997 9.7119999 -0.91299999
0.63866669 9.7733335 -0.91866672
0.55500001 9.8260002 -0.92299998
0.65966672 9.828001 -0.92400002
0.55900002 9.8850002 -0.91100001
0.68099999 9.8830004 -0.94700003
0.57700002 9.8999996 -0.93000001
0.68299997 9.9155006 -0.9235
0.70499998 9.9870005 -0.93900001
0.565 10.004 -0.90499997
0.72166669 10.437834 -0.92950004
0.68300003 10.454 -0.92799997
0.72049999 10.4615 -0.91000003
0.63200003 10.542 -0.926
0.65733337 10.538668 -0.92266667
0.61500001 10.5585 -0.92699999
0.68300003 10.56 -0.91833341
0.114 -12.355 -0.89999998
-0.014 -12.3095 -0.88600004
0.015000001 -12.317335 -0.88966674
0.075200006 -12.330001 -0.88940001
0.12766668 -12.337667 -0.884
-0.035999998 -12.285 -0.884
0.028999999 -12.292 -0.87400001
0.050000001 -12.3 -0.87400001
0.13500001 -12.274 -0.85100001
0.51066673 2.4319999 -0.89999998
0.51350009 2.4769287 -0.89671433
0.52021432 2.5291429 -0.89446431
0.52425003 2.5748608 -0.89138889
0.52702439 2.6195364 -0.88690227
0.52613634 2.6733866 -0.88331825
0.52747226 2.724333 -0.87799996
0.52552778 2.7718055 -0.87622219
0.5255 2.812 -0.87975001
0.59799999 9.6859999 -0.89300001
0.61900002 9.7379999 -0.898
0.62 9.7530003 -0.88200003
0.625 9.8290005 -0.889
0.66399997 9.8929996 -0.89499998
0.56599998 10.024 -0.889
0.56999999 10.0825 -0.86750001
0.71899998 10.449 -0.89099997
0.7385 10.4635 -0.88300002
0.63200003 10.542999 -0.889
0.67000002 10.546499 -0.88950002
0.61925 10.55575 -0.87575001
0.66733336 10.557167 -0.87450004
0.092 -12.255 -0.85000002
0.1235 -12.2575 -0.83899999
-0.022400001 -12.217 -0.82980007
0.022857143 -12.22143 -0.82271427
0.07100001 -12.236144 -0.82700002
0.11933334 -12.226667 -0.81200004
-0.035 -12.197 -0.80299997
0.56933331 10.078 -0.82299995
0.66475004 10.54125 -0.81925005
0.6236667 10.555 -0.82499999
0.67460006 10.564001 -0.82959998
0.092 -12.252 -0.78500003
0.124 -12.257999 -0.78550005
-0.028000003 -12.208334 -0.77500004
0.024599999 -12.219201 -0.7744
0.071000002 -12.235 -0.76800007
0.1235 -12.237 -0.76250005
-0.014 -12.198 -0.75999999
0.57200003 10.122667 -0.773
0.63200003 10.546 -0.76899999
0.67900002 10.5485 -0.77849996
0.61925006 10.556749 -0.77425003
0.66433334 10.5615 -0.76699996
0.69199997 10.601 -0.773
0.112 -12.206 -0.73900002
0.028666666 -12.169001 -0.73699999
0.081 -12.192 -0.73900002
0.134 -12.175 -0.727
-0.024500001 -12.12475 -0.72375
0.028666666 -12.126667 -0.71333337
0.080499999 -12.1415 -0.71449995
0.112 -12.144 -0.71399999
0.63200003 10.542 -0.75
0.62375003 10.5595 -0.72324997
0.66640002 10.557401 -0.72540003
0.69099998 10.6 -0.71700001
0.0285 -12.1545 -0.67250001
0.071000002 -12.167 -0.67299998
0.123 -12.1605 -0.67299998
-0.024500001 -12.121 -0.68124998
0.028749999 -12.121499 -0.68649995
0.085749999 -12.138 -0.67699999
0.1225 -12.1305 -0.69199997
0.61400002 10.547 -0.69499999
0.64999998 10.539 -0.676
0.62500006 10.5562 -0.67320001
0.67085719 10.567143 -0.67771429
0.69199997 10.612 -0.68099999
-0.014 -12.117 -0.64899999
0.028749999 -12.11475 -0.64374995
0.077000007 -12.118667 -0.63499999
0.12275 -12.12675 -0.63925004
0.17074999 -12.133751 -0.63424999
0.0285 -12.0865 -0.62650001
0.175 -12.057334 -0.60433334
0.028666666 -12.030334 -0.60266668
0.080499999 -12.045 -0.60350001
0.122 -12.0445 -0.60350001
0.63099998 10.539 -0.639
0.65100002 10.543 -0.639
0.62200004 10.5628 -0.6182
0.67028582 10.562285 -0.6192857
0.69199997 10.606 -0.625
0.090999998 -12.054 -0.56199998
0.133 -12.054 -0.56199998
0.175 -12.066 -0.56199998
0.028666668 -12.0205 -0.57050002
0.076666668 -12.034334 -0.57433331
0.118 -12.034334 -0.57466668
0.175 -12.041667 -0.58200002
0.6135 10.5435 -0.57499999
0.63300002 10.5675 -0.57599998
0.66640007 10.563 -0.57740003
0.69200003 10.613 -0.56
0.87199998 13.045 -0.56400001
0.1855 -12.0555 -0.53049999
0.028666666 -12.019668 -0.53899997
0.080499999 -12.026501 -0.52849996
0.12200001 -12.0275 -0.52875
0.16974999 -12.04225 -0.52950001
0.028666666 -11.985 -0.51633334
0.65999997 10.546499 -0.51950002
0.6236667 10.563 -0.52966666
0.66680002 10.567201 -0.5298
0.69199997 10.617 -0.53200001
0.70999998 10.603 -0.55000001
0.1215 -11.959499 -0.479
0.17699999 -11.962144 -0.47371429
0.028444443 -11.921445 -0.47222224
0.079999998 -11.939667 -0.47299999
0.121 -11.9415 -0.46249998
0.16299999 -11.942 -0.47299999
0.62333333 10.559999 -0.47366673
0.67033339 10.563 -0.47411108
0.87599999 13.091 -0.49700001
0.8775 13.115 -0.46349999
0.132 -11.955 -0.43200001
0.18099999 -11.959333 -0.42500004
0.028666666 -11.909334 -0.43033335
0.079999998 -11.92125 -0.42000002
0.11733334 -11.925667 -0.41666669
0.167 -11.938334 -0.41733333
0.028666666 -11.893333 -0.4086667
0.66400003 10.565001 -0.42516667
0.6925 10.6175 -0.41149998
0.87849998 13.1305 -0.41799998
0.090000004 -11.852 -0.38699999
0.124 -11.859 -0.38
0.17750001 -11.8655 -0.38174999
0.028333334 -11.827 -0.37533337
0.075666666 -11.831333 -0.37200004
0.11 -11.837 -0.366
0.16150001 -11.841499 -0.366
0.66900003 10.539 -0.38100001
0.67033339 10.5655 -0.37550002
0.88049996 13.164 -0.373
0.90399998 13.1765 -0.37349999
0.1205 -11.857 -0.32499999
0.17750001 -11.856 -0.31974998
0.028400002 -11.823199 -0.3362
0.078999996 -11.819834 -0.32366669
0.1205 -11.833 -0.324
0.16800001 -11.839 -0.32860002
0.0285 -11.7945 -0.30774999
0.67022228 10.568222 -0.32644448
0.88099998 13.1775 -0.32749999
0.193 -11.853 -0.28299999
0.214 -11.853 -0.28299999
0.078999996 -11.8165 -0.2825
0.12 -11.818001 -0.2825
0.16150001 -11.8315 -0.28299999
0.028666666 -11.790335 -0.28200001
0.1195 -11.762501 -0.26050001
0.192 -11.754 -0.25999999
0.2225 -11.765499 -0.26100001
0.078999996 -11.74 -0.25999999
0.1605 -11.745 -0.25999999
0.39050001 -4.1680002 -0.25099999
0.42851278 -4.1790257 -0.26984614
0.66988891 10.564445 -0.2711111
0.88349998 13.2085 -0.2825
0.9156667 13.234 -0.28666669
0.192 -11.753 -0.219
0.079000004 -11.72625 -0.229
0.119 -11.733751 -0.22925
0.16659999 -11.7362 -0.2314
0.212 -11.7465 -0.2295
0.048 -11.695 -0.23899999
0.38999999 -4.2020001 -0.245
0.345 -4.1939998 -0.20100001
0.3782593 -4.1762595 -0.21922225
0.42325577 -4.1693721 -0.22488372
0.64999998 10.54 -0.234
0.66333336 10.560667 -0.222
0.6925 10.6195 -0.2265
0.88499999 13.237334 -0.22499999
0.90799999 13.243999 -0.23649999
0.171 -11.751 -0.178
0.233 -11.752 -0.199
0.078999996 -11.71825 -0.18825001
0.11925 -11.72525 -0.18799999
0.171 -11.7356 -0.1904
0.21900001 -11.741 -0.185
0.17033333 -11.665667 -0.15700001
0.22149999 -11.678499 -0.15700001
0.078500003 -11.646999 -0.15700001
0.118 -11.646 -0.15650001
0.32600003 -4.2060003 -0.16433334
0.33335292 -4.172235 -0.16970588
0.37272915 -4.1700211 -0.177375
0.42388892 -4.1648216 -0.17737779
0.42133331 -4.1446667 -0.17733334
0.66775 10.569626 -0.17875001
0.69099998 10.602 -0.18000001
0.88700002 13.272 -0.1675
0.91050005 13.2825 -0.1675
0.19 -11.657 -0.13600001
0.22466668 -11.659667 -0.12966667
0.078250006 -11.628 -0.126
0.12850001 -11.638167 -0.12600002
0.17666666 -11.639334 -0.12266667
0.211 -11.65 -0.116
0.30933332 -4.218667 -0.14300001
0.28466666 -4.168611 -0.11622223
0.32521877 -4.1633434 -0.12565625
0.37126186 -4.1641417 -0.12830953
0.42488369 -4.1633954 -0.12723255
0.29299998 -4.1475 -0.1155
0.32366666 -4.1464443 -0.12266666
0.37883335 -4.1486669 -0.11900001
0.41083336 -4.1463332 -0.12400001
0.6730001 10.569501 -0.12666668
0.69099998 10.608 -0.124
0.88750005 13.2805 -0.1215
0.92525005 13.32375 -0.1215
0.17700002 -11.659667 -0.082333334
0.22149999 -11.657 -0.096000001
0.078500003 -11.6155 -0.075166672
0.12516667 -11.633334 -0.078666672
0.16980001 -11.6362 -0.071200006
0.22050001 -11.63975 -0.064999998
0.108 -11.575 -0.055
0.26040003 -4.2148004 -0.089599997
0.27657145 -4.1631713 -0.073542871
0.32546338 -4.1633167 -0.074853659
0.37203225 -4.1620321 -0.075838707
0.42443484 -4.1655006 -0.076130435
0.28010002 -4.1447997 -0.076200008
0.32599998 -4.1447496 -0.0845
0.37426671 -4.1459336 -0.07546667
0.40966666 -4.1476665 -0.073000006
0.45100001 -4.1469998 -0.079000004
0.69099998 10.61 -0.068999998
0.88999999 13.318001 -0.075499997
0.91299999 13.322 -0.086999997
0.93266666 13.38 -0.071666673
0.068000004 -11.559 -0.034000002
0.148 -11.558 -0.034000002
0.189 -11.553 -0.034000002
0.21950001 -11.5645 -0.034500003
0.081333339 -11.516334 -0.020666666
0.12360001 -11.5316 -0.022
0.175 -11.545334 -0.020666666
0.21900001 -11.5435 -0.014
0.44299999 -4.2030001 -0.003
0.463 -4.2055001 -0.025249999
0.27588379 -4.161581 -0.02572093
0.32372415 -4.1602411 -0.027655173
0.37255812 -4.1595812 -0.024232557
0.42270738 -4.1644626 -0.026268288
0.46318185 -4.1783638 -0.039181817
0.27766669 -4.1461668 -0.018666666
0.32464287 -4.1446433 -0.019142857
0.37266669 -4.1453333 -0.028500002
0.42174998 -4.145 -0.0285
0.69149995 10.618 -0.0405
0.89200002 13.343 -0.039999999
0.89300001 13.36 -0.017000001
0.91600001 13.368999 -0.0285
0.94599998 13.451 -0.029000001
0.108 -11.551 0.0060000001
0.21950001 -11.55925 0.016000001
0.26771432 -11.564715 0.023142857
0.078000009 -11.523169 0.026000001
0.13042858 -11.524715 0.028857145
0.17866665 -11.534667 0.026000001
0.21900001 -11.540501 0.046
0.127 -11.492 0.026000001
0.42399999 -4.2106004 0.020200001
0.27451614 -4.1600318 0.025129031
0.32712501 -4.1599684 0.0263125
0.37244678 -4.1636176 0.026340423
0.41125 -4.1813331 0.017416663
0.27777782 -4.1439447 0.026888886
0.31554544 -4.1444545 0.024454545
0.38849998 -4.145 0.0040000002
0.40700001 -4.1440001 0.011
0.69199997 10.623 0.043000001
0.89399999 13.377501 0.017999999
0.917 13.388 0.0060000001
0.91900003 13.415 0.029999999
0.94700003 13.4655 0.017999999
0.18799999 -11.508 0.066
0.22866666 -11.522667 0.066
0.078000002 -11.4845 0.066
0.13225001 -11.479501 0.071000002
0.17433333 -11.473333 0.079333335
0.22766666 -11.470668 0.08600001
0.27899998 -11.479 0.086000003
0.117 -11.446501 0.086000003
0.38299999 -4.2030001 0.07
0.32392105 -4.161448 0.077552646
0.36395654 -4.1743479 0.070826091
0.32960001 -4.1464 0.069200002
0.35600001 -4.1500001 0.055
0.64349997 3.1355002 0.090750001
0.6764155 3.1346927 0.07743077
0.64011115 3.1726665 0.090555556
0.66866672 3.1674001 0.074133344
0.64060003 3.2277 0.085500002
0.65892309 3.2234616 0.065000013
0.63792312 3.277231 0.084230773
0.66009092 3.2785454 0.058181819
0.62966669 3.3063333 0.091666669
0.66600001 3.309 0.050999999
0.69199997 10.625 0.070500001
0.89499998 13.39 0.075999998
0.89499998 13.403 0.052999999
0.91900003 13.412 0.064999998
0.94850004 13.49 0.064999998
0.088 -11.461 0.126
0.13699999 -11.4635 0.126
0.18066667 -11.464 0.11933333
0.2326 -11.475801 0.12980001
0.27900001 -11.475166 0.126
0.12414286 -11.433143 0.125
0.17366669 -11.444667 0.132
0.2225 -11.443 0.1205
0.32076189 -4.1692858 0.11971428
0.30966669 -4.145 0.11733334
0.57740003 3.1398001 0.1288
0.62903392 3.1371183 0.12932204
0.67408806 3.1370287 0.12541178
0.59349996 3.1740003 0.14300001
0.61680961 3.1695237 0.12180952
0.67275006 3.1528749 0.13387501
0.58939999 3.2214 0.13680001
0.61528569 3.2244999 0.1157857
0.58727276 3.2801819 0.14036365
0.61353344 3.2724669 0.11213334
0.60500002 3.306 0.121
0.89649999 13.421 0.1115
0.92000002 13.43 0.1
0.89899999 13.453 0.147
0.92199999 13.460501 0.1355
0.95166671 13.541334 0.12466668
0.207 -11.452 0.16500001
0.289 -11.478 0.16599999
0.127 -11.421333 0.16500001
0.177 -11.440001 0.16500001
0.23800001 -11.4485 0.16500001
0.2775 -11.426001 0.17500001
0.126 -11.358 0.184
0.176 -11.367001 0.184
0.22666666 -11.380667 0.184
0.26699999 -11.393 0.185
0.308 -4.191 0.15000001
0.54799998 3.148 0.198
0.58168513 3.1366301 0.17996295
0.62530297 3.1346369 0.17721215
0.67253977 3.1383178 0.17700005
0.54699999 3.1739998 0.1965
0.57004774 3.1719527 0.17300001
0.62369996 3.1543005 0.16860001
0.67933333 3.1527505 0.17225
0.54666674 3.2180002 0.19466667
0.56811112 3.222667 0.17055556
0.54488885 3.274667 0.1908889
0.56455553 3.2738891 0.16866668
0.54500002 3.303 0.184
0.56550002 3.3004999 0.164
0.89899999 13.460501 0.1825
0.9235 13.487 0.183
0.954 13.573 0.184
0.146 -11.363 0.204
0.17399999 -11.3558 0.2234
0.228625 -11.372626 0.22399999
0.2665 -11.3685 0.21349999
0.1235 -11.342875 0.2255
0.185 -11.331 0.223
0.206 -11.35 0.223
0.53310537 3.136842 0.23202632
0.575243 3.1378856 0.2252143
0.62387693 3.1392 0.22681539
0.67341369 3.1410515 0.22551727
0.52677774 3.1718895 0.22585182
0.57311112 3.1536667 0.2261111
0.6268 3.1533 0.2246
0.67744446 3.1535559 0.22238891
0.52134782 3.223304 0.22339131
0.51845837 3.2767916 0.221
0.51600003 3.303 0.2245
0.90100002 13.489 0.22999999
0.92550004 13.5185 0.23100001
0.954 13.5725 0.23199999
0.21266668 -11.357333 0.26966667
0.126 -11.334834 0.27233332
0.17525001 -11.3415 0.27275002
0.52349997 3.1381881 0.27473441
0.57433856 3.1384001 0.27427691
0.62479991 3.1390169 0.27571666
0.67472363 3.1363156 0.27596053
0.52533334 3.1570559 0.2748889
0.57470006 3.154 0.2793
0.62271428 3.1540713 0.27371433
0.66808337 3.1543331 0.26550001
0.91474998 13.525249 0.278
0.95700002 13.622499 0.28
0.12899999 -11.2634 0.30819997
0.17766666 -11.268333 0.30666667
0.11999999 -11.23625 0.33399999
0.164 -11.245 0.329
0.52415872 3.1375239 0.32236513
0.57555568 3.1364288 0.32457149
0.62470174 3.1372805 0.32233334
0.67441279 3.1340637 0.32422227
0.71006662 3.133867 0.30993333
0.52677774 3.1550555 0.33616668
0.57274991 3.1553128 0.32212502
0.62521052 3.1558423 0.32842106
0.66799998 3.1546667 0.33216667
0.70966667 3.154 0.32233334
0.90200001 13.515 0.31299999
0.92133331 13.56 0.33000001
0.95749998 13.6255 0.32749999
0.12549999 -11.2635 0.359
0.52384317 3.1425693 0.37372553
0.57665312 3.1411016 0.37467337
0.62712294 3.1387544 0.37524557
0.66084999 3.1344001 0.36374998
0.52592313 3.1567695 0.37838456
0.57207417 3.1575925 0.37148151
0.62299991 3.1563041 0.37382609
0.65450001 3.1594999 0.37799999
0.91333336 13.563666 0.36966667
0.93199998 13.602 0.38699999
0.958 13.6345 0.37599999
0.5260278 3.1416109 0.42800003
0.57589197 3.1412437 0.42313519
0.61586672 3.1381338 0.41880003
0.5247072 3.1566582 0.42129263
0.57409745 3.1551709 0.42443907
0.60827267 3.1570907 0.41127276
0.89099997 10.5525 0.4395
0.91666669 10.556667 0.41833335
0.90600002 13.579 0.41
0.92499995 13.618334 0.42666668
0.96000004 13.671499 0.42449999
0.56864995 3.136375 0.46869993
0.56586665 3.1582668 0.46460003
0.60549998 3.1654999 0.45700002
0.89099997 10.549 0.46700001
0.92250001 10.540751 0.47600001
0.83600003 10.563 0.486
0.87016666 10.569667 0.47400004
0.921 13.626 0.45899999
0.9235 13.657499 0.4835
0.96350002 13.716 0.47400001
0.55400002 3.1423335 0.50233334
0.56 3.154 0.50800002
0.79699999 10.545 0.54000002
0.83399999 10.547 0.50400001
0.87574995 10.5445 0.53125
0.93266672 10.5305 0.52783334
0.8265 10.56375 0.53200001
0.86860001 10.556399 0.51520002
0.91633338 10.556999 0.51066673
0.92399997 13.668 0.51975
0.96499997 13.744 0.51099998
0.96600002 13.762 0.53600001
0.82500005 10.546 0.58700001
0.87049997 10.538 0.57700008
0.92633331 10.529222 0.57688892
0.78616667 10.561501 0.58433336
0.82599998 10.554501 0.55900002
0.87199998 10.553 0.57800001
0.921 13.682667 0.56433332
0.93800002 13.702 0.58099997
0.96799999 13.786 0.57249999
0.77899998 10.549 0.63300002
0.83399999 10.5425 0.62349999
0.87360001 10.529601 0.62459999
0.92220002 10.5282 0.62100005
0.78000003 10.5612 0.62260002
0.81700003 10.559999 0.62450004
0.85299999 10.553 0.61500001
0.92725003 13.7215 0.61774999
0.96899998 13.796 0.63300002
0.96899998 13.801 0.61000001
0.778 10.540751 0.66925001
0.82466668 10.5435 0.66950005
0.86955553 10.527889 0.66877776
0.90799999 10.535 0.66000003
0.77939999 10.5556 0.67039996
0.93533337 10.567 0.65933335
0.91399997 10.605 0.69300002
0.91649997 13.7365 0.66649997
0.94099998 13.752501 0.66799998
0.96950001 13.8125 0.67050004
0.7805714 10.536 0.72714287
0.82383335 10.537167 0.72483337
0.85624999 10.53325 0.71999997
0.76999998 10.554001 0.71650004
0.88325 10.5765 0.72775
0.93075001 13.773 0.71675003
0.972 13.843 0.708
0.97299999 13.857 0.73299998
0.77688891 10.524112 0.77911115
0.82000005 10.526999 0.76733339
0.83899999 10.611 0.78600001
0.85900003 10.623 0.76800001
0.93150002 13.785 0.76550001
0.93299997 13.806 0.76699996
0.97299999 13.8635 0.76999998
0.77999997 10.563 0.838
0.81199998 10.585001 0.82099998
0.801 10.6 0.82200003
0.93374997 13.8225 0.81599998
0.391 -10.9115 0.87300003
0.38 -10.8745 0.889
0.37 -10.846 0.89600003
0.92299998 13.843 0.85399997
1.1210001 15.579 0.852
0.33950001 -10.8085 0.93099999
0.37279999 -10.8224 0.921
0.31099999 -10.797 0.949
0.2825 -10.808001 0.97799999
0.32550001 -10.820999 0.97500002
0.36911112 -10.828112 0.97088891
0.292 -10.792 0.986
0.31 -10.792 0.96700001
0.34900001 -10.802 1.006
0.27233335 -10.771 1.0036666
0.3195 -10.763 1.0025001
0.377 -10.774 1.0039999
0.233 -10.710501 1.026
0.271 -10.716334 1.0265001
0.3276667 -10.732333 1.0283334
0.37549996 -10.736501 1.0287499
0.37966669 -10.760334 1.0723333
0.22375 -10.719 1.06425
0.27733335 -10.720333 1.0676666
0.32788891 -10.731335 1.0754445
0.37266669 -10.740334 1.0826668
0.42062503 -10.739 1.0764999
0.2235 -10.6915 1.09
0.25833333 -10.696334 1.0840001
0.271 -10.716 1.1115
0.32733333 -10.717667 1.1116667
0.37549999 -10.7345 1.1135
0.42333335 -10.744667 1.115
0.27950001 -10.68 1.117
0.32566667 -10.661334 1.1246667
0.37633333 -10.668666 1.132
0.41659999 -10.6684 1.1332
0.26539999 -10.627 1.132
0.32500002 -10.639334 1.141
0.36199999 -10.628 1.14
0.345 -10.653 1.199
0.36966667 -10.658001 1.187
0.41550002 -10.6625 1.1767499
0.27125001 -10.627625 1.17725
0.322375 -10.625125 1.17475
0.375 -10.634334 1.1719999
0.419 -10.635667 1.1723334
0.25 -10.6 1.174
0.43266666 -10.659 1.2063334
0.26883334 -10.617332 1.223
0.32500002 -10.627167 1.2240001
0.37199998 -10.6305 1.22475
0.41580001 -10.644401 1.2284001
0.28600001 -10.551 1.243
0.32300001 -10.556666 1.244
0.37933335 -10.570333 1.2456667
0.42649999 -10.575001 1.2465
0.26699999 -10.533 1.2410001
0.37875 -10.559 1.26775
0.42866668 -10.558333 1.2693334
0.27379999 -10.527599 1.2738001
0.32462499 -10.539875 1.276875
0.38433337 -10.538667 1.2853334
0.41600001 -10.55 1.281
0.954 13.959 1.278
0.99000001 14.105 1.291
0.28600001 -10.568 1.301
0.30399999 -10.561 1.3
0.3705 -10.571501 1.302
0.42899999 -10.561 1.307
0.27574998 -10.51925 1.323
0.32233334 -10.535666 1.3255
0.3786667 -10.541667 1.3264999
0.42233333 -10.547334 1.3303332
0.95599997 13.981 1.3049999
0.95999998 14.043 1.335
0.991 14.125 1.318
0.99299997 14.155 1.346
1.025 14.259 1.331
1.1803334 15.774668 1.3150001
1.136 15.803 1.336
1.164 15.803 1.336
0.2755 -10.509501 1.35
0.32233334 -10.528666 1.3526667
0.37800002 -10.530001 1.3526667
0.42449999 -10.531 1.353
0.37960002 -10.469 1.3712
0.42019996 -10.464 1.3778
0.27366665 -10.436501 1.3776667
0.31944445 -10.440556 1.3782222
0.3565 -10.4445 1.3885
0.96599996 14.1335 1.381
0.99299997 14.161 1.3840001
1.023 14.222 1.352
1.026 14.269 1.382
1.095 15.232 1.395
1.135 15.2355 1.3954999
1.175 15.23 1.395
1.135 15.792 1.363
1.1900001 15.788 1.363
1.164 15.802 1.364
0.27399999 -10.452 1.4170001
0.329 -10.463 1.4184999
0.37566668 -10.461501 1.4151667
0.42675 -10.46575 1.41925
0.46866667 -10.47289 1.4204445
0.2735 -10.432 1.4325
0.3145 -10.431 1.42775
0.384 -10.435499 1.4335001
0.412 -10.442 1.434
0.98149997 14.176499 1.4352499
1.145 15.193 1.4450001
1.1286668 15.205667 1.428
1.173 15.208 1.42
0.38499999 -10.455 1.455
0.43099999 -10.4615 1.4649999
0.46833333 -10.469001 1.4566667
0.31900001 -10.431 1.4601667
0.37025002 -10.438499 1.4662499
0.42433333 -10.440666 1.4653333
0.4765 -10.445 1.4725001
0.32600001 -10.3585 1.4775
0.37600002 -10.3696 1.4870001
0.42733335 -10.366333 1.4885
0.47350001 -10.3805 1.482
0.285 -10.34 1.48875
0.32550001 -10.343 1.494
0.35299999 -10.348 1.495
0.97000003 14.199 1.475
0.99800003 14.237 1.479
1.115 15.145 1.494
1.09 15.167 1.4960001
1.1343334 15.167999 1.4783335
1.1783333 15.164667 1.4786667
0.28999999 -10.355 1.5319999
0.32600001 -10.358 1.533
0.37600002 -10.362001 1.5264
0.42783332 -10.372334 1.5263333
0.47366667 -10.382833 1.5191667
0.3226667 -10.341 1.5243334
0.35299999 -10.347 1.513
0.97249997 14.2285 1.516
1 14.261499 1.5195
1.0880001 15.144 1.52
1.1270001 15.1305 1.5190001
1.181 15.136 1.52
1.1160001 15.16 1.549
1.1825 15.162001 1.549
0.384 -10.356334 1.5823334
0.43014288 -10.363286 1.5712858
0.47316667 -10.367334 1.5723333
0.32740003 -10.3358 1.5704001
0.36549997 -10.342001 1.5616667
0.41749999 -10.3485 1.569
0.324 -10.279 1.595
0.36900002 -10.271 1.5936668
0.42399999 -10.281666 1.5956668
0.47866666 -10.294666 1.598
0.97299999 14.246 1.556
1.001 14.276 1.559
1.0039999 14.314 1.5880001
1.09 15.17 1.55
1.143 15.166 1.55
1.0930001 15.215 1.581
1.1335 15.2145 1.581
1.174 15.218 1.582
0.32600003 -10.256001 1.6216667
0.36816666 -10.256834 1.6218336
0.42333335 -10.267667 1.6210001
0.47783336 -10.273833 1.6221669
0.31966668 -10.239334 1.6313334
0.34999999 -10.238 1.625
1.0065 14.3565 1.6315
1.097 15.266 1.613
1.123 15.258 1.613
1.1654999 15.288 1.6159999
0.33199999 -10.251 1.6725
0.37450001 -10.264667 1.6659999
0.42366666 -10.270111 1.6671112
0.47811112 -10.28 1.6692221
0.31366667 -10.234333 1.6789999
0.3644 -10.239 1.6874001
1.008 14.3825 1.6849999
1.13175 15.565001 1.686
1.173 15.568 1.673
1.2149999 15.582001 1.675
0.33199999 -10.252 1.7
0.43200001 -10.254 1.701
0.477 -10.263667 1.7033334
0.40400001 -10.245 1.7
0.48325002 -10.2055 1.72075
0.32914287 -10.167429 1.7177144
0.37433335 -10.168501 1.7233334
0.41988888 -10.176889 1.725
0.4664 -10.1846 1.7340001
0.329 -10.142 1.737
1.01 14.416 1.727
1.1265 15.488501 1.7460001
1.1805 15.4865 1.7465
1.1324999 15.57 1.728
1.1720001 15.556 1.7130001
1.2090001 15.559668 1.7186668
0.49200001 -10.201 1.766
0.51899999 -10.2045 1.7674999
0.32950002 -10.165334 1.7681668
0.37133333 -10.162667 1.7650001
0.41955554 -10.173111 1.7791113
0.47100002 -10.17425 1.7820001
0.32866669 -10.133667 1.7896667
0.37633333 -10.141667 1.7856668
1.012 14.443 1.756
1.015 14.489 1.788
1.1259999 15.4875 1.7735
1.1789999 15.469 1.7725
0.347 -10.151 1.811
0.428 -10.159 1.813
0.47266668 -10.166 1.8150001
0.52650011 -10.181334 1.809
0.37325001 -10.134501 1.81775
0.41374999 -10.130501 1.8217499
0.47524998 -10.1235 1.83025
0.52700001 -10.114801 1.8313999
0.38033336 -10.079334 1.835
0.42449999 -10.079 1.835
0.4605 -10.089001 1.837
0.505 -10.095 1.839
1.015 14.48 1.812
1.017 14.517 1.8430001
1.1293334 15.474001 1.8180001
1.17975 15.48 1.8145
1.234 15.481999 1.8150001
1.114 15.51 1.804
0.479 -10.104 1.8765
0.52266669 -10.106667 1.8773334
0.33699998 -10.065001 1.872
0.38000003 -10.075222 1.8707777
0.42533335 -10.087333 1.8733333
0.46657145 -10.086571 1.8732858
0.52216673 -10.093501 1.8751667
1.017 14.52 1.869
1.105 15.391 1.899
1.1210001 15.415501 1.875
1.1745 15.4115 1.875
1.2285 15.4075 1.875
1.125 15.4785 1.855
1.1784999 15.467 1.854
1.2325001 15.4605 1.854
0.34400001 -10.053 1.921
0.37937501 -10.05625 1.9217501
0.42166668 -10.070001 1.9126667
0.47100005 -10.070429 1.9197143
0.52183336 -10.085167 1.9188333
0.37900001 -10.048 1.92
0.42459998 -10.028999 1.9382
0.46666667 -10.032667 1.9420002
0.51560003 -10.0296 1.9432
0.37700003 -9.9873333 1.9446667
0.44800001 -10 1.947
0.465 -9.9989996 1.947
0.53500003 -9.9989996 1.948
1.133 15.399 1.9
1.1730001 15.3935 1.9
1.24 15.391 1.9
1.12 15.408 1.9284999
1.175 15.417 1.9305
1.224 15.411667 1.9213333
0.48300001 -10.005 1.985
0.52400005 -10.013334 1.9809999
0.37599999 -9.96525 1.973875
0.42983329 -9.9849997 1.9715002
0.47775 -9.9860001 1.9677501
0.51700002 -9.9945002 1.974
0.55199999 -10 1.985
0.426 -9.5113335 1.9906667
0.493 -9.5200005 1.993
0.52566665 -9.5186672 1.993
0.37433332 -9.4743338 1.9820001
0.48100001 -9.4530001 1.9960001
0.37233335 -9.4266663 1.9893334
0.42233333 -9.4350004 1.9913334
0.45500001 -9.4359999 1.992
0.52133334 -9.4446669 1.9950001
0.37099999 -9.3909998 1.999
1.11 15.331333 1.9823334
1.1643333 15.331 1.983
1.223 15.3445 1.9765
1.132 15.387 1.9529999
1.1735001 15.3965 1.955
1.2410001 15.394 1.955
1.1059999 15.404 1.955
1.214 15.406 1.957
0.43066669 -10.005 2.003
0.4745 -10.013 2.0050001
0.52160001 -10.009 2.0156
0.37619999 -9.9696999 2.0277002
0.42971432 -9.9804287 2.0287144
0.47880003 -9.9921999 2.0295999
0.51733339 -9.9926672 2.0253334
0.38800001 -9.4029999 2.0020001
0.42133331 -9.4086676 2.0030003
0.46720001 -9.4102001 2.0108001
0.52039999 -9.4246006 2.0142002
0.57137501 -9.4239998 2.0228751
0.42224997 -9.380125 2.029
0.47128576 -9.3781433 2.0362859
0.51550001 -9.3878336 2.0366669
0.551 -9.3900003 2.0350001
0.40200001 -9.3450003 2.0409999
1.1183333 15.327667 2.0183334
1.1730001 15.335001 2.0196667
1.22225 15.33575 2.016
0.42949998 -9.9689999 2.05
0.47299999 -9.9750004 2.0515001
0.51733339 -9.9893341 2.0550001
0.55199999 -9.993 2.056
0.375 -9.9360008 2.0603335
0.419 -9.9300003 2.0595
0.48200002 -9.9141998 2.0642002
0.53133333 -9.9286671 2.0603333
0.44400001 -9.8979998 2.053
0.43599999 -9.3590002 2.0610001
0.46833333 -9.3583336 2.0666666
0.52628571 -9.3640013 2.0677142
0.57583332 -9.3729172 2.0713336
0.41599998 -9.3331261 2.0743752
0.47171432 -9.3424292 2.0821428
0.52399999 -9.34375 2.0885
1.095 15.255 2.099
1.233 15.298 2.079
1.11375 15.32575 2.0682499
1.1672499 15.315749 2.06725
1.217 15.330667 2.0650003
0.42750001 -9.3589993 2.1465001
0.46375 -9.3584995 2.12975
0.51359999 -9.3596001 2.1238
0.57850003 -9.3652506 2.1221249
0.41614288 -9.3362856 2.119143
0.46700001 -9.3439999 2.1150002
0.54049999 -9.3470001 2.1110001
1.1345 15.239 2.1240001
1.174 15.241 2.125
1.202 15.249 2.1270001
1.2636666 15.241 2.1170001
1.095 15.257 2.1270001
1.1355 15.259 2.0999999
1.176 15.266 2.1010001
1.2203333 15.257667 2.1100001
0.4305 -9.4174995 2.1945
0.465 -9.4099998 2.1873336
0.5205 -9.4189997 2.1872499
0.56550002 -9.4212503 2.1842499
0.41675001 -9.3885002 2.1745
0.47300002 -9.3747501 2.1594999
0.51425004 -9.3874998 2.1582501
0.56766665 -9.3896675 2.1553333
1.1389999 15.242 2.1700001
1.175 15.248 2.181
1.201 15.241 2.1800001
1.2726667 15.238333 2.1713333
1.0955 15.257999 2.1675
1.122 15.255 2.154
1.176 15.261 2.155
1.2206668 15.261333 2.165
1.257 15.271 2.158
0.48800001 -9.441 2.201
0.53799999 -9.4390001 2.201
0.579 -9.4389992 2.2014999
1.168 15.148 2.247
1.1336668 15.168333 2.2320001
1.1825 15.173 2.224
1.2390001 15.161001 2.2323334
1.275 15.163 2.224
1.0930001 15.231 2.204
1.1340001 15.238001 2.2060001
1.186 15.2215 2.204
1.226 15.221 2.204
1.267 15.2295 2.2060001
0.42275 -9.7127495 2.2897501
0.46920004 -9.7096004 2.2912002
0.51966667 -9.7110004 2.2816668
0.57133335 -9.7226677 2.2853334
0.40899998 -9.6829996 2.283
0.46799999 -9.6940002 2.277
1.1256667 15.179333 2.2696667
1.1873335 15.176001 2.2700002
1.2225 15.179501 2.266
1.2625 15.177 2.2665
0.4605 -9.7019997 2.3325
0.51999998 -9.718111 2.3192225
0.57100004 -9.7192221 2.3203332
0.41762501 -9.6904993 2.3271251
0.4686 -9.6906004 2.3228002
1.1235 15.0965 2.3474998
1.1884999 15.0875 2.3330002
1.1255 15.117001 2.3235002
1.1645 15.1115 2.3364999
1.1295 15.1705 2.3045001
1.182 15.1685 2.3050001
1.222 15.175 2.306
0.41800001 -9.7019997 2.3499999
0.47499999 -9.7116671 2.3590002
0.52283329 -9.7193336 2.3675001
0.57111114 -9.7246666 2.3754447
0.41512501 -9.6805 2.3783751
0.46516666 -9.684 2.3790002
0.51333332 -9.6923332 2.3790002
1.1099999 15.09 2.3864999
1.138 15.11 2.3770001
1.164 15.108 2.3770001
0.435 -9.7010002 2.404
0.537 -9.7060003 2.4059999
0.56999999 -9.7070007 2.4070001
0.433 -9.6529999 2.4100001
0.477 -9.6940002 2.4025002
0.51049995 -9.698 2.404
0.4316 -9.6202002 2.4119999
0.48162496 -9.6210003 2.418
0.53188884 -9.6221113 2.421
0.58424997 -9.6296253 2.4215
0.43024999 -9.5915003 2.4345
0.47999999 -9.5930004 2.431
0.56400001 -9.5939999 2.4319999
1.123 15.0935 2.4145
0.58399999 -9.651 2.4649999
0.61800003 -9.6630001 2.4690001
0.43120003 -9.6099997 2.4668002
0.48128572 -9.6158571 2.4700003
0.53520006 -9.6200008 2.4742
0.57625002 -9.6311255 2.4797499
0.62280005 -9.6240005 2.4802001
0.42625001 -9.5887499 2.4827499
0.48000002 -9.592 2.4749999
0.51933336 -9.5973339 2.474
0.4975 -9.6035004 2.5139999
0.53149998 -9.6114998 2.5120001
0.58166671 -9.6150007 2.5093334
0.43379998 -9.5903997 2.5118001
0.47175002 -9.5900002 2.5102501
0.53049999 -9.5944996 2.5215001
0.58375001 -9.5830002 2.5235
0.62540001 -9.5646009 2.5256002
0.4325 -9.5149994 2.5285001
0.47671431 -9.5215712 2.5318573
0.52633333 -9.5198345 2.5281668
0.57300001 -9.5306005 2.5338001
0.63075 -9.5372505 2.5345001
0.458 -9.4890003 2.546
0.63950002 -9.1235008 2.5279999
0.63833338 -9.0690002 2.5326669
0.625 -9.0273342 2.5433335
0.63699996 -9.5594997 2.585
0.43833336 -9.5146675 2.5763333
0.47900003 -9.5217152 2.5777142
0.5266667 -9.5263338 2.5746667
0.57611114 -9.5236664 2.5745556
0.62471431 -9.5380011 2.5792859
0.61500001 -9.1129999 2.55
0.5813334 -9.0813332 2.575
0.58449996 -9.0149994 2.5644999
0.62374997 -9.0082502 2.5595
0.54400003 -8.9890003 2.599
0.57685721 -8.9807148 2.585
0.62200004 -8.9823751 2.5838749
0.47600001 -9.5083332 2.6191669
0.52566665 -9.5098896 2.6234446
0.57399994 -9.5202503 2.6249998
0.62655556 -9.5307779 2.631222
0.4756667 -9.4943333 2.6246667
0.58950001 -9.474 2.641
0.61399996 -9.4604998 2.6469998
0.46799999 -9.4327497 2.6412501
0.52233332 -9.4453335 2.6410003
0.56299996 -9.4435005 2.641
0.54900002 -9.0710001 2.6059999
0.52349997 -9.0440006 2.6230001
0.495 -8.9589996 2.6400001
0.51899999 -8.9619999 2.6159999
0.57299995 -8.9543343 2.6120002
0.62016666 -8.9603338 2.6175001
0.493 -8.927 2.648
0.52811116 -8.9279995 2.6300001
0.56949997 -8.9307499 2.6291251
0.61933339 -8.9459991 2.6389999
0.57200003 -9.4540005 2.6619999
0.47337496 -9.4113741 2.6686249
0.52088886 -9.4181108 2.669111
0.56828576 -9.4261436 2.6720002
0.60299999 -9.4280005 2.655
0.5 -9.0509996 2.6500001
0.47799999 -8.9247503 2.6595001
0.52366674 -8.9136667 2.6613336
0.57700002 -8.9216003 2.6648002
0.62583333 -8.9235001 2.6749167
0.47362497 -8.8778744 2.6812499
0.52024996 -8.8838758 2.6841252
0.56599998 -8.8926001 2.6830001
0.60100001 -8.8969994 2.6830001
0.47166666 -9.4156656 2.7208889
0.5211429 -9.4235725 2.7187145
0.55299997 -9.4139996 2.704
0.50400001 -9.3990002 2.734
0.60100001 -8.9060001 2.711
0.66000003 -8.9273329 2.7193334
0.486 -8.8617496 2.7127502
0.53250003 -8.8624992 2.7137499
0.57514286 -8.8680716 2.7248571
0.62685716 -8.8911428 2.7220004
0.51450002 -8.842 2.7296667
0.55000001 -8.842 2.7420001
0.47899997 -9.4049997 2.7535
0.50400001 -9.4049997 2.7539999
0.50099999 -9.3520002 2.756
0.63599998 -8.9560003 2.779
0.66250002 -8.993 2.7644999
0.61799997 -8.9219999 2.7850001
0.5905 -8.8640003 2.766
0.61500001 -8.8780003 2.7539999
0.52150005 -8.8182001 2.7691998
0.56283337 -8.8334999 2.7701671
0.51700002 -8.7933331 2.7936666
0.588 -8.9329996 2.839
0.60299999 -8.9300003 2.8039999
0.56833333 -8.882 2.8223333
0.53350002 -8.8152504 2.826
0.5068 -8.7771997 2.8181999
0.6778 -9.2659998 2.8860002
0.63999999 -9.2320004 2.8989999
0.65600002 -9.2309999 2.8989999
0.56299996 -8.9204998 2.8600001
0.53899997 -8.8979998 2.878
0.54049999 -8.8050003 2.8734999
0.51633334 -8.7833328 2.8633335
0.56199998 -8.7720003 2.8889999
0.52600002 -8.726572 2.880286
0.55900002 -8.7340002 2.8929999
0.52600002 -8.6956673 2.8913333
0.63349998 -9.257 2.9334998
0.6796667 -9.2601662 2.9238336
0.63499999 -9.2396669 2.937
0.6645 -9.2369995 2.937
0.57599998 -8.7620001 2.9030001
0.57700002 -8.7157497 2.9087501
0.61199999 -8.7280006 2.9349999
0.52566665 -8.6843338 2.9264445
0.56887501 -8.6778755 2.9272499
