# .PCD v0.7 - Point Cloud Data file format
VERSION 0.7
FIELDS x y z
SIZE 4 4 4
TYPE F F F
COUNT 1 1 1
WIDTH 1556
HEIGHT 1
VIEWPOINT 0 0 0 1 0 0 0
POINTS 1556
DATA ascii
-10.827 -2.4134998 -1.6689999
-10.717001 -2.4183335 -1.6723335
-10.581667 -2.427 -1.6719999
-10.0555 -2.4265001 -1.6665001
-10.006666 -2.4236667 -1.6773334
-9.9099998 -2.4089999 -1.6795
-9.8850002 -2.4400001 -1.677
-9.777667 -2.4226668 -1.6766667
-9.6746674 -2.4326668 -1.6783333
-9.6190004 -2.401 -1.686
-9.5720005 -2.4155002 -1.6789999
-9.5314999 -2.4235001 -1.681
-9.4715004 -2.4254999 -1.6800001
-9.441 -2.444 -1.676
-9.3863335 -2.4303336 -1.6836667
-9.2694998 -2.4250002 -1.6805
-9.1619997 -2.414 -1.6784999
-9.1405001 -2.4419999 -1.6765001
-9.041666 -2.4246669 -1.6756667
-8.923667 -2.4260001 -1.6720002
-8.8183346 -2.431 -1.6700001
-8.718668 -2.4193335 -1.668
-8.6246662 -2.4260001 -1.6676668
-8.5670004 -2.4100001 -1.673
-8.5226669 -2.4293334 -1.6656666
-8.4680004 -2.414 -1.671
-8.4296665 -2.4346666 -1.6646667
-8.382 -2.4124999 -1.6705
-11.732 -2.3693335 -1.6520002
-11.5925 -2.3730001 -1.654
-11.4645 -2.3674998 -1.6575
-11.445 -2.395 -1.656
-11.316 -2.378 -1.658
-11.187334 -2.382 -1.6600001
-11.07 -2.3773334 -1.6633333
-10.97 -2.3655 -1.6684999
-10.948 -2.391 -1.666
-10.867001 -2.3629999 -1.673
-10.835 -2.3859999 -1.669
-10.762 -2.3600001 -1.677
-10.746 -2.3859999 -1.676
-10.622999 -2.368 -1.676
-10.588 -2.3900001 -1.6720001
-10.501 -2.3699999 -1.677
-10.492 -2.3870001 -1.676
-10.0262 -2.3696001 -1.6670001
-9.9940004 -2.3840001 -1.674
-9.9320002 -2.369 -1.682
-9.8780003 -2.3655 -1.6819999
-9.835 -2.3640001 -1.684
-9.7824993 -2.3782499 -1.6850001
-9.691 -2.392 -1.6795
-9.6450005 -2.3716669 -1.6886667
-9.5203333 -2.3760002 -1.6859999
-9.4169998 -2.3673334 -1.6859999
-9.3789997 -2.3929999 -1.6799999
-9.3094997 -2.3659999 -1.6849999
-9.2724991 -2.392 -1.6795
-9.1780005 -2.3760002 -1.6800001
-9.0469999 -2.392 -1.675
-8.941 -2.381 -1.673
-8.8385 -2.3860002 -1.6715
-8.7469997 -2.3940001 -1.6720001
-8.6470003 -2.3989999 -1.67
-12.069 -2.3069999 -1.653
-11.905 -2.319 -1.653
-11.893 -2.3380001 -1.652
-11.761499 -2.3225 -1.655
-11.61 -2.3243332 -1.6556667
-11.46 -2.3245001 -1.6554999
-11.338668 -2.3310001 -1.6593332
-11.214999 -2.326 -1.6623334
-11.115334 -2.3256669 -1.668
-11.007999 -2.313 -1.6725
-10.986 -2.339 -1.67
-10.886 -2.3274999 -1.6745
-10.79 -2.3269999 -1.6805
-10.672333 -2.3306668 -1.6826667
-10.523001 -2.3264999 -1.679
-10.489 -2.348 -1.674
-18.077 -2.132 -1.679
-17.952 -2.148 -1.7
-17.941999 -2.1159999 -1.699
-0.31099999 -2.855 -1.603
-1.1715 -2.8015001 -1.6035
-1.1217144 -2.8027143 -1.6108572
-1.0746667 -2.8066669 -1.6123333
-1.0231668 -2.8070831 -1.6114166
-0.97437507 -2.8052502 -1.6094378
-0.92316669 -2.8072221 -1.6072222
-0.87256527 -2.8148694 -1.6095651
-0.82816666 -2.8191001 -1.6124001
-0.79074991 -2.81475 -1.607375
-0.52999997 -2.822 -1.603
-0.46900001 -2.822 -1.603
-0.44499999 -2.802 -1.603
-0.33500001 -2.802 -1.601
-0.23800001 -2.823 -1.601
-0.098999999 -2.802 -1.603
0.068000004 -2.812 -1.602
0.296 -2.8199999 -1.602
0.32699999 -2.829 -1.603
-3.0277145 -2.7544286 -1.6062858
-2.9319167 -2.76 -1.6065834
-2.8758464 -2.7594614 -1.6082309
-2.8247273 -2.7612729 -1.6085455
-2.770231 -2.7601542 -1.6073847
-2.475647 -2.7729414 -1.604
-2.4283528 -2.7767649 -1.6037648
-2.3732226 -2.7710555 -1.6042777
-2.31935 -2.7763002 -1.6037998
-2.2711427 -2.7799287 -1.6042857
-2.2268751 -2.7804999 -1.6050001
-2.1823332 -2.7686665 -1.6027778
-2.1283333 -2.7691112 -1.6022221
-2.076143 -2.7835715 -1.6025716
-2.0286 -2.7709999 -1.6028
-1.987 -2.7605 -1.602
-1.9188333 -2.7714996 -1.6016667
-1.8789999 -2.7757502 -1.6014999
-1.8281428 -2.7521431 -1.6058573
-1.7697144 -2.7571433 -1.6042858
-1.7315 -2.7539999 -1.6045001
-1.6696668 -2.76 -1.6048334
-1.6213335 -2.7571666 -1.604
-1.5755454 -2.7610002 -1.6051818
-1.5205714 -2.7632856 -1.6037143
-1.4755 -2.7658336 -1.6049999
-1.4213333 -2.7676668 -1.6045002
-1.3771335 -2.7738001 -1.6064
-1.3256001 -2.7740669 -1.6066669
-1.2744443 -2.7758892 -1.6061112
-1.2263637 -2.7798183 -1.6061363
-1.1768574 -2.7766428 -1.6050001
-1.1235999 -2.7787998 -1.6063499
-1.0738387 -2.7777095 -1.605387
-1.0286667 -2.7788892 -1.6052222
-0.97871989 -2.77104 -1.6043998
-0.92503709 -2.7717776 -1.605185
-0.87483335 -2.7764165 -1.6046667
-0.82336366 -2.774091 -1.6045455
-0.78828585 -2.7739999 -1.6040002
-0.52983332 -2.7780004 -1.6035001
-0.45499998 -2.7705002 -1.6055
-0.41249999 -2.7814999 -1.602
-0.377 -2.777 -1.602
-0.338 -2.7809999 -1.602
-0.27200001 -2.7874999 -1.6015
-0.19599999 -2.789 -1.602
-0.12549999 -2.7975001 -1.6015
-0.011 -2.8 -1.601
-3.9037998 -2.7172 -1.6174001
-3.8768332 -2.7206113 -1.6124445
-3.8290007 -2.7218232 -1.6150589
-3.7790914 -2.7214093 -1.6138637
-3.7245998 -2.7191002 -1.6157497
-3.6739566 -2.7216523 -1.6144785
-3.6252387 -2.7255714 -1.6153332
-3.5736001 -2.7238998 -1.6151501
-3.5280952 -2.7266192 -1.6156667
-3.4757626 -2.7229524 -1.6163332
-3.4280553 -2.7261114 -1.6176665
-3.3781307 -2.7277825 -1.6125653
-3.3280957 -2.7277617 -1.6144286
-3.2764096 -2.7334092 -1.6129545
-3.2267997 -2.7332997 -1.6141001
-3.1763752 -2.72575 -1.6130419
-3.1270871 -2.7304349 -1.6139132
-3.0775237 -2.7295237 -1.6131428
-3.0217221 -2.7249444 -1.6121666
-2.9789524 -2.726619 -1.6128095
-2.9265997 -2.7258499 -1.6119002
-2.8751051 -2.7235789 -1.6129473
-2.8251584 -2.7251582 -1.6116842
-2.7762103 -2.7236316 -1.6104209
-2.7237003 -2.7237003 -1.6086498
-2.6759999 -2.7248261 -1.6090872
-2.6262403 -2.7243199 -1.6088797
-2.5734732 -2.7209475 -1.6059473
-2.525739 -2.7245221 -1.6055217
-2.4760437 -2.7243912 -1.6059567
-2.4253185 -2.7212274 -1.605818
-2.3759 -2.7217999 -1.6059498
-2.3308334 -2.7272918 -1.6060834
-2.273864 -2.7242727 -1.6052727
-2.2242272 -2.7220001 -1.6048636
-2.1763685 -2.7207897 -1.6042632
-2.1247272 -2.7232273 -1.6036819
-2.0729475 -2.7290528 -1.6046314
-2.0254738 -2.7193682 -1.6041579
-1.9747144 -2.7270713 -1.6037143
-1.9219285 -2.7278571 -1.6025716
-1.8735715 -2.7294285 -1.6030715
-1.8259001 -2.7263 -1.6034001
-1.7778001 -2.7279334 -1.6038001
-1.7225456 -2.7311819 -1.6024547
-1.6765455 -2.727 -1.6028181
-1.6258501 -2.7234499 -1.6034498
-1.5736501 -2.7218502 -1.60335
-1.5257499 -2.7235 -1.603125
-1.4768 -2.727 -1.6033334
-1.4246087 -2.7260001 -1.6028262
-1.3735833 -2.7216249 -1.6035836
-1.3216501 -2.7244501 -1.6033001
-1.2751923 -2.727077 -1.6040386
-1.2248889 -2.7241666 -1.6042777
-1.1749666 -2.7260673 -1.604067
-1.1256061 -2.722394 -1.6039699
-1.0724827 -2.724345 -1.604724
-1.0261306 -2.7272174 -1.6036956
-0.97519249 -2.7266922 -1.6051921
-0.92347825 -2.7253914 -1.6037393
-0.87564516 -2.7259679 -1.6034518
-0.82443339 -2.7287002 -1.6023673
-0.78013337 -2.7233 -1.6031673
-0.52999997 -2.7409999 -1.603
-4.1230001 -2.655 -1.6205001
-3.9045 -2.6780002 -1.61675
-3.8818264 -2.6753044 -1.6213915
-3.8246925 -2.6793077 -1.6297693
-3.7696667 -2.6781669 -1.6283334
-3.7271667 -2.6748331 -1.6290001
-3.6789286 -2.6752145 -1.6282144
-3.6260004 -2.6738665 -1.6283333
-3.5733128 -2.678 -1.6270626
-3.5261664 -2.6760001 -1.6266668
-3.4734998 -2.6773751 -1.62475
-3.4198332 -2.6705835 -1.6221666
-3.3749998 -2.6792142 -1.6215003
-3.3256109 -2.6751666 -1.6213888
-3.2751873 -2.6789999 -1.6198125
-3.2271428 -2.6770477 -1.6197143
-3.1760588 -2.675118 -1.620353
-3.1243532 -2.6732352 -1.6179411
-3.0732858 -2.6720953 -1.6168573
-3.0247142 -2.6739049 -1.6179047
-2.9770527 -2.6758945 -1.6171581
-2.9269092 -2.6752732 -1.6160002
-2.8783002 -2.6744502 -1.6150001
-2.8248262 -2.6727393 -1.6130437
-2.774143 -2.6765237 -1.6126189
-2.7262633 -2.6783683 -1.6125263
-2.6732001 -2.67665 -1.6106499
-2.6281111 -2.6749449 -1.6121669
-2.5759997 -2.6745601 -1.60984
-2.5240433 -2.6729567 -1.6098263
-2.47808 -2.67664 -1.6088401
-2.4262085 -2.6764584 -1.6082082
-2.3762732 -2.6768181 -1.608
-2.3256187 -2.6742382 -1.6060477
-2.2727919 -2.6748338 -1.6045001
-2.2248094 -2.6722381 -1.6044284
-2.1762919 -2.6736667 -1.6045002
-2.1226366 -2.672591 -1.6054546
-2.0748098 -2.6735716 -1.6041427
-7.7174997 -2.5315001 -1.643
-7.6766672 -2.5253334 -1.6446667
-7.6269999 -2.5304999 -1.6405001
-7.5742502 -2.5280001 -1.6447499
-7.5139999 -2.53 -1.647
-7.4759998 -2.539 -1.6400001
-7.3743334 -2.5253334 -1.6333332
-7.3214998 -2.52525 -1.6335001
-7.296 -2.5409999 -1.633
-7.2307501 -2.5258751 -1.6398751
-6.7196002 -2.5247998 -1.648
-6.6690001 -2.506 -1.649
-6.6362 -2.5252001 -1.6456002
-6.5764999 -2.5295 -1.6435
-6.5197501 -2.52075 -1.643
-6.4661994 -2.5274 -1.6421999
-6.3838 -2.526 -1.6386002
-6.3224998 -2.5209999 -1.6372501
-6.2718573 -2.5340002 -1.636
-6.2096667 -2.5240002 -1.6366667
-6.1730003 -2.5264997 -1.63475
-6.1265001 -2.523 -1.63625
-6.0728006 -2.5280001 -1.6354001
-6.0380001 -2.5279999 -1.6346667
-5.9821663 -2.5226667 -1.6350001
-5.9255719 -2.5248573 -1.6372857
-5.8873329 -2.5246668 -1.6390002
-5.8293338 -2.525667 -1.6388334
-5.7813334 -2.5226669 -1.641
-5.7362504 -2.5235 -1.6372499
-5.6815724 -2.5265713 -1.638
-10.271 -2.4784999 -1.608
-10.23 -2.497 -1.603
-10.175 -2.4742501 -1.6125001
-10.068999 -2.4724002 -1.6223999
-10.046499 -2.4705 -1.6395
-7.6139998 -2.49 -1.65
-7.5869999 -2.4960001 -1.645
-7.5450001 -2.467 -1.649
-7.4220004 -2.4700003 -1.6393335
-7.3835001 -2.493 -1.633
-7.3290005 -2.4742498 -1.635
-7.2635002 -2.4802499 -1.6365
-7.2180004 -2.4716668 -1.6400001
-6.671 -2.494 -1.648
-12.008 -2.404 -1.647
-10.263 -2.411 -1.623
-10.2185 -2.4285002 -1.6175001
-10.155 -2.404 -1.626
-10.124001 -2.4336667 -1.6216667
-10.063 -2.4190001 -1.6306667
-10.0375 -2.4219999 -1.645
-12.888 -2.3945 -1.6125
-12.8265 -2.3715 -1.6390001
-12.6575 -2.3745 -1.641
-12.648 -2.3729999 -1.64
-12.518 -2.3710001 -1.646
-12.484 -2.3870001 -1.642
-12.329333 -2.3796668 -1.6443334
-12.1715 -2.3824999 -1.6465
-12.011499 -2.3724999 -1.6465
-11.865334 -2.375 -1.649
-11.556 -2.3970001 -1.65
-10.217 -2.362 -1.633
-10.181999 -2.382 -1.6289999
-10.071501 -2.3845 -1.6400001
-10.0365 -2.3755 -1.643
-12.847 -2.3399999 -1.641
-12.689 -2.323 -1.6440001
-12.533 -2.3280001 -1.6470001
-12.498 -2.322 -1.642
-12.3625 -2.3299999 -1.6475
-12.208 -2.312 -1.649
-12.178499 -2.3395 -1.6459999
-12.033 -2.3334999 -1.6485
-12.56 -2.2650001 -1.649
-12.541 -2.2850001 -1.647
-12.371333 -2.276 -1.6473334
-12.2195 -2.2804999 -1.65
-18.021 -2.1725001 -1.6110001
-17.8055 -2.1785002 -1.6235
-17.817001 -2.1164999 -1.624
-23.783001 -1.967 -1.617
3.234 -3.0075002 -1.5525
2.5269129 -2.9773912 -1.5719129
2.7876666 -2.9684443 -1.5595555
2.8283334 -2.9807224 -1.5577221
2.8721337 -2.9779334 -1.5561335
2.924824 -2.9780588 -1.5559412
2.9728234 -2.9729998 -1.5541177
3.0215833 -2.9754169 -1.55375
3.0766153 -2.9743078 -1.5539232
3.1277499 -2.98 -1.5534999
3.168222 -2.971 -1.5523335
3.2255001 -2.994 -1.5515001
0.97291887 -2.922946 -1.5697838
1.0251001 -2.9226327 -1.5694001
1.0743334 -2.9253337 -1.5696363
1.1239355 -2.9264839 -1.5682259
1.1742704 -2.9274595 -1.5676757
1.2256001 -2.9238 -1.5668336
1.2777141 -2.9258857 -1.5675426
1.3276427 -2.9237859 -1.5670716
1.3733547 -2.9245806 -1.5672582
1.4239678 -2.9249995 -1.5673549
1.4771819 -2.9248483 -1.566697
1.5254192 -2.9257414 -1.5657419
1.5773602 -2.92716 -1.5668398
1.6263869 -2.924 -1.5660965
1.6765922 -2.9255188 -1.5664815
1.7247242 -2.921793 -1.5677588
1.7756667 -2.9281111 -1.5682964
1.8246071 -2.9240358 -1.5681787
1.8736925 -2.9224617 -1.5701538
1.9246248 -2.9222918 -1.5688334
1.978 -2.9267392 -1.5708258
2.0283847 -2.9267693 -1.5720768
2.0753331 -2.9262381 -1.5716667
2.124826 -2.9260871 -1.5732174
2.1748803 -2.9252803 -1.5740399
2.2239501 -2.9240005 -1.5726501
2.2762609 -2.9226522 -1.5732174
2.3256667 -2.9221108 -1.5733331
2.3728333 -2.9232223 -1.5740557
2.4235787 -2.9246318 -1.5751579
2.4753158 -2.9230525 -1.5746315
2.5300004 -2.9241338 -1.5676001
2.55 -2.902 -1.572
2.73825 -2.9099998 -1.55825
2.7738748 -2.9252501 -1.5608126
2.8220475 -2.9271426 -1.5602381
2.8739133 -2.9246087 -1.5593045
2.9252727 -2.9263637 -1.5586818
2.9771178 -2.925941 -1.5568824
3.0254703 -2.922647 -1.5558826
3.0791874 -2.9294999 -1.5549999
3.1267142 -2.9195716 -1.5535715
3.1802499 -2.911375 -1.5537499
3.2228889 -2.9137776 -1.5521111
3.2726252 -2.9230001 -1.5522499
3.3157501 -2.9202499 -1.55125
-0.075255319 -2.8750849 -1.5854253
-0.025325581 -2.8748372 -1.5855117
0.02594737 -2.8739212 -1.5833948
0.072763145 -2.8765526 -1.5831316
0.12216277 -2.8747208 -1.5835816
0.1752 -2.8747113 -1.5810667
0.22507143 -2.8749287 -1.5803096
0.2742683 -2.8746827 -1.5795856
0.32348719 -2.8753593 -1.57959
0.37448838 -2.8742785 -1.5768374
0.42560002 -2.8759251 -1.5764501
0.47321054 -2.878448 -1.5744998
0.52411109 -2.8766391 -1.5731667
0.57439023 -2.8743904 -1.5741217
0.62451214 -2.8762441 -1.5734636
0.67461896 -2.8781672 -1.5716667
0.72507906 -2.8762634 -1.571684
0.77310801 -2.873595 -1.5709189
0.82117146 -2.8721998 -1.5702286
0.87364107 -2.8772054 -1.5697691
0.9241429 -2.8746572 -1.5694573
0.97452939 -2.8723528 -1.5687352
1.0210909 -2.8742132 -1.5680302
1.0742565 -2.8747697 -1.5672051
1.1261766 -2.8779709 -1.5683824
1.1738571 -2.8748 -1.5668571
1.2243549 -2.8756456 -1.5674838
1.2742335 -2.8760004 -1.5664005
1.323743 -2.8734 -1.5675143
1.3751073 -2.8763931 -1.5669286
1.4219999 -2.8735862 -1.5672069
1.470625 -2.8735936 -1.5662813
1.5240645 -2.8771296 -1.5663549
1.5740296 -2.8766179 -1.5670296
1.6234 -2.8757598 -1.5667199
1.6716553 -2.8749659 -1.5661381
1.7254288 -2.8722143 -1.5670716
1.7760003 -2.8782916 -1.5683331
1.8225909 -2.8749549 -1.5694091
1.8738399 -2.8764801 -1.5692799
1.9262 -2.8774397 -1.5696801
1.971619 -2.8741426 -1.5683811
2.0224288 -2.8771429 -1.5697618
2.0721002 -2.8750498 -1.5698999
2.1216471 -2.8775885 -1.5708823
2.1712668 -2.8795333 -1.5716002
2.2223752 -2.8829377 -1.5710623
2.2710004 -2.8731668 -1.5672501
2.3241818 -2.8827274 -1.5711818
2.3766155 -2.8775384 -1.5694615
2.4261429 -2.8801429 -1.5682858
2.4717274 -2.8785458 -1.5685455
2.5356667 -2.8784666 -1.5626669
2.5517499 -2.87075 -1.56125
2.7290001 -2.8735297 -1.5649999
2.7761576 -2.8807898 -1.5651052
2.8265262 -2.877579 -1.5648949
-1.4232973 -2.8255403 -1.5897567
-1.374943 -2.8244288 -1.5892001
-1.3251892 -2.8268647 -1.5883242
-1.2757999 -2.825314 -1.5881144
-1.227 -2.8263414 -1.5879756
-1.1762925 -2.8264878 -1.5872927
-1.1263808 -2.827024 -1.5851905
-1.0759318 -2.8242958 -1.5853409
-1.0260652 -2.8213696 -1.5848697
-0.97386378 -2.8206594 -1.5843638
-0.92627472 -2.8230982 -1.5856667
-0.87625974 -2.82178 -1.5842201
-0.82436538 -2.8238459 -1.5827502
-0.7882964 -2.8205554 -1.5807039
-0.5686667 -2.8236063 -1.5840607
-0.52476192 -2.8269286 -1.592738
-0.47489795 -2.8267143 -1.5920405
-0.42363638 -2.8265228 -1.5923408
-0.37732613 -2.8269997 -1.5919999
-0.32625639 -2.8219743 -1.5904359
-0.27670729 -2.8252194 -1.5911217
-0.22387806 -2.8234386 -1.5897804
-0.1749302 -2.8268607 -1.588837
-0.12750001 -2.827409 -1.5882953
-0.076400019 -2.8245115 -1.5870665
-0.024428571 -2.8265305 -1.5853466
0.025382983 -2.8245745 -1.583681
0.076083332 -2.8252294 -1.5831671
0.12593023 -2.8239305 -1.5829767
0.17291112 -2.8233776 -1.5819111
0.22585416 -2.8228128 -1.5813544
0.27382353 -2.8229415 -1.5811567
0.32454902 -2.8250787 -1.5807259
0.3733584 -2.82249 -1.580151
0.42401764 -2.8228946 -1.5789121
0.47610906 -2.8260725 -1.5764909
0.52389461 -2.822824 -1.575754
0.57422221 -2.822593 -1.5763329
0.62639207 -2.8227849 -1.5743335
0.67593998 -2.8246596 -1.57376
0.72582972 -2.8242762 -1.5730636
0.77356505 -2.825804 -1.5744349
0.82440418 -2.8255742 -1.5744042
0.87482601 -2.8311522 -1.57263
0.92488658 -2.8275001 -1.5720228
0.97504765 -2.8261664 -1.5717857
1.0235527 -2.8298681 -1.5711052
1.0720001 -2.8275473 -1.5703336
1.123641 -2.8303587 -1.569077
1.1755943 -2.8311896 -1.5702163
1.2263947 -2.8292105 -1.5684738
1.275054 -2.8249195 -1.5668379
1.3244517 -2.8288066 -1.5675162
1.3717812 -2.8280313 -1.5664999
1.4221252 -2.8274062 -1.566906
-2.7 -2.7639999 -1.596
-2.5154002 -2.7732 -1.5998
-2.4737501 -2.7754998 -1.598
-2.4252224 -2.7738888 -1.5978889
-2.3788183 -2.7773638 -1.5984546
-2.3258333 -2.7771668 -1.5985
-2.272182 -2.7746365 -1.5983638
-2.2234445 -2.7772779 -1.5981667
-2.1754739 -2.7790527 -1.5969999
-2.1259286 -2.7797141 -1.5972857
-2.0772002 -2.7777002 -1.5966001
-2.0253911 -2.7776091 -1.5956957
-1.9793332 -2.7774582 -1.5962085
-1.9263793 -2.7730339 -1.5947931
-1.8734349 -2.7761741 -1.5948697
-1.8256898 -2.7761731 -1.5949999
-1.7746971 -2.7750001 -1.5936973
-1.7248056 -2.7774167 -1.5938612
-1.6772068 -2.776793 -1.59431
-1.624931 -2.7744477 -1.5939311
-1.5762286 -2.7762287 -1.5940857
-1.5262499 -2.7728336 -1.5938612
-1.4760911 -2.7777572 -1.5926361
-1.4286667 -2.7809396 -1.5926062
-1.3727418 -2.7789679 -1.592129
-1.324973 -2.7831082 -1.5936757
-1.273375 -2.7834058 -1.5918752
-1.2244138 -2.7824481 -1.5912068
-1.1754583 -2.7867916 -1.5922502
-1.1276249 -2.7820935 -1.5920311
-1.07728 -2.7897599 -1.5918802
-1.0225002 -2.7866819 -1.5921818
-0.97504765 -2.7835712 -1.5929048
-0.92820007 -2.7844667 -1.5930668
-0.87518185 -2.7754548 -1.5920001
-0.82743752 -2.7702498 -1.5932502
-0.77628571 -2.768476 -1.5896667
-0.56784999 -2.7755749 -1.5861998
-0.52507311 -2.7734149 -1.5916095
-0.47758693 -2.7738912 -1.5926306
-0.42519566 -2.7763696 -1.5940434
-0.37474468 -2.774425 -1.5929364
-0.32553062 -2.7773471 -1.5927755
-0.27493617 -2.7775528 -1.5923617
-0.22669999 -2.7757001 -1.59102
-0.17512001 -2.7788804 -1.5915399
-0.1257959 -2.7781222 -1.5898979
-0.075705871 -2.7736671 -1.5892155
-0.025654543 -2.7776546 -1.5891268
0.024836734 -2.7792654 -1.5887552
0.075000018 -2.7777019 -1.5872338
0.12544233 -2.7779617 -1.5859618
0.17506124 -2.7802851 -1.5856121
0.22227083 -2.7779999 -1.585708
0.27260467 -2.777349 -1.584349
0.32497504 -2.7785509 -1.5831
-3.9050007 -2.7273076 -1.5736156
-3.8955717 -2.7212856 -1.5791428
-3.711 -2.7179999 -1.6
-3.605 -2.7279999 -1.599
-3.5695 -2.7354999 -1.599
-3.5076666 -2.7379999 -1.5993333
-3.4632499 -2.7354999 -1.59925
-3.4272499 -2.73875 -1.598
-3.3795002 -2.744 -1.5962499
-3.33125 -2.7407501 -1.597
-3.2892501 -2.74475 -1.59875
-3.2290001 -2.7420001 -1.5975
-3.1706002 -2.7454002 -1.5964
-3.1313334 -2.7456665 -1.598
-3.0756669 -2.7449999 -1.598
-2.869 -2.7490001 -1.5930001
-2.5693336 -2.7363334 -1.5986667
-2.5439999 -2.7249999 -1.6
-2.4605 -2.74 -1.6
-2.4090002 -2.7326667 -1.5986667
-2.3899999 -2.7315001 -1.599
-2.3222001 -2.7258 -1.5996001
-2.2771668 -2.73 -1.5985
-2.2195716 -2.7274289 -1.5988572
-2.1738002 -2.7304997 -1.597
-2.1271999 -2.7347 -1.597
-2.0784669 -2.7338004 -1.5962667
-2.0197692 -2.7324617 -1.5973077
-1.9750588 -2.7271178 -1.5980002
-1.9309335 -2.7314 -1.5967335
-1.8748573 -2.7268093 -1.5970951
-1.8214 -2.7284667 -1.5967336
-1.7829999 -2.7226 -1.5970668
-1.7249168 -2.7243333 -1.5972084
-1.6737498 -2.72875 -1.59635
-1.6275264 -2.7247896 -1.5953684
-1.5784616 -2.7236154 -1.5966923
-1.5247858 -2.7250717 -1.5979285
-1.4763811 -2.7219048 -1.5981905
-1.4310001 -2.7238331 -1.598
-1.3732224 -2.7277224 -1.5986668
-1.3243127 -2.7248123 -1.5975624
-1.2757144 -2.7261434 -1.598143
-1.2266957 -2.725435 -1.5980436
-1.1813637 -2.7269089 -1.5986363
-1.1256667 -2.7326667 -1.5980003
-1.0742 -2.7258003 -1.5976002
-1.023294 -2.7284706 -1.5984119
-0.9746471 -2.7215884 -1.5992353
-0.92746168 -2.7203848 -1.599077
-0.87892306 -2.7286921 -1.5983846
-0.77089465 -2.7317894 -1.5941579
-2.5065 -2.6754999 -1.6
-2.319 -2.6730001 -1.6
-2.2656667 -2.6716666 -1.5976667
-2.131 -2.6776667 -1.5991112
-2.0713334 -2.6846666 -1.5991668
-2.0203335 -2.682889 -1.5978891
-12.83 -2.4070001 -1.5825
-12.757 -2.4165001 -1.574
-12.879 -2.3929999 -1.577
-23.806999 -2.0120001 -1.577
-23.785999 -1.967 -1.575
4.9439998 -3.108 -1.501
4.2708888 -3.076 -1.5156667
4.3216 -3.0725999 -1.5153
4.3765717 -3.076143 -1.5151429
4.4252224 -3.0745556 -1.5114444
4.4721999 -3.0778 -1.51
4.522222 -3.0757778 -1.5103333
4.5747781 -3.0737777 -1.5072223
4.6295562 -3.0727777 -1.5057778
4.6774287 -3.0770004 -1.5038571
4.7237148 -3.0722859 -1.5031428
4.7722864 -3.0751431 -1.5025716
4.8344998 -3.0682502 -1.50325
4.8674998 -3.0774999 -1.501
4.9405003 -3.0755 -1.501
4.9749999 -3.0669999 -1.502
3.2757857 -3.0218575 -1.5464288
3.3208463 -3.0223079 -1.543077
3.3756671 -3.0280004 -1.5415334
3.4266922 -3.0284615 -1.5403076
3.4738462 -3.0279236 -1.5390769
3.5207274 -3.0266368 -1.5376364
3.574429 -3.0308573 -1.5379999
3.6260774 -3.023077 -1.5345386
3.6765003 -3.026917 -1.5320834
3.7237778 -3.0215557 -1.5313334
3.7698002 -3.0239999 -1.5308
3.8182502 -3.0234165 -1.5289166
3.8726363 -3.026 -1.5287273
3.9197271 -3.0288184 -1.5264546
3.9712729 -3.0211818 -1.5239092
4.025444 -3.0291111 -1.5232223
4.0760002 -3.0261428 -1.5210001
4.12675 -3.0237501 -1.518
4.1788001 -3.0222003 -1.5184001
4.2225714 -3.0251429 -1.517143
4.2733335 -3.0242221 -1.5174444
4.3238893 -3.0205557 -1.5167778
4.3742728 -3.0243638 -1.5148184
4.4261999 -3.0213001 -1.5135001
4.4710002 -3.0301428 -1.511143
4.5237002 -3.0264001 -1.5098
4.5795722 -3.0208573 -1.51
4.6285 -3.023875 -1.507625
4.677 -3.0275717 -1.5068573
4.721889 -3.0224445 -1.5053334
4.7745557 -3.0244443 -1.5044445
4.8228335 -3.0220001 -1.5026667
4.8773336 -3.0303333 -1.5036668
4.9210005 -3.0139999 -1.5043334
4.9737148 -3.0198572 -1.503
5.0190001 -3.0214996 -1.5027499
5.061667 -3.0113335 -1.5026667
5.1257501 -3.0192502 -1.50125
5.1589999 -3.02 -1.503
5.2049999 -3.0109999 -1.501
5.2799997 -3.0239999 -1.5015
2.5289667 -2.9765 -1.5262002
2.7849998 -2.9749999 -1.5485001
2.938 -2.997 -1.549
2.9909999 -2.9979999 -1.5470001
3.0287499 -2.9737501 -1.54825
3.0704999 -2.9885001 -1.5485001
3.1191669 -2.9676666 -1.5485001
3.1800001 -2.9847147 -1.5480001
3.2220001 -2.9693334 -1.5475833
3.2775333 -2.9700665 -1.5458667
3.3263574 -2.9744999 -1.5433573
3.3793576 -2.9784286 -1.5425001
3.4251001 -2.9764001 -1.5408
3.4737694 -2.9758463 -1.5384616
3.5209231 -2.9728463 -1.5377693
3.5726879 -2.9730623 -1.5364374
3.6270001 -2.9740002 -1.5363638
3.675385 -2.9796154 -1.535077
3.724154 -2.9744616 -1.5343846
3.7752311 -2.9755385 -1.5313847
3.8253336 -2.972111 -1.5302223
3.8741002 -2.9779 -1.5302
3.9240005 -2.9737144 -1.5285
3.9763334 -2.9724998 -1.5255001
4.0230002 -2.9774165 -1.5238333
4.0730004 -2.9779091 -1.5223637
4.1273637 -2.9777272 -1.5237273
4.1753006 -2.9744 -1.5220002
4.2234998 -2.9697998 -1.5209999
4.2724447 -2.9787779 -1.5205555
4.3237782 -2.9758887 -1.5202222
4.3678751 -2.9706249 -1.5181251
4.4211106 -2.9760001 -1.5183333
4.4718003 -2.9781997 -1.5154999
4.5240912 -2.9760001 -1.5140002
4.6190004 -2.9776998 -1.5121
2.5367675 -2.9251626 -1.5258372
2.7147501 -2.9230001 -1.5155001
2.9960001 -2.9319999 -1.5470001
3.0369999 -2.931 -1.55
3.1273334 -2.9303336 -1.5486667
3.1665456 -2.9267273 -1.548
3.22525 -2.9355001 -1.54725
3.2755001 -2.9289999 -1.546
3.3262858 -2.9267862 -1.5466429
3.3751764 -2.9287057 -1.5445882
3.4246249 -2.9283125 -1.5453751
3.4699411 -2.926353 -1.5424706
3.5310671 -2.9262667 -1.5430002
3.5783331 -2.9256666 -1.5401334
3.6246929 -2.9225383 -1.5395386
3.6703639 -2.927 -1.5379092
-0.57564706 -2.8787646 -1.524294
2.7049999 -2.8945 -1.533
2.9489999 -2.8959999 -1.55
-0.76879996 -2.8225999 -1.5201999
-0.57446665 -2.8245332 -1.5244668
-3.9054117 -2.7754118 -1.526
-3.8943338 -2.7780004 -1.5222222
-0.76028579 -2.7864289 -1.5302857
-3.9064121 -2.7234704 -1.5215883
-3.8963082 -2.7259228 -1.5301538
-12.905 -2.4449999 -1.534
-12.83 -2.4070001 -1.548
-12.776 -2.4200001 -1.5420001
-12.742 -2.437 -1.538
-13.959 -2.3180001 -1.5039999
-14.88 -2.2590001 -1.5470001
-23.788 -2.052 -1.534
-23.804001 -2.0120001 -1.535
-23.797001 -1.9680001 -1.534
7.13375 -3.2212501 -1.45625
7.2075 -3.2090001 -1.4535
6.3400002 -3.154 -1.483
6.382 -3.1680002 -1.4795001
6.4554996 -3.177 -1.4809999
6.5166001 -3.1720002 -1.4787999
6.5732498 -3.1782498 -1.47675
6.6430006 -3.1903334 -1.4770001
6.6646667 -3.1723335 -1.4749999
6.7120004 -3.1730001 -1.4747499
6.7810001 -3.1693332 -1.4733334
6.844667 -3.184 -1.4723333
6.8620005 -3.1564999 -1.473
6.9154 -3.1704001 -1.4643999
6.9899998 -3.1930001 -1.457
7.0116668 -3.1730001 -1.4596667
7.0903335 -3.1789999 -1.4596666
7.1040001 -3.155 -1.46
7.1677499 -3.1760001 -1.45875
7.2229996 -3.1783333 -1.454
5.1784286 -3.1260002 -1.4937145
5.2175002 -3.1190002 -1.492
5.2612 -3.1246002 -1.4912
5.3194289 -3.1300001 -1.4902858
5.3778005 -3.1232002 -1.4906
5.4189997 -3.1247499 -1.4897499
5.4718003 -3.1296 -1.4878
5.5223999 -3.1328001 -1.4868001
5.5672498 -3.1245 -1.488
5.6194 -3.1290002 -1.4852
5.6715999 -3.1241999 -1.4855999
5.7178001 -3.1240003 -1.4832
5.7730002 -3.128 -1.4823999
5.8204994 -3.1253333 -1.4816668
5.8686366 -3.1245453 -1.4683638
6.2819996 -3.105 -1.4805
6.3353338 -3.1243334 -1.4796667
6.3785 -3.125 -1.4815
6.4242501 -3.1302502 -1.4805
6.4755998 -3.1242001 -1.4799999
6.5356669 -3.125 -1.478
6.5723338 -3.1190002 -1.48
6.6107502 -3.1252499 -1.4790001
6.6735001 -3.12625 -1.477
6.7300005 -3.131 -1.474
6.7737503 -3.12275 -1.47475
6.8074999 -3.1164999 -1.4735
6.8773336 -3.1273334 -1.4736667
6.9260006 -3.1302857 -1.4608572
6.9615002 -3.1065001 -1.466
7.0325003 -3.1307502 -1.4595001
7.1104999 -3.1215 -1.45875
7.1850004 -3.1242502 -1.45775
7.2210002 -3.148 -1.451
7.2595 -3.1265001 -1.4559999
7.3210001 -3.115 -1.4519999
4.7080002 -3.098 -1.5
4.7919998 -3.0830002 -1.4960001
4.8296671 -3.0869999 -1.4976667
4.8763332 -3.0653334 -1.4976667
4.9223337 -3.0725 -1.4981666
4.9780002 -3.0846667 -1.4976667
5.0204291 -3.0777144 -1.4977145
5.0717778 -3.0762222 -1.4964445
5.1326666 -3.0713334 -1.4966667
5.1785998 -3.0734 -1.4966
5.2189999 -3.075 -1.4942001
5.2688575 -3.0775716 -1.4942858
5.3228335 -3.0785003 -1.4914999
5.3794293 -3.0728576 -1.4928572
5.427 -3.0797501 -1.4885
5.4728751 -3.0744998 -1.490625
5.5293341 -3.0818336 -1.4890001
5.5718002 -3.0720003 -1.4876001
5.6225004 -3.0806665 -1.4885001
5.677 -3.0727146 -1.488
5.7305999 -3.0740001 -1.4873999
5.7782497 -3.0725002 -1.4894999
5.8237143 -3.0770001 -1.4875715
5.8664546 -3.0742729 -1.4747273
6.2179999 -3.0670002 -1.4860001
6.2677999 -3.0726001 -1.485
6.3282499 -3.07375 -1.4865
6.3714004 -3.0768001 -1.4845999
6.4296007 -3.0798001 -1.483
6.5206003 -3.0757999 -1.4841999
6.5785003 -3.06775 -1.48075
6.6366668 -3.0880001 -1.4803333
6.6659999 -3.0732501 -1.4779999
6.7817497 -3.0765002 -1.4792501
6.8304996 -3.0844998 -1.47525
2.5246673 -3.0255001 -1.4751335
4.8429999 -3.0209999 -1.498
4.8930001 -3.0280001 -1.5
4.9233336 -3.0276668 -1.4996667
4.9720001 -3.0415001 -1.4974999
5.026 -3.0376668 -1.4983333
5.0840001 -3.0304999 -1.4990001
5.1215 -3.0404999 -1.4974999
5.1757998 -3.023 -1.4986
5.2283335 -3.0303333 -1.4973334
5.2861667 -3.0293331 -1.4965
5.3264003 -3.0320001 -1.4960002
5.3770003 -3.0301666 -1.4951667
5.4214296 -3.0222862 -1.4955716
5.4790001 -3.0234001 -1.4954
5.5244999 -3.0288334 -1.4936666
5.5781665 -3.0248334 -1.4943333
5.6303997 -3.0308003 -1.4952
2.5284567 -2.9736855 -1.4769715
-0.58005887 -2.9230003 -1.4738822
2.7030001 -2.9335001 -1.48
-0.78100002 -2.8715 -1.4605
-0.57925004 -2.87375 -1.47325
-0.76350003 -2.8174999 -1.4655
-0.5794546 -2.8257275 -1.4736819
-3.9083157 -2.7713161 -1.4742105
-3.8987501 -2.7720001 -1.4738752
-12.893 -2.49 -1.464
-23.882999 -2.0610001 -1.456
-23.843 -2.0569999 -1.4960001
-23.832001 -2.0145001 -1.474
-23.801001 -1.969 -1.493
7.2403336 -3.2306666 -1.4466667
7.2823334 -3.224 -1.4433334
7.3334999 -3.2265 -1.4402502
7.3740001 -3.2215002 -1.43225
7.4235001 -3.2199998 -1.4255
7.4899998 -3.233 -1.4299999
7.5657501 -3.2265 -1.4414999
7.6186252 -3.2250001 -1.42775
7.6801672 -3.2271667 -1.4081666
5.863286 -3.1730001 -1.4272143
7.2712502 -3.1767499 -1.44775
7.33675 -3.1752501 -1.44425
7.3639998 -3.1789999 -1.4346666
7.4130001 -3.1693335 -1.4276667
7.5786667 -3.1773334 -1.4403334
7.6236668 -3.1853333 -1.4286668
7.6719999 -3.2 -1.4119999
5.8470001 -3.135 -1.4135
5.8660669 -3.122067 -1.4285332
7.2926664 -3.128 -1.4476666
7.3453331 -3.1253333 -1.4423332
2.5202799 -3.0737202 -1.426
2.5219142 -3.0253999 -1.4249712
-0.80900002 -2.9549999 -1.4220001
2.5289998 -2.976361 -1.4265555
2.6923332 -2.9776666 -1.4106667
2.7059999 -2.9675 -1.4430001
-0.801 -2.928 -1.4349999
-0.79500002 -2.9113331 -1.424
-0.58366674 -2.9232001 -1.4279335
-0.78238463 -2.8813076 -1.4166155
-0.73675001 -2.8564999 -1.414
-0.58388233 -2.8763528 -1.4250001
-3.9107502 -2.8264642 -1.4247143
-12.8375 -2.5139999 -1.413
-13.967334 -2.3786666 -1.4143333
-23.837999 -2.0569999 -1.4119999
-23.874001 -2.0179999 -1.414
7.7294002 -3.2753999 -1.3874
7.7750001 -3.2779999 -1.3646001
5.8602004 -3.223933 -1.3716003
7.7325001 -3.2335002 -1.3868334
7.7706671 -3.2466667 -1.3656667
5.842 -3.178 -1.3625
5.8585725 -3.1758573 -1.3782145
5.8623333 -3.1240556 -1.374889
2.5178647 -3.075757 -1.3745406
2.717 -3.0569999 -1.358
2.5230584 -3.0269709 -1.3759414
2.698 -3.0050001 -1.388
2.7035 -3.026 -1.3705
-0.80733335 -2.9711666 -1.3655
-0.5884375 -2.9778123 -1.377125
-0.79088223 -2.9251175 -1.3761176
-0.58833337 -2.9242222 -1.376
-11.956 -2.569 -1.363
-11.870334 -2.5726669 -1.3756666
-12.833 -2.5355 -1.3900001
-12.797 -2.5289998 -1.3625
-13.999 -2.4260001 -1.36
-23.851999 -2.0580001 -1.3710001
7.8234997 -3.3225 -1.3356667
7.8735003 -3.3246667 -1.3148334
7.901 -3.3195 -1.3034999
5.8450003 -3.2589998 -1.3164999
7.8214998 -3.2785003 -1.3426666
7.8718004 -3.2830002 -1.3152
7.914 -3.2839999 -1.303
5.8463335 -3.2286668 -1.3216667
5.8574004 -3.2258003 -1.3215001
5.8463335 -3.1803336 -1.309
5.857286 -3.1760716 -1.3298572
2.5118189 -3.1225152 -1.3230606
2.517844 -3.0753436 -1.3260624
2.7224998 -3.0799999 -1.3410001
2.5213714 -3.0232 -1.3233144
-0.80779999 -2.9908001 -1.3232
-0.79500002 -2.9644001 -1.3200001
-0.59326673 -2.9794669 -1.3284
-0.77061534 -2.9188201 -1.323718
-0.72726524 -2.9122651 -1.3165102
-0.59304768 -2.9228575 -1.326381
-3.9198215 -2.8788931 -1.3274287
-12.7865 -2.5609999 -1.3280001
-11.9165 -2.5609999 -1.3264999
-11.868999 -2.5725 -1.322
-11.83 -2.5846667 -1.3286667
-11.787666 -2.5973334 -1.3243334
-12.782 -2.5369999 -1.3380001
-23.933001 -2.0650001 -1.3329999
27.093 -4.0419998 -1.281
27.148001 -4.0019999 -1.284
26.233 -3.961 -1.2869999
26.283001 -3.921 -1.289
27.121 -3.9489999 -1.2819999
7.9361429 -3.3262858 -1.2801428
7.9573336 -3.3240001 -1.2756667
5.8445001 -3.2655001 -1.2745
5.8575835 -3.2763336 -1.2798333
5.8442502 -3.2184999 -1.2822499
5.8586364 -3.2288182 -1.2677271
5.8548183 -3.1776364 -1.2799091
2.4990001 -3.1170001 -1.265
2.5106764 -3.1237645 -1.2752647
2.6945 -3.1125 -1.2565
2.5178668 -3.0741005 -1.2755002
2.6753335 -3.0673337 -1.2798333
-0.81214291 -3.031143 -1.2784287
-0.79699999 -3.0065 -1.2587501
-0.60249996 -3.0420001 -1.2565
-0.5977273 -3.0250907 -1.2800001
-0.80199999 -2.993 -1.286
-0.78289467 -2.9732635 -1.2726842
-0.72684616 -2.9600773 -1.260077
-0.67678952 -2.9584737 -1.2607369
-0.6255455 -2.9565456 -1.2566365
-0.59705561 -2.9739444 -1.2748889
-3.9227138 -2.921679 -1.275643
-9.1009998 -2.734 -1.26
-11.762 -2.6220002 -1.2756001
-11.733 -2.628 -1.298
-12.757 -2.5780001 -1.291
-12.731501 -2.5615001 -1.277
-11.973 -2.5510001 -1.279
-11.926001 -2.5633335 -1.274
-11.865499 -2.5714998 -1.279
-11.8315 -2.585 -1.2755001
-11.776501 -2.595 -1.2704999
-11.970333 -2.5426667 -1.2706666
27.312 -4.0739999 -1.243
27.461 -4.0960002 -1.202
27.278999 -4.0209999 -1.242
27.443001 -4.0450001 -1.201
27.299 -3.9749999 -1.242
7.9980001 -3.385 -1.244
8.0170002 -3.368 -1.245
5.8534999 -3.3251004 -1.2248
7.9590001 -3.319 -1.25
8.0319996 -3.349 -1.2460001
5.8404999 -3.2800002 -1.23
5.8535557 -3.2754447 -1.2268889
5.8447142 -3.2321429 -1.2225714
5.8548889 -3.2260001 -1.2253335
2.5081251 -3.1776671 -1.2272917
2.697 -3.155 -1.212
2.4980001 -3.148 -1.2225
2.5103712 -3.1255713 -1.223057
2.6849999 -3.1289999 -1.219
2.7119999 -3.1500001 -1.245
-0.81485718 -3.0705714 -1.215143
-0.60333335 -3.0715837 -1.2235833
-0.80472726 -3.0368185 -1.2263635
-0.79249996 -3.0173001 -1.226
-0.7343334 -3.0056667 -1.207
-0.60686672 -3.0224671 -1.2249334
-0.59899998 -3.0220001 -1.233
-0.76532137 -2.974303 -1.2260895
-0.72513151 -2.9713161 -1.2240528
-0.67656827 -2.9706028 -1.2250569
-0.59871429 -2.9722857 -1.2324286
-9.041667 -2.7160003 -1.2183335
-11.8315 -2.6829998 -1.22425
-11.8 -2.665 -1.242
-11.823001 -2.6270001 -1.2162857
-11.784 -2.6400001 -1.24
-12.679 -2.586 -1.215
-11.868 -2.5723333 -1.2256668
-11.829333 -2.5853336 -1.2220001
-11.789 -2.598 -1.24
27.452999 -4.1440001 -1.153
27.440001 -4.0929999 -1.152
27.454 -4.046 -1.153
5.8429999 -3.3194549 -1.1766363
5.8550005 -3.3284001 -1.1796
5.8443851 -3.2779229 -1.1780001
5.8562498 -3.2714999 -1.1654999
2.4971428 -3.2260003 -1.1764286
2.5049529 -3.2261906 -1.1784285
2.4972 -3.1766 -1.1822001
2.5050385 -3.175808 -1.1735384
2.6630001 -3.1600001 -1.152
2.704 -3.197 -1.175
-0.82050002 -3.1185 -1.164
-0.60978574 -3.1249287 -1.1733572
2.5117996 -3.1249995 -1.1735713
2.65575 -3.1317499 -1.17325
-0.81023085 -3.0790002 -1.1704615
-0.80000001 -3.072 -1.151
-0.60699999 -3.0724001 -1.1766667
-0.80299997 -3.039 -1.183
-0.77168095 -3.0211704 -1.1714467
-0.72482866 -3.0169568 -1.170586
-0.67459327 -3.014559 -1.1673219
-0.62530446 -3.0180728 -1.1725651
-3.951 -2.9920001 -1.1720001
-9.0579996 -2.7390001 -1.171
-9.033 -2.7309999 -1.184
-8.9949999 -2.737 -1.163
-11.879 -2.6719999 -1.1645
-11.844999 -2.6645 -1.1825
-11.869667 -2.6303334 -1.1696668
-11.85 -2.6110001 -1.182
27.474001 -4.1469998 -1.1059999
27.43 -4.092 -1.103
5.842875 -3.37275 -1.1315
5.8534288 -3.3781428 -1.1264286
5.8415833 -3.3256669 -1.1229167
5.8525 -3.3165002 -1.1235
5.8422146 -3.2779996 -1.1242858
2.4956667 -3.2269442 -1.1235
2.5036156 -3.2269232 -1.1233077
2.4962223 -3.1808889 -1.131
2.5049546 -3.1740456 -1.1248636
2.6626668 -3.1819999 -1.1256666
-0.81371427 -3.1193571 -1.1180716
-0.61269999 -3.1258001 -1.1221
-0.80460006 -3.0870001 -1.1352
-0.77303845 -3.0646536 -1.1145386
-0.72741467 -3.0628288 -1.1156096
-0.67631257 -3.0632503 -1.1169794
-0.62585419 -3.0663757 -1.1198542
-3.9549999 -3.0280001 -1.105
-3.9376431 -3.0264285 -1.1257144
-0.7699433 -3.036094 -1.130717
-0.72349018 -3.0358233 -1.1327646
-0.67264593 -3.0351038 -1.1337918
-0.62736958 -3.0325215 -1.1354347
-10.801 -2.7579999 -1.125
-10.7742 -2.7634001 -1.1220001
-10.7155 -2.7765 -1.1265
-10.677 -2.7865 -1.1224999
-9.007 -2.7579999 -1.1160001
-9.0105 -2.7414999 -1.14
-11.955 -2.6789999 -1.107
-11.9255 -2.6772499 -1.1259999
-11.889 -2.664 -1.1440001
-11.886499 -2.6305001 -1.13225
-17.588501 -2.5300002 -1.125
-17.528999 -2.5369999 -1.1059999
5.8398671 -3.4230671 -1.0738667
5.8392997 -3.3756001 -1.0797
5.8509998 -3.3824999 -1.08075
5.8397136 -3.3288569 -1.073
5.8526669 -3.3073335 -1.077
2.4937272 -3.2745452 -1.0737727
2.5035555 -3.2698891 -1.0813333
2.496182 -3.2187271 -1.0738182
2.5025885 -3.2247646 -1.0781765
2.6403334 -3.2073333 -1.0650001
2.6659999 -3.2249999 -1.08075
-0.8239091 -3.176091 -1.0694546
2.4965 -3.17975 -1.08325
-0.81124997 -3.1359999 -1.08425
-0.78839999 -3.1110001 -1.0622
-0.72555554 -3.1073334 -1.0606111
-0.67877275 -3.1080909 -1.0610907
-0.6256429 -3.1185002 -1.0691786
-0.77102947 -3.080338 -1.0753824
-0.72589481 -3.0816841 -1.0790395
-0.67332852 -3.0832858 -1.0805
-0.62960732 -3.0823929 -1.0809466
-10.584334 -2.8211668 -1.076
-10.777249 -2.7622499 -1.0732501
-10.717334 -2.7773333 -1.0780001
-10.665999 -2.7833335 -1.0733333
-10.627001 -2.7926669 -1.0696667
-10.822 -2.744 -1.067
-11.97525 -2.6719999 -1.0767499
-17.439499 -2.5710001 -1.0700001
-17.535 -2.507 -1.075
-17.469999 -2.5280001 -1.071
16.01 -3.7539999 -1.026
16.055 -3.7950001 -1.001
16.023001 -3.7279999 -1.027
5.8384004 -3.4222002 -1.0255334
5.8520002 -3.437 -1.0190001
5.8323078 -3.3755386 -1.0234616
5.8499999 -3.368 -1.049
2.4901788 -3.3230002 -1.0261428
2.5 -3.302 -1.039
2.4932609 -3.2747393 -1.0256957
2.5024998 -3.2741251 -1.02325
2.668 -3.2727499 -1.02825
-0.62250006 -3.2210002 -1.0230834
2.4944708 -3.2274117 -1.0293529
-0.81606674 -3.1758668 -1.0250669
-0.77039999 -3.1554 -1.0052
-0.71128577 -3.1614287 -1.0054287
-0.68342853 -3.1557145 -1.0070001
-0.62236363 -3.1686363 -1.0242727
-0.8028 -3.1358001 -1.0280001
-0.77338934 -3.1241953 -1.0244415
-0.72495079 -3.1265557 -1.0255678
-0.67366654 -3.125905 -1.0272025
-0.63163799 -3.1250341 -1.0256897
-0.77388889 -3.093667 -1.044889
-0.72800004 -3.0946 -1.0448
-0.65999997 -3.0970001 -1.049
-10.6045 -2.8065 -1.0295
-10.576144 -2.8245718 -1.0271429
-10.783 -2.7620001 -1.0288
-10.728334 -2.7736669 -1.0203334
-10.68 -2.7874999 -1.026
-10.639 -2.796 -1.0225
-10.801 -2.7379999 -1.046
-17.450001 -2.6199999 -1.0089999
-17.459667 -2.5686667 -1.0296667
-17.436001 -2.586 -1.008
-17.446999 -2.5250001 -1.0235
16.016001 -3.816 -0.97000003
15.996 -3.7509999 -0.96799999
16.0305 -3.7744999 -0.98450005
5.8344674 -3.4735334 -0.97586673
5.8520002 -3.451 -0.99599999
5.8358335 -3.4219999 -0.97224998
5.8509998 -3.437 -0.99400002
5.8354707 -3.3738823 -0.97305894
2.4877861 -3.3274646 -0.97425008
2.5015001 -3.3214998 -0.99349999
2.6735001 -3.3195 -0.98300004
2.4935162 -3.2756448 -0.97341931
2.630286 -3.2748573 -0.97099996
2.6570001 -3.299 -0.977
-0.82744437 -3.2266667 -0.97777778
-0.62599999 -3.2274444 -0.97655553
-0.80857152 -3.1782143 -0.97607142
-0.77477771 -3.1661272 -0.97041267
-0.72462666 -3.1696265 -0.97105336
-0.67484719 -3.1695557 -0.97284722
-0.63349998 -3.171026 -0.97123671
-3.9543574 -3.125643 -0.97235727
-3.9463003 -3.1229999 -0.97659999
-0.77388239 -3.1431761 -0.98805875
-0.72581249 -3.141125 -0.98987502
-0.66983336 -3.1450834 -0.9900834
-0.63005561 -3.1400559 -0.98716664
-10.603 -2.8659999 -0.954
-10.583166 -2.8773334 -0.97116673
-10.584167 -2.8214998 -0.9798333
-10.802 -2.7590001 -0.98799998
-10.717751 -2.7725 -0.98075002
-10.662333 -2.783 -0.97600001
-10.625667 -2.7926669 -0.97299999
-17.462 -2.6210001 -0.97899997
-17.452999 -2.589 -0.97799999
-17.441 -2.5550001 -0.977
-17.448 -2.5250001 -0.977
16.063 -3.8565001 -0.93000001
15.995 -3.8110001 -0.91100001
16.028 -3.819 -0.94199997
16.008335 -3.7743335 -0.921
5.8335004 -3.4778123 -0.92893749
5.8293071 -3.4239237 -0.92430764
5.8579998 -3.441 -0.92299998
2.4827499 -3.3739691 -0.92549998
2.652 -3.352 -0.90799999
2.4882221 -3.325222 -0.92640734
2.5065 -3.316 -0.921
2.5840001 -3.302 -0.90600002
2.6220002 -3.3085001 -0.912
2.6559999 -3.3336666 -0.93666667
-0.83900005 -3.2711999 -0.92959994
-0.63222218 -3.2815557 -0.92222226
2.4888504 -3.28 -0.92845005
2.6141112 -3.2895555 -0.92900002
-0.81652629 -3.2190526 -0.92168415
-0.77449989 -3.2124445 -0.91297227
-0.72379988 -3.2136219 -0.91604453
-0.67393881 -3.2127142 -0.91932654
-0.63636363 -3.222091 -0.9145456
-0.80509996 -3.1884 -0.93349993
-0.77598035 -3.1862354 -0.93327463
-0.7256341 -3.1888776 -0.93373168
-0.67528564 -3.1879997 -0.93394285
-0.63517243 -3.1864824 -0.93358618
-10.604 -2.9260001 -0.91649997
-10.5915 -2.92275 -0.92974997
-10.587999 -2.872 -0.9235
-10.575286 -2.8245714 -0.93100005
-17.458 -2.6210001 -0.94800001
-17.455 -2.5895 -0.93200004
-17.4445 -2.556 -0.93099999
16.038 -3.911 -0.85699999
19.398001 -3.9430001 -0.85600001
16.018 -3.8759999 -0.85600001
16.055 -3.885 -0.88700002
16.0215 -3.832 -0.86950004
5.8344703 -3.5255883 -0.87441182
5.8302665 -3.4728 -0.87900007
2.4754331 -3.4227662 -0.87250006
2.4817243 -3.3757586 -0.87631029
2.4859397 -3.3260005 -0.87612122
2.6148336 -3.3334167 -0.87491673
-0.82354546 -3.2665455 -0.86963642
-0.77681243 -3.2568748 -0.86156255
-0.72376931 -3.2586923 -0.86046153
-0.67725003 -3.26175 -0.86383337
-0.63764286 -3.2665002 -0.87207156
-0.81060719 -3.233357 -0.8777858
-0.77606541 -3.2309833 -0.87978679
-0.72622073 -3.2320437 -0.8781029
-0.67589813 -3.2329154 -0.88122034
-0.64030766 -3.2316155 -0.87900001
-10.6015 -2.9254999 -0.88750005
-10.596 -2.924 -0.87428576
-10.587667 -2.8723333 -0.87549996
19.386999 -3.9760001 -0.82099998
16.023001 -3.9070001 -0.82800001
16.056 -3.9449999 -0.801
16.024 -3.8770001 -0.82700002
5.8324175 -3.5744169 -0.82875007
5.8303847 -3.527 -0.82592314
5.8530002 -3.5480001 -0.80900002
5.8272939 -3.4755886 -0.82252944
2.4754231 -3.4243073 -0.82407707
2.6530001 -3.415 -0.833
2.4806108 -3.3730004 -0.82619447
2.5264211 -3.3585265 -0.81384212
2.5730557 -3.3611112 -0.81583339
2.6154001 -3.3677003 -0.83099997
-0.82914287 -3.3174288 -0.81500012
-0.77420002 -3.3060002 -0.81160003
-0.71433342 -3.3046665 -0.81333339
-0.67559999 -3.3051999 -0.80660003
-0.63924998 -3.326 -0.82174999
2.5205908 -3.3396366 -0.83631819
2.5726192 -3.3409522 -0.83685714
-0.8168695 -3.278935 -0.82545656
-0.77549291 -3.2750988 -0.82587326
-0.7266711 -3.274513 -0.8262369
-0.67599994 -3.2755754 -0.82646579
-0.64216119 -3.2737424 -0.82803214
-0.801 -3.2460001 -0.85000002
-0.76980001 -3.2447999 -0.8448
-0.72333336 -3.2453334 -0.84866667
-0.67649996 -3.2474999 -0.84549999
-9.302 -3.0090001 -0.84799999
-9.2639999 -3.0155001 -0.83700001
-9.2346668 -3.0300002 -0.83733338
-9.1709995 -3.0380001 -0.82999998
-9.1396675 -3.0333335 -0.82433337
-10.614 -2.9893336 -0.82200003
-10.591334 -2.962667 -0.81966674
-9.1940002 -2.993 -0.80500001
-10.605999 -2.9265001 -0.82024997
-10.594334 -2.937 -0.81966674
-10.5858 -2.8778 -0.82940006
30.052 -4.3740001 -0.78500003
19.379999 -4.0089998 -0.75199997
16.031 -3.9679999 -0.77100003
16.015333 -3.9146667 -0.77933329
16.025 -3.8770001 -0.78399998
5.8285294 -3.5739996 -0.77905887
5.8282313 -3.5213079 -0.77346158
2.4728928 -3.4758215 -0.77546436
2.4751878 -3.4208124 -0.77415627
2.5415001 -3.4050002 -0.76050001
2.5765557 -3.4045556 -0.76066667
2.6121666 -3.4115 -0.77316666
-0.84749997 -3.3594999 -0.76950002
-0.64433336 -3.3641667 -0.7741667
2.4853573 -3.3835714 -0.77817863
2.5240247 -3.3806996 -0.77717513
2.5721304 -3.379261 -0.78365219
2.6100001 -3.3920002 -0.78800005
-0.81941307 -3.3174124 -0.77180427
-0.77420539 -3.3199587 -0.77215058
-0.72410446 -3.3208947 -0.77165651
-0.67601794 -3.3171067 -0.77007133
-0.64382344 -3.3187649 -0.77629423
-0.81328571 -3.2952859 -0.78957146
-0.78100008 -3.2904003 -0.79350007
-0.72337508 -3.2931252 -0.79087502
-0.67394733 -3.2918422 -0.79236847
-0.64340001 -3.2966001 -0.79279995
-9.0666676 -3.0560002 -0.77999997
-9.0286674 -3.0609999 -0.77666664
-8.9799995 -3.061667 -0.773
-8.9289999 -3.0735002 -0.76383328
-9.0742502 -3.0257502 -0.77724999
-10.608667 -2.9809999 -0.77633333
-10.6 -2.9649999 -0.76300001
-9.1450005 -2.9679999 -0.77499998
-9.074625 -2.9801252 -0.77837503
-10.6025 -2.9460001 -0.77200001
-10.5908 -2.911 -0.7762
19.384998 -4.0279999 -0.71749997
16.024334 -3.9756668 -0.72266668
16.0145 -3.91925 -0.72624999
12.5735 -3.8344998 -0.70499998
5.8242002 -3.6252003 -0.72553331
5.8215723 -3.575357 -0.72750014
2.4658 -3.5257196 -0.72616005
5.8304548 -3.5344548 -0.7317273
2.467871 -3.4726453 -0.72541928
2.6094999 -3.4580002 -0.70550001
2.4791999 -3.4265997 -0.7245428
2.5242093 -3.4222558 -0.72453499
2.5704839 -3.4233546 -0.72529018
2.6082501 -3.437125 -0.731125
-0.8247577 -3.3632731 -0.71609092
-0.77580011 -3.362066 -0.71739995
-0.72874999 -3.3637044 -0.71704543
-0.6744501 -3.3622253 -0.71492499
-0.64709091 -3.3668182 -0.72500002
-0.81846672 -3.3390667 -0.73576659
-0.77623338 -3.3393333 -0.73460013
-0.72370005 -3.3408334 -0.73556674
-0.67694879 -3.337539 -0.73710263
-0.64600003 -3.3296666 -0.7396667
-8.9559994 -3.115 -0.70599997
-9.0555 -3.0525 -0.72850001
-9.0159998 -3.0569999 -0.73399997
-8.9693336 -3.0615001 -0.71700001
-8.9362001 -3.0818002 -0.72719997
-9.0621433 -3.0245714 -0.73071426
-9.0410004 -3.0480001 -0.727
-10.6082 -2.9758 -0.72459996
-10.591 -2.983 -0.72399998
19.367001 -4.1100001 -0.68300003
16.02 -4.053 -0.65600002
19.388 -4.0799999 -0.68300003
16.023001 -4.0249996 -0.66999996
16.0205 -3.9797502 -0.66974998
12.564 -3.9159999 -0.65899998
12.565249 -3.8800001 -0.67049998
12.56325 -3.8310001 -0.66974998
5.8116164 -3.675 -0.67307693
5.8162003 -3.6295333 -0.67193335
5.8227501 -3.5774999 -0.67845005
5.8760004 -3.5681109 -0.67288893
5.9204998 -3.5698333 -0.67300004
5.9734287 -3.5741432 -0.68114293
2.4613748 -3.5250831 -0.67662495
2.473186 -3.4734888 -0.67188382
2.5232086 -3.4600418 -0.6690833
2.5733995 -3.4680002 -0.66879994
2.6078002 -3.4783998 -0.68120003
-0.85600001 -3.4200001 -0.69
-0.82177269 -3.4090002 -0.66286373
-0.7753334 -3.4069445 -0.65738893
-0.72188455 -3.4091921 -0.66407698
-0.67577785 -3.4150002 -0.66440737
2.4767776 -3.4452221 -0.69000006
2.5191431 -3.4435 -0.68807143
2.5663753 -3.4443753 -0.692375
-0.82504261 -3.3824673 -0.68029785
-0.77523625 -3.3823271 -0.67996365
-0.7264232 -3.3841345 -0.68042308
-0.67264163 -3.3840001 -0.68222636
-0.64866662 -3.3826666 -0.69066668
-8.9267502 -3.1291251 -0.66912496
-9.0030003 -3.0525 -0.68299997
-8.9752502 -3.0756247 -0.67537504
-8.9302492 -3.0929999 -0.66649997
-9.0296669 -3.0440001 -0.67633337
-8.9910002 -3.0480001 -0.65700001
-10.613 -2.9790001 -0.66750002
-10.591 -2.973 -0.685
30.065001 -4.4829998 -0.62599999
19.381001 -4.125 -0.62600005
16.011999 -4.0510001 -0.62699997
17.656 -4.0739999 -0.625
16.009001 -4.0209999 -0.62599999
17.658001 -4.0409999 -0.625
16.017 -3.9790001 -0.62599999
12.56375 -3.928 -0.62550002
12.549 -3.8870001 -0.61199999
12.562334 -3.8746669 -0.62833333
5.7979999 -3.7119999 -0.60799998
5.7979999 -3.6754999 -0.6365
5.8120003 -3.6715 -0.62116665
5.7985001 -3.6340001 -0.6225
5.8190012 -3.6226432 -0.62507141
5.8701258 -3.607625 -0.61912501
5.9282498 -3.6147501 -0.61325002
5.9777498 -3.62325 -0.62349999
2.4484999 -3.5904999 -0.62699997
2.45684 -3.5705602 -0.62339997
5.8264999 -3.595 -0.64049995
5.8670001 -3.5893333 -0.63933337
5.9232001 -3.5930002 -0.64340001
2.4651613 -3.5210967 -0.62380636
2.5270767 -3.5092309 -0.61084622
2.5756667 -3.5119998 -0.61377776
2.6078334 -3.5309999 -0.61933339
-0.85799998 -3.4519999 -0.63300002
-0.83466667 -3.454 -0.61266673
-0.78149998 -3.454 -0.60749996
-0.72850001 -3.4549999 -0.60900003
-0.6665833 -3.4650838 -0.61941671
2.448 -3.4760001 -0.63599998
2.4764826 -3.4879313 -0.62962067
2.5241785 -3.4847145 -0.63278574
2.5672224 -3.4898336 -0.63188887
-0.85549998 -3.4419999 -0.62150002
-0.82407683 -3.4242773 -0.62606156
-0.77550805 -3.4243438 -0.62424576
-0.7254225 -3.4266765 -0.62556332
-0.67705071 -3.4266438 -0.62740678
-0.84500003 -3.3989999 -0.62900001
-0.76999998 -3.3973999 -0.6372
-0.745 -3.3989999 -0.64399999
-0.65799999 -3.3975 -0.64300001
-8.8895998 -3.1738002 -0.61379999
-8.9029999 -3.1229999 -0.63700002
-8.873167 -3.1269999 -0.61266673
-9.0174999 -3.0617502 -0.62575001
-8.9788008 -3.0722001 -0.62379998
-8.9206676 -3.085 -0.62033331
-8.8703337 -3.0940003 -0.61733335
30.055 -4.5359998 -0.57300001
19.393999 -4.152 -0.57999998
16.027 -4.1139998 -0.56999999
17.646 -4.1040001 -0.59299999
17.657 -4.1389999 -0.59399998
15.996 -4.0770001 -0.56900001
16.011 -4.0809999 -0.59799999
15.993 -4.046 -0.56800002
16.006001 -4.0303335 -0.58833337
12.557667 -3.9703336 -0.57600003
16.012501 -3.993 -0.583
12.55775 -3.9260001 -0.57849997
12.563 -3.8795002 -0.57849997
9.227334 -3.8453331 -0.56966668
5.79 -3.721 -0.56
5.8076925 -3.7243848 -0.58230776
5.7969999 -3.6530001 -0.58099997
5.8135715 -3.6772146 -0.57557148
5.8717499 -3.6582501 -0.55949998
5.9223337 -3.661 -0.55400002
5.9850001 -3.6660001 -0.57066667
2.4462306 -3.6240001 -0.57361543
2.4534287 -3.623857 -0.57364291
5.8227501 -3.638375 -0.58525002
5.8720002 -3.6361432 -0.58400005
5.9167151 -3.6391432 -0.58028573
5.9569998 -3.6400001 -0.59200001
2.448 -3.5829999 -0.58399999
2.4564779 -3.5757394 -0.57613045
2.5193334 -3.5550001 -0.55933332
2.5875001 -3.5609999 -0.55983341
2.5999999 -3.559 -0.574
-0.84399998 -3.5025001 -0.55400002
-0.72299999 -3.5050001 -0.55299997
2.4463334 -3.5353334 -0.56933331
2.4721797 -3.5292308 -0.57784623
2.5234168 -3.5313888 -0.57527786
2.5665417 -3.534375 -0.57866669
2.605 -3.54 -0.59500003
-0.85579997 -3.471 -0.57580006
-0.82505268 -3.4679296 -0.57300001
-0.77546668 -3.4703004 -0.5711
-0.72533864 -3.4687386 -0.57432312
-0.67818868 -3.4736793 -0.57433969
-0.829 -3.4424999 -0.58487499
-0.77691668 -3.4430003 -0.5949167
-0.72637498 -3.441875 -0.59312499
-0.6802727 -3.442909 -0.59436363
-8.8444996 -3.2154999 -0.55250001
-8.8612003 -3.1811998 -0.57919997
-8.8353338 -3.1683335 -0.55666673
-8.8540001 -3.1400001 -0.58399999
-8.8286009 -3.1108003 -0.57260001
30.072001 -4.5910001 -0.51999998
19.371 -4.217 -0.51099998
19.373501 -4.1835003 -0.528
16.012249 -4.1254997 -0.52625
16.010334 -4.0703335 -0.53066671
16.004999 -4.0345001 -0.5255
12.546 -3.9579999 -0.52100003
12.558666 -3.9783332 -0.53733337
12.566501 -3.92875 -0.53325003
9.2302008 -3.8729999 -0.52179998
9.2215004 -3.8429999 -0.5255
5.8051248 -3.7691252 -0.52174997
5.7950001 -3.7379999 -0.53649998
5.8111877 -3.7260625 -0.52649999
