# .PCD v0.7 - Point Cloud Data file format
VERSION 0.7
FIELDS x y z
SIZE 4 4 4
TYPE F F F
COUNT 1 1 1
WIDTH 1868
HEIGHT 1
VIEWPOINT 0 0 0 1 0 0 0
POINTS 1868
DATA ascii
30.032 -5.9860001 2.5799999
30.028 -5.9320002 2.579
30.035 -5.8790002 2.579
30.031 -5.8239999 2.5769999
30.035999 -5.77 2.5769999
30.011999 -4.6300001 2.559
29.966999 -4.5700002 2.5539999
29.973 -4.5180001 2.5539999
29.962 -4.4619999 2.552
29.997999 -4.414 2.5550001
29.966999 -4.3559999 2.5510001
30.077999 -4.3200002 2.5599999
30.032 -4.2600002 2.556
29.997999 -4.204 2.552
29.981001 -3.7709999 2.599
29.972 -3.664 2.5969999
29.995001 -3.612 2.599
29.996 -3.559 2.598
29.997999 -3.5050001 2.598
30.006001 -3.4530001 2.598
29.973 -3.3959999 2.595
29.983 -3.3429999 2.595
29.993 -3.2909999 2.595
29.983 -3.237 2.5940001
29.98 -3.184 2.5929999
29.990999 -3.1340001 2.5940001
29.999001 -3.082 2.5940001
30.007 -3.0309999 2.5940001
30.007999 -2.9790001 2.5940001
29.951 -2.9219999 2.5880001
29.957001 -2.8699999 2.589
29.971001 -2.819 2.589
29.976 -2.7679999 2.589
29.975 -2.7130001 2.589
29.929001 -2.6570001 2.5840001
29.938999 -2.6029999 2.585
29.959 -2.5510001 2.586
29.974001 -2.4990001 2.5869999
30.017 -2.4489999 2.5899999
29.969999 -2.392 2.586
29.962 -2.3380001 2.585
29.948999 -2.283 2.5829999
29.98 -2.233 2.586
29.999001 -2.181 2.5869999
29.993 -2.128 2.586
29.962999 -2.072 2.5829999
29.982 -2.02 2.585
29.983999 -1.967 2.585
29.98 -1.914 2.5840001
29.975 -1.86 2.5829999
29.973 -1.806 2.5829999
29.962 -1.7539999 2.582
29.965 -1.702 2.582
29.959 -1.649 2.5810001
29.952 -1.597 2.5799999
29.937 -1.545 2.5780001
29.972 -1.4960001 2.5810001
29.944 -1.444 2.579
29.961 -1.392 2.5799999
30 -1.3430001 2.5829999
29.990999 -1.29 2.582
29.993 -1.237 2.582
29.99 -1.1849999 2.582
29.98 -1.133 2.5810001
30.018 -1.082 2.5840001
29.997999 -1.029 2.582
30.007999 -0.97799999 2.582
29.952 -0.92299998 2.5769999
29.951 -0.87199998 2.5769999
29.973 -0.81999999 2.579
29.976999 -0.76700002 2.579
29.990999 -0.713 2.5799999
30.007 -0.66100001 2.582
29.985001 -0.60699999 2.5799999
29.995001 -0.55500001 2.5799999
30.000999 -0.50300002 2.5810001
29.981001 -0.449 2.579
29.988001 -0.396 2.5799999
30.018999 -0.34599999 2.582
29.969 -0.292 2.5780001
29.969999 -0.23899999 2.5780001
29.98 -0.18700001 2.579
29.982 -0.13500001 2.579
29.952 -0.082000002 2.576
29.959999 -0.036499999 2.5769999
29.95867 0.021666666 2.5766668
29.974998 0.064500004 2.5785
29.974001 0.113 2.5780001
29.969999 0.163 2.5780001
29.969999 0.214 2.5780001
29.982 0.26699999 2.579
29.993999 0.31799999 2.5799999
30.002001 0.37099999 2.5810001
30.004 0.42300001 2.5810001
29.975 0.47499999 2.579
29.945999 0.52700001 2.576
29.969 0.58099997 2.5780001
29.937 0.63200003 2.576
29.937 0.68599999 2.576
29.954 0.73900002 2.5769999
29.954 0.79100001 2.5769999
29.959 0.84299999 2.5780001
29.940001 0.89499998 2.576
29.947001 0.94800001 2.5769999
29.952999 1 2.5780001
29.952 1.054 2.5780001
29.958 1.1059999 2.579
29.968 1.159 2.5799999
29.958 1.211 2.579
29.952 1.265 2.579
29.965 1.317 2.5799999
29.950001 1.369 2.579
29.990999 1.424 2.5829999
29.969999 1.474 2.5810001
29.976999 1.526 2.582
29.983999 1.5779999 2.5829999
29.952999 1.6289999 2.5799999
29.992001 1.682 2.5840001
29.957001 1.733 2.5810001
29.958 1.785 2.5810001
29.978001 1.839 2.5829999
29.955999 1.89 2.582
29.954 1.944 2.582
29.931999 1.995 2.5799999
29.947001 2.0469999 2.582
29.945999 2.099 2.582
29.945 2.152 2.582
29.959999 2.2049999 2.5840001
29.936001 2.257 2.582
29.952999 2.3110001 2.5840001
29.959 2.3659999 2.585
29.961 2.4189999 2.585
29.950001 2.47 2.585
29.929001 2.5220001 2.5829999
29.914 2.575 2.5829999
29.924999 2.6289999 2.5840001
29.909 2.6800001 2.5829999
29.914 2.733 2.5840001
29.916 2.786 2.5840001
29.921 2.839 2.585
29.916 2.891 2.585
29.846001 3.7279999 2.5869999
29.851 3.783 2.5880001
29.868 3.839 2.5899999
29.834999 4.2610002 2.592
29.834999 4.3150001 2.5929999
29.841999 5.1690001 2.552
29.823 5.2199998 2.5510001
29.825001 5.2740002 2.552
30.041 -6.151 2.638
30.031 -6.0949998 2.6359999
30.027 -6.039 2.6340001
30.014999 -5.9819999 2.632
30.018999 -5.9299998 2.632
30.016001 -5.875 2.631
30.031 -5.8239999 2.631
30.035999 -5.77 2.631
29.993999 -4.6269999 2.6099999
29.962 -4.5689998 2.6070001
29.948 -4.5139999 2.605
29.957001 -4.461 2.605
29.959 -4.408 2.605
29.958 -4.3540001 2.6040001
29.976 -4.3049998 2.605
30.003 -4.2550001 2.6059999
30 -4.204 2.6059999
29.966 -4.1459999 2.602
29.959999 -4.0910001 2.6010001
29.955999 -4.0370002 2.5999999
29.976999 -3.9860001 2.6010001
30.011 -3.938 2.6029999
30.011 -3.8840001 2.6029999
29.989 -3.8269999 2.5999999
30.007 -3.7219999 2.6010001
29.943001 -3.6600001 2.648
29.962999 -3.609 2.6489999
29.969 -3.556 2.6489999
29.981001 -3.3970001 2.648
29.968 -3.3410001 2.6470001
29.983999 -3.29 2.6470001
29.978001 -3.237 2.6470001
29.997999 -3.1860001 2.648
29.976999 -3.132 2.645
29.973 -3.079 2.645
29.968 -3.027 2.6440001
29.955 -2.974 2.642
29.958 -2.9230001 2.642
29.948 -2.869 2.641
29.969999 -2.8180001 2.642
30.000999 -2.77 2.6440001
29.952 -2.711 2.6400001
29.950001 -2.658 2.6389999
29.941 -2.6040001 2.638
29.938 -2.549 2.6370001
30.01 -2.5009999 2.6429999
29.993999 -2.447 2.641
29.988001 -2.3929999 2.6400001
29.976999 -2.339 2.6389999
29.995001 -2.2869999 2.6400001
29.993999 -2.234 2.6400001
29.999001 -2.1800001 2.6400001
29.983999 -2.1270001 2.638
29.988001 -2.073 2.638
29.992001 -2.0209999 2.638
29.985001 -1.966 2.6370001
29.974001 -1.913 2.6359999
30.042999 -1.864 2.642
29.99 -1.807 2.6370001
29.982 -1.755 2.6359999
30.023001 -1.705 2.6389999
29.965 -1.649 2.6340001
29.98 -1.599 2.635
29.966999 -1.5470001 2.6340001
29.962 -1.495 2.6329999
29.973 -1.4450001 2.6340001
29.990999 -1.393 2.635
29.986 -1.342 2.635
29.983 -1.289 2.6340001
30.004999 -1.238 2.6359999
29.981001 -1.184 2.6329999
29.993999 -1.1339999 2.6340001
30.011 -1.082 2.6359999
29.983 -1.029 2.6329999
29.966 -0.977 2.632
29.969 -0.92500001 2.632
29.950001 -0.87199998 2.6300001
29.978001 -0.81999999 2.632
29.983999 -0.76700002 2.6329999
29.966 -0.713 2.631
29.993999 -0.66100001 2.6329999
29.965 -0.60699999 2.631
29.993 -0.55500001 2.6329999
29.965 -0.50199997 2.6300001
29.957001 -0.44800001 2.6300001
29.969999 -0.396 2.631
29.983999 -0.345 2.632
29.979 -0.292 2.631
29.964001 -0.23899999 2.6300001
29.966999 -0.18700001 2.6300001
29.986 -0.13500001 2.632
29.972 -0.082000002 2.631
29.963501 -0.036499999 2.6300001
29.966335 0.021666666 2.6300001
29.975 0.063500002 2.631
29.972 0.113 2.631
29.936001 0.163 2.628
29.936001 0.214 2.628
30.040001 0.26800001 2.6370001
30.011999 0.31799999 2.6340001
29.962999 0.37 2.6300001
29.982 0.42300001 2.632
29.962 0.47499999 2.6300001
29.945999 0.52700001 2.6289999
29.961 0.58099997 2.6300001
29.943001 0.63300002 2.6289999
29.941 0.68599999 2.6289999
29.987 0.74000001 2.6329999
29.957001 0.79100001 2.6300001
29.959 0.84399998 2.631
29.955999 0.89600003 2.6300001
29.951 0.94800001 2.6300001
29.93 1 2.628
29.962999 1.054 2.631
29.936001 1.1059999 2.6289999
29.961 1.159 2.632
29.972 1.212 2.6329999
29.978001 1.266 2.6340001
29.955 1.317 2.632
29.975 1.37 2.6340001
29.92 1.42 2.6289999
29.934999 1.472 2.631
29.936001 1.525 2.631
29.969 1.577 2.6340001
29.961 1.6289999 2.6340001
29.972 1.681 2.635
29.959999 1.733 2.6340001
29.948 1.785 2.6329999
29.992001 1.84 2.6370001
29.941 1.8890001 2.6329999
29.927 1.942 2.632
29.948999 1.9960001 2.6340001
29.948999 2.0469999 2.635
29.948 2.0999999 2.635
29.962 2.1530001 2.6370001
29.940001 2.204 2.635
29.945999 2.2579999 2.6359999
29.933001 2.3099999 2.635
29.903999 2.3599999 2.6329999
29.919001 2.415 2.635
29.947001 2.47 2.6370001
29.936001 2.523 2.6370001
29.917999 2.576 2.6359999
29.940001 2.6300001 2.638
29.916 2.681 2.6359999
29.893999 2.7309999 2.635
29.923 2.7869999 2.638
29.941999 2.8410001 2.6400001
29.863001 3.73 2.641
29.855 3.7839999 2.641
29.854 3.8380001 2.642
29.864 4.2649999 2.648
29.848 4.3169999 2.6470001
29.823999 5.0040002 2.6010001
29.813999 5.1110001 2.602
29.819 5.165 2.6029999
29.809 5.217 2.6029999
29.804001 5.27 2.6029999
29.805 5.3239999 2.6040001
30.031 -6.1490002 2.6900001
30.032 -6.0960002 2.6900001
30.042 -6.0419998 2.6900001
30.045 -5.9879999 2.6889999
30.045 -5.9349999 2.688
30.035 -5.8790002 2.6860001
30.079 -5.8330002 2.6889999
30.056 -5.7740002 2.6860001
29.993999 -4.6269999 2.664
29.947001 -4.566 2.6589999
29.959999 -4.5159998 2.6589999
29.976 -4.4640002 2.6600001
29.969 -4.4089999 2.6589999
29.943001 -4.3520002 2.6559999
29.98 -4.3049998 2.658
29.993 -4.2550001 2.6589999
30.030001 -4.2080002 2.6619999
29.978001 -4.1479998 2.6559999
29.981001 -4.0929999 2.6559999
29.987 -4.0409999 2.6559999
30.023001 -3.9920001 2.658
30.009001 -3.937 2.6559999
30.006001 -3.8840001 2.6559999
30.007999 -3.829 2.655
30.004 -3.7739999 2.654
29.976 -3.7179999 2.651
29.996 -3.5050001 2.651
30.045 -3.4579999 2.654
29.962 -3.3410001 2.6989999
29.981001 -2.9760001 2.697
29.976999 -2.924 2.697
29.972 -2.8710001 2.6960001
30.011 -2.822 2.6989999
29.973 -2.767 2.6949999
30.004999 -2.7160001 2.697
29.966999 -2.6600001 2.6930001
29.985001 -2.6070001 2.6949999
29.992001 -2.5539999 2.6949999
30.011999 -2.5009999 2.6960001
29.989 -2.447 2.694
29.993 -2.3929999 2.694
29.982 -2.3399999 2.6919999
29.981001 -2.286 2.6919999
29.975 -2.233 2.691
29.983999 -2.1789999 2.6919999
29.978001 -2.1259999 2.691
30.007 -2.0739999 2.6930001
29.971001 -2.0190001 2.6889999
29.989 -1.967 2.691
29.982 -1.914 2.6900001
29.981001 -1.86 2.6889999
29.990999 -1.807 2.6900001
29.99 -1.755 2.6900001
29.993 -1.7029999 2.6900001
29.974001 -1.649 2.688
29.978001 -1.598 2.688
29.966 -1.5470001 2.6860001
29.964001 -1.495 2.6860001
29.968 -1.444 2.6860001
29.993 -1.393 2.688
29.982 -1.342 2.687
29.983 -1.289 2.687
29.959999 -1.2359999 2.6849999
29.972 -1.184 2.6849999
29.99 -1.1339999 2.687
30.018 -1.082 2.6889999
29.999001 -1.029 2.687
29.98 -0.977 2.6849999
29.972 -0.92500001 2.6849999
29.948 -0.87199998 2.6819999
30.014999 -0.82099998 2.688
29.99 -0.76700002 2.6860001
29.982 -0.713 2.6849999
29.978001 -0.66000003 2.6849999
29.979 -0.60699999 2.6849999
29.971001 -0.55400002 2.684
29.976999 -0.50199997 2.684
29.982 -0.449 2.6849999
29.995001 -0.396 2.6860001
30 -0.345 2.6860001
29.995001 -0.292 2.6860001
29.981001 -0.23899999 2.684
29.971001 -0.18700001 2.6830001
29.965 -0.134 2.6830001
29.952 -0.082000002 2.6819999
29.957001 -0.036499999 2.6819999
29.965332 0.021666666 2.6826668
29.982 0.059999999 2.684
30.000999 0.067000002 2.6860001
29.976 0.113 2.684
29.965 0.164 2.6830001
29.969 0.215 2.6830001
30.021999 0.26699999 2.688
29.989 0.31799999 2.6849999
29.969 0.37 2.6830001
29.969999 0.42300001 2.6830001
29.952999 0.47499999 2.6819999
29.951 0.52700001 2.6819999
29.948999 0.58099997 2.6819999
29.938 0.63300002 2.681
29.966999 0.68699998 2.684
29.997 0.74000001 2.6860001
29.940001 0.79100001 2.681
29.968 0.84399998 2.684
29.948 0.89600003 2.6819999
29.950001 0.94800001 2.6830001
29.948999 1 2.6830001
29.968 1.0549999 2.6849999
29.959 1.107 2.684
29.974001 1.16 2.6860001
29.966999 1.212 2.6849999
29.985001 1.266 2.687
29.957001 1.317 2.6849999
29.976999 1.3710001 2.687
29.948999 1.4220001 2.684
29.951 1.473 2.6849999
29.98 1.527 2.687
29.966999 1.577 2.687
29.976999 1.63 2.688
29.962999 1.681 2.687
29.957001 1.733 2.687
29.941999 1.784 2.6849999
29.974001 1.839 2.6889999
29.945 1.8890001 2.6860001
29.940001 1.943 2.6860001
29.945 1.9960001 2.687
29.933001 2.046 2.6860001
29.951 2.0999999 2.688
29.938999 2.152 2.687
29.944 2.204 2.688
29.931 2.257 2.687
29.941999 2.3110001 2.6889999
29.948 2.3640001 2.6900001
29.938 2.4170001 2.6889999
29.945 2.47 2.6900001
29.919001 2.5220001 2.688
29.924999 2.576 2.6889999
29.916 2.628 2.6889999
29.91 2.6800001 2.688
29.919001 2.734 2.6900001
29.917 2.786 2.6900001
29.902 2.8369999 2.6889999
29.837999 3.727 2.6919999
29.856001 3.7839999 2.694
29.815001 3.8329999 2.691
29.811001 5.0019999 2.6530001
29.809999 5.0570002 2.654
29.826 5.1129999 2.6559999
29.813999 5.165 2.6559999
29.796 5.322 2.6570001
30.007 -6.0910001 2.7409999
30.039 -6.0430002 2.743
30.000999 -5.9790001 2.7390001
30.039 -5.934 2.7409999
30.030001 -5.8779998 2.74
30.09 -5.835 2.744
30.047001 -5.7719998 2.7390001
29.948999 -4.6199999 2.7130001
29.973 -4.5700002 2.714
29.965 -4.5170002 2.7130001
29.958 -4.461 2.7119999
29.969999 -4.4089999 2.7119999
29.955 -4.3540001 2.71
30.006001 -4.309 2.714
30.021 -4.2579999 2.7149999
30.033001 -4.2090001 2.7149999
30.039 -4.1560001 2.7149999
30.025999 -4.099 2.7130001
30.049999 -4.0489998 2.7149999
29.986 -3.987 2.7079999
29.973 -3.9319999 2.7060001
29.959999 -3.878 2.7049999
29.955999 -3.823 2.704
29.986 -3.7720001 2.7060001
29.938999 -3.7130001 2.701
29.957001 -3.6619999 2.7019999
29.955999 -3.609 2.701
29.972 -3.556 2.7019999
29.986 -3.5039999 2.7030001
29.995001 -3.4519999 2.7030001
29.995001 -3.3989999 2.7030001
29.997999 -3.2920001 2.7019999
30.003 -3.2390001 2.7019999
29.986 -3.184 2.7
29.99 -3.1329999 2.7
30.003 -3.082 2.7
30.004 -3.03 2.7
29.952999 -2.869 2.747
29.958 -2.8180001 2.747
29.976999 -2.767 2.7479999
29.986 -2.714 2.7490001
29.997999 -2.6619999 2.7490001
29.978001 -2.6070001 2.747
29.952 -2.55 2.744
29.958 -2.497 2.744
29.962 -2.4449999 2.744
29.959999 -2.3900001 2.744
29.966 -2.3380001 2.744
29.975 -2.2850001 2.744
29.99 -2.234 2.7449999
29.981001 -2.1789999 2.744
29.995001 -2.1270001 2.7449999
29.993999 -2.073 2.7449999
29.983999 -2.02 2.743
29.996 -1.967 2.744
29.99 -1.914 2.743
29.976999 -1.859 2.7420001
29.985001 -1.806 2.7420001
30.007999 -1.756 2.744
30.014999 -1.704 2.744
29.986 -1.65 2.7420001
29.969999 -1.598 2.74
29.962999 -1.546 2.7390001
29.986 -1.4960001 2.7409999
29.968 -1.444 2.7390001
29.983 -1.393 2.74
29.995001 -1.342 2.7409999
29.978001 -1.289 2.7390001
30.004 -1.238 2.7409999
29.997 -1.1849999 2.7409999
29.979 -1.133 2.7390001
29.999001 -1.081 2.74
29.973 -1.028 2.7379999
29.976 -0.977 2.7379999
29.968 -0.92400002 2.737
29.985001 -0.87300003 2.7379999
30.004 -0.82099998 2.74
29.982 -0.76599997 2.7379999
29.995001 -0.713 2.7390001
29.993 -0.66100001 2.7390001
30.007 -0.60699999 2.74
29.966 -0.55400002 2.7360001
29.964001 -0.50199997 2.7360001
29.972 -0.44800001 2.7360001
29.958 -0.396 2.7349999
29.989 -0.345 2.7379999
29.972 -0.29100001 2.7360001
29.965 -0.23899999 2.7360001
29.990999 -0.18700001 2.7379999
29.959 -0.134 2.7349999
29.957001 -0.082000002 2.7349999
29.970501 -0.035999998 2.7360001
29.968 0.021666666 2.7356668
29.973499 0.064000003 2.7360001
29.978001 0.113 2.737
29.983999 0.164 2.737
29.975 0.215 2.7360001
29.982 0.26699999 2.737
29.990999 0.31799999 2.7379999
29.979 0.37099999 2.737
29.985001 0.42300001 2.737
29.974001 0.47499999 2.737
29.964001 0.52700001 2.7360001
29.974001 0.57999998 2.737
29.98 0.634 2.737
29.978001 0.68699998 2.737
29.955 0.73900002 2.7349999
29.966999 0.792 2.737
29.948 0.84299999 2.7349999
29.948999 0.89600003 2.7349999
29.98 0.949 2.7379999
29.993999 1.002 2.74
29.985001 1.0549999 2.7390001
29.965 1.107 2.737
29.962999 1.159 2.737
29.955999 1.211 2.737
29.958 1.265 2.737
29.941999 1.317 2.7360001
29.959999 1.37 2.7379999
29.957001 1.4220001 2.7379999
29.955 1.473 2.7379999
29.958 1.526 2.7379999
29.955 1.577 2.7379999
29.955999 1.6289999 2.7390001
29.993 1.683 2.7420001
29.951 1.733 2.7390001
29.923 1.783 2.7360001
29.964001 1.837 2.74
29.945999 1.89 2.7390001
29.938 1.943 2.7390001
29.948 1.9960001 2.74
29.937 2.046 2.7390001
29.922001 2.098 2.7379999
29.943001 2.152 2.74
29.951 2.2049999 2.7420001
29.938 2.2579999 2.7409999
29.938 2.3110001 2.7409999
29.919001 2.362 2.74
29.909 2.415 2.7390001
29.917999 2.4679999 2.74
29.914 2.5209999 2.74
29.927 2.5769999 2.7420001
29.914 2.628 2.7409999
29.900999 2.6789999 2.7409999
29.898001 2.7320001 2.7409999
29.863001 4.2649999 2.701
29.843 4.3169999 2.7
29.836 5.007 2.7090001
29.802 5.0560002 2.7060001
29.82 5.1659999 2.71
29.816 5.217 2.71
30.104 -6.7119999 2.7609999
30.037001 -6.5310001 2.7520001
30.003 -6.0900002 2.7950001
30.034 -6.0419998 2.7969999
30.042999 -5.9879999 2.796
30.014999 -5.9289999 2.793
30.017 -5.875 2.7920001
30.051001 -5.8270001 2.7939999
30.032 -5.7690001 2.7920001
29.975 -4.6240001 2.7690001
29.973 -4.5700002 2.7679999
30.07 -4.533 2.776
29.992001 -4.4660001 2.7679999
29.966 -4.4089999 2.7650001
29.975 -4.3559999 2.7650001
29.98 -4.3049998 2.7650001
29.983 -4.2540002 2.7639999
29.99 -4.2020001 2.7639999
30.040001 -4.1560001 2.7679999
29.98 -4.0929999 2.7620001
30.002001 -4.0430002 2.7639999
29.986 -3.987 2.7609999
29.972 -3.9319999 2.7590001
29.973 -3.8789999 2.7590001
29.971001 -3.8239999 2.7579999
29.983 -3.7709999 2.7590001
29.965 -3.7160001 2.756
29.965 -3.6630001 2.756
29.974001 -3.6110001 2.756
29.983999 -3.5580001 2.756
29.997 -3.5050001 2.757
30.016001 -3.454 2.7579999
30.013 -3.401 2.757
30.004 -3.345 2.756
30.016001 -3.2950001 2.756
30.021 -3.2409999 2.756
29.987 -3.1849999 2.753
30.000999 -3.1340001 2.7539999
29.988001 -3.0799999 2.7520001
30.003 -3.03 2.753
30.002001 -2.9779999 2.7520001
30.042999 -2.931 2.756
29.945999 -2.869 2.799
29.966999 -2.552 2.7980001
29.966999 -2.497 2.7980001
29.959999 -2.444 2.7969999
29.976999 -2.392 2.7980001
29.992001 -2.286 2.799
29.982 -2.233 2.7969999
29.989 -2.073 2.7969999
29.993999 -2.0209999 2.7969999
30.004 -1.967 2.7980001
30 -1.915 2.7969999
29.995001 -1.86 2.796
29.986 -1.806 2.7950001
29.992001 -1.755 2.7950001
29.990999 -1.7029999 2.7950001
29.979 -1.649 2.7939999
30.003 -1.6 2.796
30.004999 -1.548 2.796
30.002001 -1.497 2.7950001
29.979 -1.4450001 2.793
30.004 -1.3940001 2.7950001
29.997999 -1.342 2.7939999
29.989 -1.289 2.793
29.988001 -1.237 2.793
30.014999 -1.1849999 2.7950001
29.993 -1.133 2.793
30.002001 -1.081 2.793
29.990999 -1.029 2.7920001
30.000999 -0.97799999 2.793
30.004999 -0.92500001 2.793
29.983999 -0.87199998 2.7909999
30.018 -0.82099998 2.7939999
29.999001 -0.76700002 2.7920001
29.986 -0.713 2.7909999
30.006001 -0.66100001 2.793
30.013 -0.60699999 2.793
29.986 -0.55400002 2.7909999
29.971001 -0.50199997 2.789
29.982 -0.44800001 2.79
29.964001 -0.396 2.7880001
29.961 -0.345 2.7880001
29.976 -0.29100001 2.789
29.992001 -0.23899999 2.7909999
30.007999 -0.18700001 2.7920001
30.000999 -0.134 2.7909999
29.969999 -0.082000002 2.789
29.9615 -0.035999998 2.7880001
29.965668 0.021666666 2.7880001
29.973999 0.064000003 2.789
29.955999 0.113 2.7869999
29.978001 0.164 2.789
29.975 0.215 2.789
29.990999 0.26699999 2.7909999
29.983999 0.31799999 2.79
29.982 0.37099999 2.79
29.976999 0.42300001 2.79
29.957001 0.47499999 2.7880001
29.976 0.528 2.79
29.976 0.57999998 2.79
29.973 0.634 2.79
29.952 0.68699998 2.7880001
29.962 0.73900002 2.789
29.947001 0.79100001 2.7869999
29.974001 0.89700001 2.79
29.966 0.949 2.79
29.947001 1 2.7880001
29.945999 1.054 2.7880001
29.961 1.107 2.79
29.945 1.159 2.7880001
29.947001 1.211 2.789
29.959 1.265 2.79
29.952999 1.317 2.79
29.931 1.369 2.7880001
29.952 1.4220001 2.79
29.978001 1.474 2.793
29.985001 1.527 2.7939999
29.961 1.577 2.7920001
30.013 1.633 2.7969999
30.007999 1.683 2.7969999
29.962 1.733 2.7920001
29.937 1.784 2.79
29.943001 1.836 2.7909999
29.92 1.888 2.79
29.924999 1.942 2.79
29.910999 1.994 2.789
29.941999 2.0469999 2.7920001
29.951 2.0999999 2.7939999
29.941999 2.152 2.793
29.937 2.204 2.793
29.951 2.2590001 2.7950001
29.958 2.312 2.796
29.954 2.365 2.796
29.907 2.415 2.7920001
29.9 2.467 2.7920001
29.903 2.5209999 2.7920001
29.93 2.5769999 2.7950001
29.902 2.6270001 2.793
29.892 2.6789999 2.7920001
29.893999 2.7320001 2.793
29.896999 3.0480001 2.796
29.881001 3.7869999 2.75
29.875 3.839 2.75
29.857 4.2639999 2.753
29.858999 4.3189998 2.7539999
29.822001 5.0040002 2.76
29.830999 5.0609999 2.7620001
29.825001 5.1129999 2.7620001
30.113001 -9.4849997 2.826
30.103001 -9.4250002 2.8239999
30.101 -9.3660002 2.822
30.084999 -9.3039999 2.819
29.989 -9.2150002 2.809
29.983 -9.1560001 2.8069999
30.021 -9.1110001 2.809
29.968 -8.467 2.8429999
30.094 -6.71 2.8150001
30.039 -6.6420002 2.8080001
30.040001 -6.586 2.8069999
30.023001 -6.5279999 2.8050001
30.042999 -5.8800001 2.848
30.018 -5.7659998 2.8440001
29.964001 -4.6220002 2.8210001
29.978001 -4.5710001 2.822
30.054001 -4.5300002 2.8280001
29.979 -4.4640002 2.8199999
29.986 -4.4109998 2.8199999
29.992001 -4.3590002 2.8199999
29.985001 -4.3060002 2.819
29.972 -4.2519999 2.8169999
29.974001 -4.1999998 2.816
30.02 -4.1529999 2.8199999
29.999001 -4.0960002 2.8169999
30.023001 -4.0450001 2.819
30.024 -3.9920001 2.8180001
30.028999 -3.9400001 2.8180001
30.011 -3.8840001 2.816
30.002001 -3.8280001 2.8139999
29.997999 -3.773 2.813
29.979 -3.7179999 2.8110001
29.976 -3.664 2.8099999
29.966999 -3.6099999 2.8080001
30.013 -3.5610001 2.812
29.999001 -3.5050001 2.8099999
30.011999 -3.4530001 2.8110001
29.993999 -3.398 2.809
30.007999 -3.346 2.809
29.993999 -3.2909999 2.8080001
29.985001 -3.237 2.806
29.98 -3.184 2.8050001
29.969999 -3.131 2.8039999
29.990999 -3.0799999 2.8050001
29.992001 -3.029 2.8050001
29.969 -2.9749999 2.802
30.018999 -2.928 2.806
29.968 -2.8180001 2.8010001
29.978001 -2.767 2.8010001
29.987 -2.714 2.802
30.011 -2.6630001 2.803
29.982 -2.6070001 2.8
30.021999 -2.3429999 2.802
30.009001 -2.181 2.8
30.011999 -2.128 2.8
29.983999 -2.02 2.849
29.98 -1.966 2.848
29.986 -1.914 2.849
29.969 -1.859 2.8469999
29.99 -1.806 2.848
29.979 -1.7539999 2.8469999
29.964001 -1.701 2.845
29.966999 -1.649 2.845
29.975 -1.598 2.846
30.002001 -1.446 2.848
30.021999 -1.3940001 2.849
30.004999 -1.342 2.8469999
29.993 -1.289 2.846
29.979 -1.2359999 2.845
29.969 -1.183 2.8429999
29.971001 -1.132 2.8429999
30.006001 -1.081 2.8469999
29.997999 -1.029 2.846
29.993 -0.977 2.845
29.985001 -0.92500001 2.8440001
30.000999 -0.87300003 2.845
29.992001 -0.81999999 2.8440001
29.981001 -0.76599997 2.8429999
29.993 -0.713 2.8440001
30.021999 -0.66100001 2.8469999
30.035 -0.60799998 2.848
29.968 -0.55400002 2.842
29.982 -0.50199997 2.8429999
29.952999 -0.44800001 2.8399999
29.978001 -0.396 2.842
29.964001 -0.345 2.8410001
29.959999 -0.29100001 2.8399999
29.969999 -0.23899999 2.8410001
30.017 -0.18700001 2.846
29.958 -0.134 2.8399999
29.962 -0.082000002 2.8410001
29.9725 -0.035999998 2.8415
29.973 0.033 2.842
30.028999 0.024 2.8469999
29.938 0.061000001 2.8380001
29.952999 0.067000002 2.8399999
29.937 0.113 2.8380001
29.945999 0.164 2.839
29.964001 0.215 2.8410001
29.976 0.26699999 2.842
29.986 0.31900001 2.8429999
29.959 0.37099999 2.8410001
29.954 0.42300001 2.8399999
29.969 0.47499999 2.842
29.966999 0.528 2.842
29.952999 0.57999998 2.8399999
29.934999 0.63300002 2.839
29.938 0.68599999 2.839
29.933001 0.73900002 2.839
29.955 0.79100001 2.8410001
29.948999 0.84399998 2.8410001
29.962999 0.89600003 2.842
29.966 0.949 2.842
29.952999 1.001 2.8410001
29.944 1.054 2.8410001
29.945999 1.1059999 2.8410001
29.929001 1.158 2.8399999
29.975 1.212 2.8440001
29.955 1.265 2.842
29.968 1.318 2.8440001
29.966 1.37 2.8440001
29.988001 1.424 2.846
29.975 1.474 2.845
29.990999 1.528 2.8469999
30.006001 1.58 2.849
29.958 1.63 2.8440001
29.964001 1.681 2.845
29.934999 1.732 2.8429999
29.931 1.784 2.8429999
29.922001 1.835 2.842
29.931 1.8890001 2.8429999
29.92 1.942 2.8429999
29.917 1.994 2.8429999
29.938 2.0469999 2.845
29.922001 2.098 2.8440001
29.933001 2.151 2.845
29.958 2.2060001 2.848
29.955999 2.312 2.848
29.955999 2.4189999 2.849
29.948999 2.471 2.849
29.936001 2.5239999 2.848
29.917999 2.576 2.8469999
29.909 2.628 2.846
29.893999 2.6789999 2.845
29.886 2.994 2.848
29.844999 3.836 2.8
29.832001 4.2610002 2.8039999
29.85 4.3169999 2.806
29.802999 5.0009999 2.812
29.82 5.059 2.8139999
29.812 5.1110001 2.8139999
29.801001 5.2150002 2.8150001
29.801001 5.27 2.816
30.105 -9.4250002 2.8800001
30.101 -9.3660002 2.878
30.143 -9.3210001 2.8800001
30.121 -9.2559996 2.8770001
29.986 -9.1569996 2.862
29.976999 -9.0970001 2.8599999
30.076 -6.7069998 2.8670001
30.044001 -6.6430001 2.8629999
30.025 -6.5830002 2.8599999
30.014 -6.526 2.858
30.018 -6.0929999 2.8499999
30.038 -6.0430002 2.8510001
30.042 -5.987 2.8499999
30.056 -5.9369998 2.8510001
30.077999 -5.8319998 2.8510001
29.952999 -4.5669999 2.8729999
29.981001 -4.5190001 2.8740001
30.004999 -4.4679999 2.8759999
29.975 -4.4099998 2.872
30.002001 -4.3600001 2.8740001
29.976999 -4.3039999 2.8710001
29.987 -4.2540002 2.8710001
30.000999 -4.204 2.872
29.987 -4.1479998 2.8699999
29.971001 -4.092 2.868
29.964001 -4.0370002 2.8659999
29.969 -3.9849999 2.8659999
29.981001 -3.9330001 2.8670001
29.98 -3.8800001 2.8659999
30.035 -3.832 2.8710001
29.976999 -3.77 2.8640001
30.000999 -3.72 2.8659999
30.011999 -3.668 2.8659999
29.990999 -3.6129999 2.8640001
30.003 -3.5599999 2.8640001
30.021 -3.507 2.8659999
30.009001 -3.4530001 2.8640001
30.018999 -3.401 2.8640001
30.002001 -3.345 2.862
30.021999 -3.2950001 2.8629999
30.017 -3.24 2.862
29.992001 -3.1849999 2.859
29.989 -3.1329999 2.859
29.983999 -3.079 2.858
29.974001 -3.027 2.8559999
29.983 -2.9760001 2.8570001
30.007999 -2.927 2.858
29.962999 -2.8699999 2.8540001
29.962 -2.8180001 2.8529999
29.993999 -2.7690001 2.8559999
30.006001 -2.7160001 2.8559999
29.993999 -2.6619999 2.855
30.011999 -2.609 2.8559999
29.983 -2.553 2.8529999
30.02 -2.5020001 2.8559999
29.983999 -2.4460001 2.852
29.995001 -2.3929999 2.8529999
30.007999 -2.3410001 2.8540001
30.009001 -2.2869999 2.8529999
30 -2.234 2.852
29.992001 -2.1789999 2.8510001
29.995001 -2.1270001 2.8510001
30.01 -2.0739999 2.852
29.955999 -1.9119999 2.8989999
29.966 -1.858 2.8989999
29.968 -1.8049999 2.8989999
29.965 -1.753 2.8989999
29.968 -1.701 2.898
29.975 -1.649 2.8989999
29.959999 -1.597 2.8970001
30.042999 -1.55 2.852
30.038 -1.499 2.8510001
29.988001 -1.4450001 2.8989999
29.990999 -1.342 2.8989999
29.974001 -1.288 2.8970001
30 -1.1849999 2.8989999
29.985001 -1.133 2.898
29.969999 -1.08 2.8959999
29.964001 -1.029 2.895
29.979 -0.977 2.8970001
29.985001 -0.92500001 2.8970001
29.976999 -0.87199998 2.8959999
29.993 -0.81999999 2.8970001
29.989 -0.76599997 2.8970001
29.987 -0.713 2.8970001
30.014999 -0.66100001 2.8989999
30.011 -0.60699999 2.8989999
29.957001 -0.55400002 2.8929999
29.947001 -0.50099999 2.892
29.969 -0.44800001 2.8940001
29.958 -0.39700001 2.8929999
29.950001 -0.34400001 2.892
29.993 -0.29100001 2.8959999
29.99 -0.23899999 2.8959999
29.988001 -0.186 2.8959999
29.951 -0.134 2.892
29.986 -0.082000002 2.8959999
29.9615 -0.035999998 2.8934999
29.945999 0.024 2.892
29.959999 0.033 2.8929999
30.013 0.0089999996 2.898
29.9585 0.064000003 2.8930001
29.950001 0.113 2.892
29.955999 0.164 2.8929999
29.975 0.215 2.895
29.961 0.26699999 2.8929999
29.940001 0.31799999 2.891
29.983 0.37099999 2.8959999
29.950001 0.42300001 2.892
29.936001 0.47499999 2.891
29.957001 0.528 2.8929999
29.945999 0.57999998 2.892
29.940001 0.63300002 2.892
29.934999 0.68699998 2.892
29.950001 0.73900002 2.8929999
29.948 0.79100001 2.8929999
29.966999 0.84399998 2.895
29.976 0.89700001 2.8959999
29.965 0.949 2.895
29.969999 1.001 2.8959999
29.971001 1.0549999 2.8959999
29.948 1.107 2.8940001
29.955 1.159 2.895
29.952 1.212 2.895
29.950001 1.265 2.895
29.993 1.319 2.8989999
29.959 1.37 2.8959999
29.947001 1.4220001 2.895
29.978001 1.475 2.898
29.951 1.526 2.8959999
29.941999 1.576 2.895
29.947001 1.6289999 2.8959999
29.954 1.681 2.8970001
29.952 1.733 2.8970001
29.948 1.785 2.8970001
29.945999 1.836 2.8970001
29.933001 1.8890001 2.8959999
29.923 1.942 2.8959999
29.903999 1.993 2.8940001
29.926001 2.046 2.8970001
29.938 2.099 2.898
29.944 2.2049999 2.8989999
29.986 2.2620001 2.8510001
29.969 2.3659999 2.8499999
29.903999 3.049 2.8499999
29.844 4.316 2.859
29.802 5.1100001 2.8670001
29.809 5.164 2.868
30.099001 -9.4230003 2.9349999
30.113001 -9.3699999 2.934
30.122999 -9.3149996 2.934
30.132999 -9.2589998 2.9330001
30.127001 -9.2010002 2.931
30.070999 -6.7059999 2.921
30.028999 -6.6399999 2.9159999
30.007 -6.579 2.9119999
30.017 -6.526 2.9119999
30.051001 -6.0999999 2.9070001
30.048 -6.0440001 2.9059999
30.033001 -5.9860001 2.9030001
30.028999 -5.9320002 2.902
30.040001 -5.8790002 2.902
30.045 -5.8260002 2.901
30.049 -5.7719998 2.901
30.052 -5.717 2.9000001
29.958 -4.5149999 2.9260001
30.011 -4.4679999 2.9300001
30.025 -4.4169998 2.931
30.041 -4.3660002 2.931
30.004999 -4.3080001 2.927
29.996 -4.2550001 2.9260001
30.011 -4.2049999 2.9260001
30.016001 -4.152 2.9260001
29.995001 -4.0949998 2.9230001
29.988001 -4.04 2.9219999
30.009001 -3.99 2.9230001
29.973 -3.9319999 2.9189999
29.975 -3.8789999 2.9189999
29.999001 -3.8280001 2.9200001
30.037001 -3.7780001 2.9230001
30.014 -3.7219999 2.921
29.983999 -3.665 2.9170001
29.982 -3.612 2.9159999
30.002001 -3.5599999 2.918
30.033001 -3.51 2.9200001
29.985001 -3.45 2.915
30.027 -3.402 2.918
30.034 -3.348 2.918
30.063 -3.3 2.9200001
30.02 -3.2409999 2.9159999
30.011 -3.187 2.914
29.982 -3.132 2.911
29.983 -3.079 2.911
29.965 -3.026 2.908
29.987 -2.977 2.9100001
29.952 -2.9219999 2.9059999
29.988001 -2.872 2.9089999
29.958 -2.8180001 2.9059999
29.976999 -2.767 2.9070001
30.000999 -2.7149999 2.9089999
29.988001 -2.661 2.9070001
29.975 -2.6059999 2.9059999
29.968 -2.5510001 2.904
30 -2.5 2.9070001
29.976 -2.4449999 2.904
29.99 -2.3929999 2.905
30.014999 -2.342 2.9070001
30.018999 -2.2880001 2.9070001
30.014999 -2.2349999 2.9059999
29.973 -2.178 2.902
29.995001 -2.1270001 2.904
30.000999 -2.0739999 2.904
29.979 -2.0190001 2.901
29.982 -1.966 2.901
29.944 -1.7 2.9489999
30 -1.548 2.901
29.993 -1.4960001 2.9000001
29.997 -1.393 2.9000001
29.952999 -1.2869999 2.948
30.01 -1.237 2.9000001
29.971001 -0.92400002 2.948
29.958 -0.87099999 2.947
29.986 -0.81999999 2.9489999
29.985001 -0.76599997 2.9489999
29.987 -0.55400002 2.9489999
29.957001 -0.50099999 2.9460001
29.976 -0.44800001 2.948
29.982 -0.39700001 2.948
29.978001 -0.345 2.948
29.968 -0.29100001 2.947
29.969 -0.23899999 2.947
29.964001 -0.186 2.9460001
29.98 -0.134 2.948
29.990999 -0.082000002 2.9489999
29.9575 -0.035999998 2.9454999
29.981667 0.022 2.948
29.962 0.064000003 2.9460001
29.959 0.113 2.9460001
29.974001 0.164 2.947
29.931999 0.215 2.9430001
29.955 0.26699999 2.9449999
29.968 0.31900001 2.947
29.983999 0.37099999 2.948
29.959 0.42300001 2.9460001
29.945 0.47499999 2.9449999
29.955999 0.528 2.9460001
29.952 0.57999998 2.9460001
29.93 0.63300002 2.944
29.933001 0.68699998 2.944
29.936001 0.73900002 2.944
29.952 0.792 2.9460001
29.972 0.89700001 2.948
29.964001 1.001 2.948
29.954 1.0549999 2.947
29.945 1.107 2.9460001
29.957001 1.159 2.948
29.969 1.212 2.9489999
29.961 1.266 2.9489999
29.931 1.472 2.947
29.941 1.525 2.948
29.938 1.576 2.948
29.941999 1.6289999 2.948
29.923 1.679 2.947
29.938 1.732 2.9489999
29.938999 1.785 2.9489999
29.929001 1.835 2.948
29.924 2.046 2.9489999
29.948999 2.1530001 2.9000001
29.959999 2.26 2.901
29.925999 2.3099999 2.925
29.964001 2.3659999 2.9030001
29.937 2.4170001 2.9000001
29.929001 2.4690001 2.9000001
29.948999 2.5250001 2.902
29.921 2.576 2.9000001
29.931999 2.6300001 2.902
29.907 2.944 2.902
29.900999 2.9960001 2.902
29.914 3.05 2.904
29.82 4.3119998 2.9100001
29.799999 5.0560002 2.9189999
29.796 5.1620002 2.9200001
30.104 -9.3669996 2.9890001
30.079 -9.3009996 2.9849999
30.118 -9.2255001 2.9865
30.149 -9.1490002 2.987
30.114 -6.7140002 2.9790001
30.073 -6.6500001 2.974
30.07 -6.5929999 2.973
30.028 -6.5279999 2.967
30.072001 -6.1040001 2.9630001
30.055 -6.046 2.96
30.032 -5.9850001 2.957
30.021 -5.9299998 2.9549999
30.002001 -5.8720002 2.9519999
30.031 -5.823 2.954
30.030001 -5.7690001 2.9530001
30.02 -5.7119999 2.951
30.034 -4.4180002 2.9849999
30.018 -4.362 2.983
30.01 -4.309 2.9809999
29.993 -4.2540002 2.9790001
30.004 -4.204 2.9790001
30.016001 -4.152 2.98
30.007999 -4.0960002 2.9779999
30.007 -4.0430002 2.977
29.965 -3.984 2.9719999
29.968 -3.931 2.9719999
29.964001 -3.878 2.971
29.976999 -3.825 2.971
29.996 -3.773 2.973
29.958 -3.7149999 2.9679999
29.990999 -3.6659999 2.971
29.966 -3.6099999 2.9679999
29.992001 -3.5580001 2.97
29.996 -3.506 2.9690001
30.01 -3.4530001 2.97
30.011 -3.4000001 2.97
30.023001 -3.3469999 2.97
30.042999 -3.2969999 2.9719999
29.986 -3.2379999 2.9660001
30.004999 -3.1860001 2.967
30.02 -3.1359999 2.9679999
29.986 -3.079 2.964
29.982 -3.027 2.9630001
29.997 -2.977 2.964
30.017 -2.928 2.9649999
30.016001 -2.875 2.9649999
30.000999 -2.822 2.9630001
29.983999 -2.7679999 2.961
30.011 -2.7160001 2.9630001
29.982 -2.661 2.96
30.004999 -2.608 2.961
29.971001 -2.552 2.9579999
29.987 -2.4990001 2.9590001
29.98 -2.4460001 2.9579999
29.971001 -2.392 2.9560001
30.013 -2.342 2.96
30.013 -2.2880001 2.96
30.011 -2.2349999 2.9590001
29.985001 -2.1789999 2.9560001
29.993 -2.1270001 2.957
29.983999 -2.072 2.9549999
30.007999 -2.0209999 2.957
29.962 -1.964 2.9519999
29.973 -1.913 2.9530001
29.972 -1.859 2.9530001
29.947001 -1.803 2.95
29.961 -1.753 2.951
30.014999 -1.651 2.9560001
29.982 -1.598 2.9519999
29.99 -1.5470001 2.9530001
29.989 -1.4960001 2.9519999
29.99 -1.4450001 2.9519999
30.002001 -1.393 2.9530001
29.976999 -1.341 2.95
29.986 -1.2359999 2.951
29.976999 -1.184 2.95
30.023001 -1.1339999 2.954
29.983999 -1.08 2.95
29.986 -1.028 2.95
29.987 -0.977 2.95
29.992001 -0.713 2.95
30.031 -0.66100001 2.954
30.007 -0.60699999 2.951
29.950001 -0.396 2.9979999
29.952999 -0.34400001 2.9979999
29.961 -0.29100001 2.9990001
29.941999 -0.23800001 2.997
29.938999 -0.186 2.997
29.943001 -0.134 2.997
29.952 -0.081 2.9979999
29.953999 -0.035999998 2.9979999
29.957001 0.061000001 2.9979999
29.952999 0.164 2.9979999
29.92 0.215 2.9949999
29.927 0.26699999 2.9949999
29.954 0.31799999 2.9979999
29.958 0.37099999 2.9990001
29.933001 0.42300001 2.9960001
29.962 0.47499999 2.9990001
29.948999 0.57999998 2.9979999
29.948 0.63300002 2.9979999
29.995001 0.84500003 2.95
29.986 0.94999999 2.95
29.945999 1.107 2.9990001
29.969 1.318 2.95
29.969 1.3710001 2.95
29.968 1.423 2.95
29.972 1.892 2.9530001
29.954 1.944 2.951
29.938999 1.9960001 2.95
29.927999 2.099 2.95
29.93 2.151 2.951
29.955 2.2060001 2.9530001
30.000999 2.263 2.9579999
29.943001 2.3640001 2.9530001
29.979 2.421 2.957
29.924 2.4690001 2.9519999
29.909 2.5209999 2.951
29.900999 2.575 2.951
29.884001 2.8889999 2.9519999
29.909 2.944 2.9549999
29.902 2.9960001 2.9549999
29.893 3.0480001 2.954
29.848 4.3169999 2.9649999
29.798 5.1630001 2.974
30.059999 -9.2950001 3.0380001
30.076 -9.2419996 3.0380001
30.08 -9.1870003 3.0369999
30.093 -9.132 3.0369999
29.971001 -8.467 3.007
29.962999 -8.4069996 3.0050001
29.996 -8.3590002 3.007
29.992001 -8.3000002 3.0050001
30.007 -8.2469997 3.0050001
29.966999 -8.1820002 3
30.070999 -7.8189998 3
30.094 -6.711 3.0320001
30.077 -6.651 3.029
30.055 -6.5890002 3.0250001
30.023001 -6.527 3.0209999
30.042 -6.098 3.0139999
30.023001 -6.039 3.0109999
30.014 -5.9809999 3.0090001
30.025999 -5.9310002 3.0090001
30.011 -5.8730001 3.007
30.030001 -5.823 3.0079999
30.032 -5.7690001 3.007
30.017 -5.711 3.0039999
30.003 -4.3600001 3.0339999
29.975 -4.3039999 3.0309999
30.009001 -4.257 3.0339999
30.007999 -4.204 3.033
29.997 -4.1500001 3.0309999
30.004999 -4.0970001 3.0309999
30.007999 -4.0430002 3.0309999
29.966 -3.984 3.026
29.952 -3.9289999 3.023
29.962999 -3.8770001 3.0239999
29.989 -3.826 3.026
30.000999 -3.773 3.026
30.017 -3.7219999 3.027
29.995001 -3.6659999 3.0250001
30.011 -3.615 3.0250001
30.003 -3.559 3.0239999
30.009001 -3.507 3.0239999
30.004999 -3.4519999 3.023
30.014999 -3.4000001 3.023
30.009001 -3.345 3.0220001
30.058001 -3.299 3.026
29.981001 -3.2379999 3.0179999
30.024 -3.188 3.0220001
30.009001 -3.135 3.02
29.993999 -3.0799999 3.0179999
30.014999 -3.0309999 3.0190001
29.993999 -2.977 3.017
29.995001 -2.9260001 3.016
29.993 -2.8729999 3.016
29.995001 -2.8210001 3.0150001
29.983 -2.767 3.0139999
30.014 -2.7160001 3.016
29.986 -2.661 3.013
29.962 -2.605 3.01
29.966999 -2.5510001 3.01
29.972 -2.4979999 3.01
29.955 -2.4430001 3.0079999
29.979 -2.3929999 3.01
30.018 -2.342 3.0139999
30.018999 -2.2880001 3.013
30.031 -2.2360001 3.0139999
30.000999 -2.1800001 3.0109999
29.976 -2.125 3.0079999
30.033001 -2.076 3.013
30.016001 -2.0220001 3.0109999
29.986 -1.966 3.0079999
29.959 -1.9119999 3.0050001
29.979 -1.859 3.006
29.974001 -1.806 3.0050001
29.993 -1.755 3.007
29.976 -1.701 3.0050001
29.983999 -1.649 3.006
29.995001 -1.599 3.006
30.003 -1.548 3.007
29.990999 -1.4960001 3.0050001
29.966999 -1.444 3.003
29.973 -1.393 3.003
29.957001 -1.34 3.0009999
29.997 -1.289 3.0050001
29.98 -1.2359999 3.003
29.982 -1.184 3.003
29.995001 -1.133 3.0039999
29.982 -1.08 3.003
29.981001 -1.029 3.0020001
30.011999 -0.97799999 3.0050001
30.003 -0.92500001 3.0039999
29.976999 -0.87199998 3.0020001
29.969 -0.81900001 3.0009999
29.989 -0.76599997 3.0020001
30.030001 -0.713 3.006
30.021 -0.66100001 3.0050001
29.989 -0.60600001 3.0020001
29.989 -0.55400002 3.0020001
29.972 -0.50099999 3
29.966 -0.44800001 3
29.974499 0.021500001 3
30.013 0.024 3.0039999
30.000999 0.068000004 3.003
29.969 0.113 3
29.919001 0.26699999 3.0469999
29.966 0.528 3
29.927 0.57999998 3.049
29.969 0.68800002 3
29.962999 0.74000001 3
29.962 0.792 3
29.964001 0.84399998 3
29.971001 0.89700001 3.0009999
29.983 0.94999999 3.0020001
29.962999 1.001 3.0009999
30.002001 1.0549999 3.0050001
29.982 1.161 3.003
29.958 1.212 3.0009999
29.989 1.267 3.0039999
29.957001 1.318 3.0009999
29.966 1.3710001 3.0020001
29.962 1.423 3.0020001
29.940001 1.473 3
29.936001 1.525 3
29.938 1.576 3.0009999
29.929001 1.628 3
29.938 1.6799999 3.0009999
29.934999 1.732 3.0009999
29.943001 1.785 3.0020001
30 1.84 3.0079999
29.986 1.893 3.007
29.933001 1.943 3.0020001
29.938999 1.9960001 3.003
29.924999 2.046 3.0020001
29.910999 2.098 3.0009999
29.910999 2.1500001 3.0009999
29.912001 2.2030001 3.0020001
29.950001 2.2590001 3.006
29.905001 2.3080001 3.0020001
29.922001 2.362 3.0039999
30.003 2.4230001 3.013
29.914 2.4679999 3.0039999
29.905001 2.5209999 3.0039999
29.924999 2.8399999 3.0090001
29.909 2.891 3.007
29.896 2.9430001 3.007
29.908001 2.997 3.0079999
29.9 3.049 3.0079999
29.847 4.3169999 3.0179999
29.795 5.1090002 3.026
30.094 -9.2469997 3.096
30.077999 -9.1859999 3.092
30.046 -9.118 3.0869999
30.087 -8.5 3.0739999
30.056 -8.4329996 3.069
30.052999 -8.3739996 3.0680001
30.084999 -7.823 3.056
30.079 -6.7069998 3.0840001
30.038 -6.6420002 3.079
30.011 -6.579 3.075
29.996 -6.5209999 3.072
30.028 -6.0949998 3.0669999
30.004 -6.0349998 3.063
30.007999 -5.9819999 3.063
30.004999 -5.927 3.0610001
30.01 -5.8730001 3.0610001
30.017 -5.8200002 3.0599999
30.017 -5.7659998 3.059
30.009001 -5.71 3.0569999
29.993 -4.3060002 3.086
30.007 -4.256 3.0869999
30.018999 -4.2059999 3.0869999
29.990999 -4.1490002 3.0840001
29.990999 -4.0949998 3.0829999
30.017 -4.0450001 3.085
29.983 -3.9860001 3.0810001
30.014999 -3.937 3.0829999
30.030001 -3.8859999 3.0840001
29.995001 -3.8269999 3.0799999
29.976999 -3.7709999 3.0769999
30.014 -3.721 3.0799999
30.003 -3.6670001 3.079
30 -3.6129999 3.0780001
30.021 -3.563 3.079
30.040001 -3.5109999 3.0799999
30.01 -3.4530001 3.0769999
30.025999 -3.401 3.0780001
30.062 -3.3510001 3.0810001
30.034 -3.296 3.0769999
30 -3.2390001 3.073
29.982 -3.1830001 3.0710001
29.981001 -3.132 3.0699999
29.951 -3.076 3.0669999
29.995001 -3.029 3.0710001
29.981001 -2.9760001 3.069
29.990999 -2.925 3.069
30.014 -2.8740001 3.0710001
29.983 -2.8199999 3.0669999
29.988001 -2.7679999 3.0669999
29.997999 -2.714 3.0680001
29.993 -2.661 3.0669999
29.988001 -2.6070001 3.066
30.056999 -2.559 3.072
29.934999 -2.494 3.059
30.028999 -2.4489999 3.069
30.018999 -2.3959999 3.0669999
30.016001 -2.342 3.066
30.018999 -2.2880001 3.066
29.996 -2.233 3.0639999
30.004999 -2.1800001 3.0639999
30.007999 -2.128 3.0639999
29.997999 -2.073 3.063
30.025 -2.0220001 3.0650001
30.004 -1.967 3.063
29.996 -1.914 3.0610001
30.002001 -1.86 3.062
29.999001 -1.808 3.0610001
29.996 -1.755 3.0599999
29.996 -1.702 3.0599999
30.021999 -1.651 3.062
29.989 -1.598 3.059
30.018 -1.549 3.0610001
30.013 -1.497 3.0610001
30.023001 -1.446 3.0610001
29.996 -1.3940001 3.0580001
29.969 -1.34 3.0550001
29.990999 -1.289 3.0569999
29.985001 -1.2359999 3.0569999
30.013 -1.1849999 3.059
29.988001 -1.133 3.056
29.969 -1.08 3.0539999
30.02 -1.03 3.059
29.985001 -0.977 3.056
29.995001 -0.92500001 3.056
29.973 -0.87199998 3.0539999
29.989 -0.81999999 3.056
29.990999 -0.76599997 3.056
30.003 -0.713 3.0569999
29.983999 -0.66000003 3.0550001
29.955 -0.60600001 3.052
29.966 -0.55299997 3.053
29.957001 -0.50099999 3.052
29.962 -0.447 3.052
29.962 -0.396 3.052
29.986 -0.34400001 3.0539999
29.966 -0.29100001 3.052
29.950001 -0.23800001 3.05
29.981001 -0.186 3.0539999
29.975 -0.134 3.053
29.979 -0.081 3.053
29.977501 -0.035500001 3.053
29.964336 0.022666669 3.052
29.961 0.064500004 3.052
29.969999 0.113 3.052
29.993999 0.16500001 3.0550001
29.947001 0.215 3.05
29.945999 0.31900001 3.05
29.947001 0.37099999 3.05
29.938999 0.42300001 3.05
29.948 0.47499999 3.0510001
29.962999 0.528 3.052
29.943001 0.63300002 3.05
29.958 0.68699998 3.052
29.955999 0.74000001 3.052
29.959999 0.792 3.052
29.968 0.84500003 3.0539999
29.986 0.898 3.0550001
29.993999 0.94999999 3.056
29.975 1.002 3.0550001
29.962 1.0549999 3.053
29.934999 1.107 3.0510001
29.938999 1.159 3.052
29.938 1.211 3.052
29.965 1.266 3.0550001
29.922001 1.317 3.0510001
29.931 1.369 3.052
29.938999 1.4220001 3.053
29.954 1.474 3.0550001
29.962 1.527 3.056
29.957001 1.5779999 3.0550001
29.933001 1.6289999 3.053
29.934999 1.6799999 3.0539999
29.926001 1.732 3.053
29.921 1.784 3.053
29.931 1.836 3.0539999
29.924 1.8890001 3.0539999
29.924 1.943 3.0539999
29.923 1.995 3.0539999
29.917 2.046 3.0539999
29.916 2.098 3.0539999
29.924999 2.151 3.056
29.922001 2.204 3.056
29.941999 2.2590001 3.0580001
29.914 2.309 3.056
29.91 2.362 3.056
29.898001 2.414 3.0550001
29.917 2.4690001 3.0569999
29.903999 2.786 3.059
29.915001 2.839 3.0610001
29.923 2.8929999 3.062
29.943001 2.948 3.0639999
29.913 2.997 3.062
29.903 3.049 3.0610001
29.816 5.112 3.0810001
29.799 5.1630001 3.0799999
29.816 5.2719998 3.0840001
30 -9.9709997 3.108
30.035999 -9.1140003 3.142
30.056 -8.4910002 3.1259999
30.063999 -8.4350004 3.125
30.046 -7.8130002 3.1070001
30.045 -6.6999998 3.135
30.013 -6.6360002 3.131
29.995001 -6.5760002 3.128
30.017 -6.526 3.1289999
30.017 -6.092 3.1199999
30.018 -6.0380001 3.119
29.99 -5.9770002 3.115
30.009001 -5.927 3.115
30.025 -5.8759999 3.1159999
30.030001 -5.823 3.115
30.021 -5.7670002 3.1140001
30.018 -5.7119999 3.112
29.988001 -4.2529998 3.138
30.038 -4.2080002 3.1429999
29.996 -4.1490002 3.138
29.997999 -4.0960002 3.1370001
29.985001 -4.0409999 3.135
29.964001 -3.984 3.132
29.995001 -3.934 3.1340001
29.997 -3.882 3.1340001
30.004 -3.8280001 3.1340001
29.952999 -3.767 3.128
29.964001 -3.7149999 3.128
29.976 -3.6630001 3.1289999
30.002001 -3.6140001 3.131
30.007 -3.5599999 3.131
30.014 -3.507 3.131
30.048 -3.457 3.1340001
29.990999 -3.3970001 3.1270001
30.032 -3.348 3.131
30.003 -3.293 3.1270001
29.989 -3.2379999 3.125
29.975 -3.1819999 3.1229999
30.007999 -3.1340001 3.1259999
29.99 -3.0799999 3.1240001
29.976999 -3.027 3.122
29.999001 -2.9790001 3.1240001
29.966999 -2.9230001 3.1199999
30.009001 -2.8740001 3.1240001
29.997999 -2.8210001 3.122
29.952 -2.7639999 3.1170001
29.966999 -2.7119999 3.118
29.961 -2.658 3.1159999
29.951 -2.6029999 3.115
29.976 -2.552 3.1170001
29.950001 -2.4949999 3.1140001
30.017 -2.448 3.1210001
29.993 -2.3940001 3.118
30.007 -2.3410001 3.119
29.996 -2.286 3.1170001
30.007 -2.234 3.118
30.023001 -2.181 3.119
29.993 -2.1259999 3.115
29.983 -2.072 3.1140001
30.004999 -2.0209999 3.1159999
29.997999 -1.966 3.115
30 -1.914 3.115
29.986 -1.859 3.1129999
29.979 -1.806 3.112
30.007 -1.755 3.1140001
29.997999 -1.702 3.1129999
29.993 -1.65 3.112
30.006001 -1.599 3.1129999
29.993999 -1.5470001 3.112
30.021999 -1.497 3.115
30.016001 -1.446 3.1140001
29.988001 -1.393 3.1110001
29.989 -1.341 3.1099999
29.985001 -1.288 3.1099999
30.007999 -1.237 3.112
30 -1.184 3.1110001
30.013 -1.1339999 3.112
29.975 -1.08 3.108
30.000999 -1.03 3.1099999
29.987 -0.977 3.109
29.982 -0.92400002 3.108
29.983999 -0.87199998 3.108
29.993 -0.81999999 3.109
29.979 -0.76700002 3.1070001
29.990999 -0.71200001 3.108
29.992001 -0.66000003 3.108
29.959 -0.60600001 3.105
29.990999 -0.55400002 3.108
29.976 -0.50099999 3.1059999
29.957001 -0.447 3.1040001
29.972 -0.39700001 3.1059999
29.982 -0.34400001 3.1070001
29.955 -0.28999999 3.1040001
29.959999 -0.23800001 3.1040001
29.986 -0.186 3.1070001
29.971001 -0.134 3.105
30.004999 -0.081 3.109
29.9865 -0.035500001 3.1069999
29.961668 0.022666669 3.1043334
29.974499 0.064500004 3.1059999
29.997 0.114 3.108
29.995001 0.16500001 3.108
29.952999 0.215 3.1040001
29.924999 0.26699999 3.1010001
29.944 0.31900001 3.1029999
29.938 0.37099999 3.102
29.952 0.42300001 3.1040001
29.924999 0.47499999 3.1010001
29.926001 0.52700001 3.1010001
29.933001 0.57999998 3.102
29.917999 0.63300002 3.1010001
29.937 0.68699998 3.1029999
29.959999 0.74000001 3.105
29.959 0.792 3.105
29.950001 0.84399998 3.1040001
29.948999 0.89600003 3.1040001
30.018999 0.95099998 3.112
29.968 1.002 3.1070001
29.957001 1.054 3.1059999
29.945999 1.107 3.105
29.958 1.16 3.1059999
29.969999 1.2130001 3.108
29.924 1.2640001 3.1029999
29.923 1.317 3.1029999
29.905001 1.368 3.102
29.934999 1.4220001 3.105
29.962999 1.474 3.108
29.936001 1.524 3.1059999
29.952 1.577 3.108
29.938 1.6289999 3.1070001
29.943001 1.6799999 3.1070001
29.926001 1.732 3.1059999
29.955 1.785 3.109
29.917999 1.835 3.1059999
29.916 1.8890001 3.1059999
29.914 1.942 3.1059999
29.937 1.9960001 3.109
29.934 2.0469999 3.109
29.941 2.0999999 3.1099999
29.913 2.151 3.1070001
29.948 2.2060001 3.1110001
29.955999 2.2590001 3.1129999
29.959999 2.313 3.1129999
29.923 2.3629999 3.1099999
29.899 2.415 3.108
29.92 2.7349999 3.1129999
29.909 2.786 3.112
29.91 2.839 3.1129999
29.941999 2.895 3.1170001
29.910999 2.944 3.1140001
29.913 2.997 3.115
29.889 3.3629999 3.1159999
29.804001 5.0019999 3.131
29.815001 5.1659999 3.135
29.794001 5.2140002 3.1340001
29.799999 5.3239999 3.1370001
29.781 6.4629998 3.1040001
30.049999 -8.4890003 3.1800001
30.040001 -6.698 3.1889999
30.042 -6.6420002 3.188
30.025 -6.5840001 3.1849999
30.030001 -6.5289998 3.184
30.002001 -6.0890002 3.1719999
30.004 -6.0349998 3.171
30.004 -5.9809999 3.1700001
29.993999 -5.9239998 3.168
30.01 -5.8730001 3.168
30.021 -5.8210001 3.168
30.025999 -5.7670002 3.168
30.007 -5.7090001 3.165
29.995001 -4.6259999 3.198
30.013 -4.2049999 3.194
29.990999 -4.1479998 3.1900001
29.993999 -4.0949998 3.1900001
29.996 -4.0419998 3.1889999
29.978001 -3.9849999 3.187
29.975 -3.9319999 3.1860001
30.002001 -3.882 3.188
30.025999 -3.8310001 3.1900001
29.931999 -3.7639999 3.1789999
29.969 -3.7160001 3.1819999
29.969 -3.6630001 3.1819999
30.004999 -3.6140001 3.1849999
29.996 -3.5599999 3.1830001
30.003 -3.506 3.1830001
30.013 -3.4530001 3.1830001
29.976 -3.3959999 3.1789999
30.055 -3.3499999 3.187
29.981001 -3.29 3.178
29.993 -3.2390001 3.1789999
29.974001 -3.1819999 3.1760001
29.969999 -3.1300001 3.175
29.959999 -3.076 3.174
29.979 -3.027 3.175
30.000999 -2.9790001 3.177
29.972 -2.9230001 3.1730001
29.992001 -2.872 3.175
29.962 -2.8180001 3.171
29.965 -2.7650001 3.171
29.972 -2.7119999 3.171
29.966999 -2.6589999 3.1700001
29.952 -2.6029999 3.168
30.000999 -2.5539999 3.1730001
29.961 -2.4960001 3.168
29.989 -2.4460001 3.171
29.992001 -2.3929999 3.171
29.997 -2.3399999 3.171
29.997 -2.286 3.1700001
29.976 -2.2320001 3.1670001
29.969 -2.177 3.1659999
29.993 -2.1259999 3.168
29.959 -2.0699999 3.164
30.000999 -2.02 3.1689999
29.995001 -1.967 3.1670001
29.99 -1.913 3.1670001
30.021999 -1.8609999 3.1700001
29.969999 -1.806 3.164
29.993 -1.7539999 3.1659999
29.997999 -1.702 3.1659999
30.006001 -1.65 3.1670001
30 -1.599 3.1659999
30.007999 -1.548 3.1659999
30.000999 -1.4960001 3.165
29.966999 -1.392 3.161
29.988001 -1.341 3.1630001
29.992001 -1.289 3.1630001
30.007 -1.237 3.165
29.99 -1.184 3.1630001
29.981001 -1.132 3.1619999
29.999001 -1.08 3.1630001
29.997 -1.029 3.1630001
29.978001 -0.97600001 3.161
29.99 -0.92400002 3.1619999
29.955 -0.87099999 3.158
29.979 -0.81900001 3.1600001
30.002001 -0.76700002 3.1630001
29.972 -0.71200001 3.1589999
30.000999 -0.66000003 3.1619999
29.993 -0.60600001 3.161
29.968 -0.55299997 3.158
29.983999 -0.50099999 3.1600001
29.961 -0.447 3.158
29.964001 -0.396 3.158
29.958 -0.34400001 3.1570001
29.979 -0.29100001 3.1589999
29.981001 -0.23800001 3.1589999
29.962 -0.186 3.1570001
