# .PCD v0.7 - Point Cloud Data file format
VERSION 0.7
FIELDS x y z
SIZE 4 4 4
TYPE F F F
COUNT 1 1 1
WIDTH 1712
HEIGHT 1
VIEWPOINT 0 0 0 1 0 0 0
POINTS 1712
DATA ascii
-11.994 4.8759999 3.3740001
-14.524 5.0019999 3.352
-14.3765 5.0225 3.3785
-14.321 5.0314999 3.3954999
-13.064 5.0450001 3.3900001
-14.3765 5.0795002 3.3824999
-14.3095 5.0845003 3.3970001
-13.263 5.0695 3.3715
-13.1705 5.0605001 3.3759999
-14.352 5.1129999 3.3800001
-14.343 5.1389999 3.3800001
-14.289499 5.1339998 3.3965001
-14.353 5.171 3.385
-14.274 5.171 3.3959999
-18.705999 5.3280001 3.3640001
-18.67675 5.3730001 3.3785
-17.608999 5.3509998 3.382
-17.591999 5.3790002 3.3800001
-18.668999 5.4229999 3.3800001
-17.696999 5.4289999 3.368
-17.601999 5.4169998 3.3840001
-17.591 5.447 3.3840001
-19.879999 5.473 3.381
-18.667999 5.4580002 3.3640001
-19.8715 5.5275002 3.3825002
-19.736 5.546 3.3989999
-19.830999 5.573 3.378
-21.976501 5.6210003 3.355
-20.921 5.6430001 3.3989999
-19.8395 5.6314998 3.382
-23.110001 5.6729999 3.3499999
-21.964001 5.6789999 3.3559999
-21.945999 5.6739998 3.3929999
-20.943001 5.6880002 3.365
-23.108 5.7154999 3.3724999
-21.946501 5.7160001 3.3745
-20.9195 5.7200003 3.382
-23.125999 5.763 3.3559999
-23.088501 5.7750001 3.3929999
-21.965 5.7610002 3.359
-20.892 5.7519999 3.3989999
-23.202 5.8249998 3.368
-23.087999 5.8390002 3.395
-23.202 5.868 3.369
-23.072001 5.8790002 3.395
-23.062 5.9200001 3.395
-28.476999 6.2020001 3.3800001
-28.493 6.2579999 3.3829999
-28.478001 6.3070002 3.3829999
-28.433001 6.349 3.3789999
29.943001 1.4220001 3.4230001
29.937 1.474 3.4230001
29.955 1.526 3.425
22.643 2.03 3.444
22.655001 2.0309999 3.405
22.798 2.003 3.4260001
22.645 2.069 3.404
22.653999 2.0699999 3.4460001
22.631001 2.108 3.4430001
22.656 2.1099999 3.4059999
19.427999 2.2550001 3.418
9.7800007 3.0380001 3.4155002
12.95 3.0009999 3.4389999
9.4510002 3.0799999 3.402
9.2864285 3.1228573 3.435143
9.3046665 3.1273334 3.411
9.29175 3.1665001 3.4317498
9.3072004 3.1798 3.4122002
9.2862501 3.2190001 3.43575
9.3053999 3.2342002 3.4175999
-5.4710836 4.3224173 3.4237499
-5.5803337 4.3706665 3.4373336
-5.52425 4.3738751 3.424125
-5.4633336 4.3672223 3.4286668
-5.4383998 4.3807998 3.4405999
-5.6020002 4.4190001 3.4449999
-5.5784998 4.4245 3.438
-5.5292001 4.4318004 3.4238
-5.4698334 4.4222503 3.4233336
-5.4318891 4.427444 3.4383335
-5.5784998 4.4724998 3.4365001
-5.5236664 4.4763331 3.4221668
-5.4790001 4.4768 3.4186001
-5.4329233 4.4763846 3.4309232
-5.573667 4.5253334 3.4356668
-6.546 4.6290002 3.4489999
-8.6820002 4.7030001 3.437
-12.161 4.869 3.4130001
-12.139 4.8850002 3.4100001
-12.082001 4.8740001 3.4189999
-12.030001 4.882 3.4233332
-11.937 4.8769999 3.408
-9.9700003 4.8920002 3.438
-9.8945007 4.8870001 3.437
-9.8160009 4.8810005 3.4350002
-9.7889996 4.8670001 3.447
-12.223 4.9180002 3.4089999
-12.122 4.9029999 3.4070001
-13.262 5.0295 3.4330001
-13.159 5.0159998 3.4349999
-14.2275 5.0829997 3.421
-13.2745 5.0735002 3.427
-13.1745 5.0620003 3.4289999
-14.221667 5.1330004 3.4286666
-14.231001 5.1739998 3.4240003
-16.539 5.2325001 3.4064999
-15.332 5.2199998 3.4449999
-14.297 5.2080002 3.404
-14.242 5.2297497 3.43525
-16.537001 5.2789998 3.4089999
-16.455999 5.2529998 3.424
-16.445 5.2810001 3.4230001
-16.398001 5.2969999 3.447
-15.329 5.2637501 3.43325
-16.514 5.303 3.4059999
-16.5 5.3299999 3.405
-16.432499 5.3239999 3.4235001
-15.314667 5.324667 3.4293334
-17.563 5.3705001 3.4245
-16.514 5.3660002 3.4100001
-16.5 5.3940001 3.4089999
-16.4175 5.3829999 3.4245
-17.55825 5.4200001 3.42625
-19.764 5.4780002 3.4000001
-17.558001 5.4710002 3.4119999
-17.542 5.4660001 3.4430001
-19.753 5.5139999 3.4000001
-19.737499 5.5275002 3.4349999
-17.543251 5.5165 3.4287498
-19.736 5.5830002 3.4184999
-19.724998 5.618 3.4184999
-20.9195 5.6820002 3.4194999
-19.711668 5.6636667 3.4123333
-19.700001 5.6859999 3.4360001
-20.923 5.7210002 3.441
-20.895668 5.7793341 3.4260001
-23.054001 5.8309999 3.4330001
-23.047001 5.8730001 3.4330001
-23.027 5.9109998 3.4319999
-23.016998 5.9724998 3.4324999
29.938 1.474 3.4760001
29.941999 1.525 3.477
29.941999 1.576 3.477
29.969999 1.632 3.4809999
22.667999 2.112 3.4890001
22.637501 2.1700001 3.4854999
22.671 2.1530001 3.45
22.666 2.2320001 3.4909999
12.808249 3.02775 3.4665
12.854 3.003 3.4765
12.946 3 3.4879999
12.966 3.0050001 3.4679999
13.0625 3.0019999 3.48
10.799 3.0880001 3.4979999
10.861 3.086 3.4949999
10.936 3.0869999 3.4960001
11.007 3.086 3.4949999
11.071 3.0829999 3.4920001
12.798 3.0610001 3.4779999
10.366 3.141 3.4979999
10.5065 3.1335001 3.4984999
10.569667 3.1220002 3.495667
10.634334 3.1206665 3.4940002
10.696 3.1389999 3.493
10.707 3.102 3.493
10.778999 3.1226668 3.4949999
10.858001 3.1246669 3.4976668
10.9235 3.1135001 3.494
10.979 3.1289999 3.49
11.006 3.1070001 3.4960001
11.068667 3.1240001 3.4943333
11.1385 3.1329999 3.4935
9.2684298 3.1758573 3.4710002
10.421 3.1775 3.4974999
10.486 3.198 3.4979999
10.546 3.175 3.493
10.554 3.198 3.4979999
10.629 3.1799998 3.4980001
10.691668 3.1780002 3.495667
10.775499 3.1725001 3.4984999
10.834666 3.1796665 3.4949999
10.893 3.197 3.4920001
10.9175 3.1729999 3.4974999
10.9805 3.1704998 3.494
11.0625 3.1735001 3.4965
11.125 3.1704998 3.4924998
11.210501 3.1745 3.4959998
11.261 3.1989999 3.49
8.9850006 3.2340002 3.4925001
9.2384996 3.2349999 3.4935
9.269125 3.2202501 3.4712501
10.466 3.211 3.494
10.514 3.2460001 3.4690001
10.682 3.2160001 3.4960001
10.738 3.233 3.493
10.762 3.22 3.4990001
10.892 3.217 3.494
10.976999 3.211 3.4965
11.046499 3.2105 3.4949999
11.122 3.2114999 3.4955001
11.1935 3.2325001 3.4955001
11.205 3.204 3.4960001
8.3684998 3.267 3.48225
8.5745001 3.266 3.4924998
8.6330004 3.253 3.484
8.8129997 3.2509999 3.4920001
9.2729998 3.256 3.4695001
9.3409996 3.28 3.4660001
10.526 3.25 3.494
-1.2250834 4.0761671 3.4904583
-1.3126 4.1304002 3.4948003
-1.2751923 4.1278076 3.4875
-1.2255502 4.1261001 3.4901497
-1.1874443 4.1252222 3.4956667
-2.2742002 4.1746001 3.4946001
-2.2294002 4.1757998 3.4946001
-1.3119999 4.1758747 3.4932499
-1.2742501 4.1783123 3.4878752
-1.2249413 4.1744704 3.4911175
-1.1837859 4.1802144 3.4927146
-2.3618333 4.2251673 3.495667
-2.3277779 4.2261114 3.493778
-2.2739999 4.2235003 3.4965999
-2.2272 4.2216001 3.4958
-1.3052499 4.21875 3.4914999
-1.2746999 4.2221999 3.4869499
-1.2266365 4.2231822 3.4925456
-1.1827692 4.2299232 3.4923844
-3.3840001 4.2820001 3.4949999
-3.3222859 4.2785716 3.4977143
-3.2796667 4.2716665 3.4933331
-2.3637147 4.2761431 3.4952857
-2.3219171 4.2720833 3.4933333
-2.2715833 4.2782502 3.4960837
-2.2261 4.2767005 3.4979
-1.3053334 4.2800002 3.4970002
-3.4219999 4.323 3.4974999
-3.3788002 4.3256001 3.4966004
-3.3224287 4.323 3.4975715
-3.2717144 4.3264289 3.4928572
-2.3650002 4.3251109 3.4932225
-2.3282144 4.3200722 3.4917145
-2.2795 4.3273573 3.4936433
-2.2260628 4.3235002 3.4946251
-3.437 4.381 3.4990001
-3.3812859 4.3745718 3.4948571
-3.3221428 4.3768578 3.4964287
-3.2798886 4.3721113 3.4928887
-5.428 4.4252729 3.4798183
-3.4203336 4.4254999 3.4961669
-3.3695557 4.4225554 3.4961112
-3.3191111 4.4298887 3.4957776
-3.2746367 4.4280915 3.4904547
-3.2479999 4.4039998 3.4909999
-5.4232221 4.4751115 3.4752221
-6.67875 4.5235 3.4705
-6.631 4.5265999 3.4674001
-6.5727143 4.5247145 3.4662862
-6.5402856 4.5194283 3.4817147
-5.4145455 4.5175452 3.4692726
-6.6722002 4.5785999 3.4647999
-6.6304998 4.5757499 3.46575
-6.572 4.5716 3.4576001
-6.5352731 4.5744548 3.4788184
-5.4089999 4.5510001 3.4579999
-6.6560001 4.6370001 3.457
-6.6215 4.6217499 3.4575
-6.5760002 4.6156669 3.4563336
-6.5314994 4.6275001 3.4751999
-8.6739998 4.6984997 3.4630001
-6.5245838 4.6750836 3.4725003
-9.7860003 4.8874998 3.4590001
-9.7805004 4.9246254 3.4707501
-13.131 5.0180001 3.4549999
-14.223999 5.1669998 3.4822497
-14.257 5.2350001 3.4809999
-14.2145 5.2194996 3.4979999
-15.325 5.2624998 3.4765
-14.253 5.277 3.4549999
-14.24 5.2869997 3.4815001
-16.410667 5.3223333 3.4716668
-15.330001 5.3199997 3.4716668
-16.399 5.3610001 3.451
-15.30975 5.3789997 3.467
-17.549999 5.434 3.4749999
-17.551001 5.4679999 3.477
-17.554001 5.5029998 3.48
-17.540001 5.533 3.4790001
-17.559 5.572 3.4849999
-17.521 5.5929999 3.4790001
-19.724001 5.618 3.474
-19.7255 5.6745 3.4765
-20.902 5.7150002 3.4760001
-19.712 5.7259998 3.477
-20.923 5.7600002 3.4809999
-20.893999 5.7919998 3.4779999
-19.711 5.763 3.4779999
-20.899 5.8330002 3.4809999
-20.889999 5.8699999 3.4809999
-27.971001 6.2969999 3.477
-28.639 6.342 3.454
-27.945999 6.342 3.4749999
-28.628 6.3920002 3.454
-27.969 6.3969998 3.48
-28.406 6.447 3.4809999
-28.724001 6.4660001 3.467
-28.370001 6.4910002 3.4779999
-27.99 6.454 3.484
-28.816999 6.54 3.4790001
29.979 1.58 3.5350001
29.964001 1.63 3.533
29.937 1.681 3.53
29.938 1.733 3.5309999
26.101 1.923 3.5450001
26.105999 1.9695001 3.5235
26.09 2.0150001 3.5450001
26.082001 2.0599999 3.5439999
22.643999 2.1500001 3.527
22.662001 2.1919999 3.53
12.792 3.036 3.5239999
12.807001 3.0236669 3.5106668
12.8575 3.003 3.5265
12.965 3.0044999 3.53
13.0695 3.0040002 3.5320001
11.935 3.0780001 3.5120001
11.9675 3.0634999 3.5310001
12.023001 3.0780001 3.5203333
12.06 3.0639999 3.5220001
12.124499 3.0752499 3.5227499
12.233 3.0703335 3.5303333
12.283 3.075 3.5120001
12.3245 3.062 3.5345001
12.419001 3.0745001 3.5250001
12.511 3.0734999 3.5254998
12.594 3.0704999 3.5355
12.614 3.0639999 3.5280001
12.689 3.059 3.5469999
12.740499 3.0829999 3.5380001
12.811749 3.0762501 3.5192499
13.434 3.063 3.539
13.477 3.073 3.5250001
13.549 3.0639999 3.5420001
13.5795 3.0834999 3.5250001
13.671333 3.0756664 3.5303333
13.776335 3.0740001 3.5296667
10.436333 3.1286666 3.5043335
10.722 3.1259999 3.5
10.934 3.1470001 3.5
12.016 3.1210001 3.5139999
12.085 3.128 3.51
12.1705 3.1269999 3.5089998
12.202 3.0999999 3.516
12.274668 3.119 3.513
12.382667 3.1233335 3.5186667
12.478001 3.112 3.5190001
12.579333 3.1253335 3.5226667
12.684334 3.1283336 3.526
12.799 3.109 3.53
12.810667 3.1276665 3.5180001
10.253 3.165 3.507
10.3015 3.1705 3.5015001
10.365667 3.1803336 3.5013332
10.429 3.1800001 3.5
10.497 3.181 3.5
10.507 3.164 3.5009999
10.576 3.164 3.5009999
10.637 3.1819999 3.5
12.166 3.1719999 3.5110002
12.258 3.161 3.5109999
12.358 3.164 3.5150001
12.469 3.1570001 3.5195
9.2409992 3.2260001 3.503
10.424 3.2179999 3.5020001
10.51 3.2449999 3.51
10.563999 3.2315001 3.5039999
10.625 3.2190001 3.5
10.773 3.2019999 3.5
10.844999 3.2344999 3.503
8.8900003 3.2609999 3.5009999
8.9460001 3.2639999 3.5020001
9.1099997 3.2520001 3.5
9.1689997 3.2550001 3.5009999
10.934 3.25 3.5090001
11.15 3.2509999 3.507
1.9654545 3.9270911 3.5451818
2.0149999 3.9299998 3.5450001
2.069 3.9319999 3.5480001
1.943 3.9760001 3.546
1.9691429 3.9758573 3.5444286
2.0273333 3.9730003 3.5465
1.9655999 4.0212998 3.5460999
2.0240002 4.0333338 3.5440001
2.0639999 4.026 3.549
0.93900001 4.0949998 3.513
0.98500001 4.0970001 3.523
1.0236 4.0939999 3.5284002
1.0746001 4.0907001 3.5323999
1.9673332 4.0791664 3.5456667
2.0278573 4.0792861 3.5475717
-1.3299999 4.122889 3.507
-1.276 4.0999999 3.5020001
-1.217 4.1395001 3.5005
-1.1721818 4.1259546 3.5188179
0.93641675 4.1252508 3.5232501
0.97552383 4.1254282 3.526381
1.0246089 4.123826 3.5310004
1.0744545 4.1280451 3.533318
1.107 4.1279998 3.549
-1.3332499 4.1799998 3.5122499
-1.266 4.198 3.5009999
-1.22 4.178 3.5
-1.1676668 4.174334 3.5138671
-2.3771429 4.2202864 3.5052862
-2.3234444 4.2236667 3.5032222
-2.2744999 4.2090006 3.5036669
-2.2201669 4.2231669 3.5165
-1.3223333 4.2218332 3.5033336
-1.1602501 4.2203751 3.5213752
-2.3744001 4.2720003 3.5045998
-2.3270001 4.2820001 3.5020001
-2.2783635 4.2703638 3.5040908
-2.2128124 4.2703128 3.5153124
-1.319 4.2702498 3.50525
-1.1555455 4.2680907 3.5158184
-1.1476001 4.2751999 3.5292001
-3.454 4.309 3.51
-3.4246998 4.3204002 3.5042005
-3.3683 4.3234 3.5049999
-3.3220003 4.3364005 3.5042
-3.2688122 4.3212504 3.5237501
-2.3215001 4.3199997 3.5009999
-2.2753334 4.3276668 3.503
-2.2100716 4.3237143 3.5177145
-2.1967502 4.33425 3.5205002
-3.4218998 4.3727999 3.5022004
-3.3708334 4.3721666 3.5045002
-3.3323333 4.3801665 3.5006666
-3.2608886 4.3759999 3.5243888
-2.3246667 4.3720007 3.5006666
-2.2704999 4.3625002 3.5044999
-2.2016668 4.3579998 3.5283334
-2.195375 4.3759999 3.5223751
-3.4920001 4.4029999 3.5450001
-3.4189999 4.4249997 3.5032501
-3.3866668 4.4326668 3.5003333
-3.336 4.4089999 3.5009999
-3.2615001 4.4263334 3.517
-3.2472 4.4252005 3.5320001
-3.467 4.467 3.5250001
-3.2547147 4.4702859 3.5262856
-3.2476003 4.4808002 3.5225999
-5.421 4.513 3.5120001
-6.5266676 4.5751667 3.525667
-6.5253334 4.6201115 3.5190001
-6.5221009 4.6753001 3.5255997
-6.5184999 4.727375 3.5287499
-9.7810001 4.9384999 3.5174999
-9.776144 4.9714293 3.5240004
-8.6630001 4.9499998 3.5320001
-14.2205 5.2220001 3.5275002
-14.220501 5.2795 3.5185001
-15.321 5.3220005 3.5245001
-14.2115 5.3330002 3.5065
-14.199 5.3280001 3.5314999
-15.3125 5.3797503 3.5267501
-14.224 5.3804998 3.527
-14.198 5.3990002 3.5369999
-15.31 5.4239998 3.5150001
-15.284 5.415 3.5380001
-15.316999 5.4724998 3.5195
-15.294001 5.4639997 3.5439999
-17.556334 5.5263338 3.526
-17.552999 5.5700002 3.517
-17.525999 5.5949998 3.513
-17.525999 5.6279998 3.5150001
-18.620001 5.73 3.51
-20.897499 5.7729998 3.5165
-20.896 5.8319998 3.5190001
-20.912001 5.8759999 3.523
-20.905001 5.914 3.5239999
-20.903999 5.954 3.5250001
-28.621 6.3899999 3.5050001
-27.875 6.3769999 3.5190001
-27.865 6.4250002 3.5190001
-28.688999 6.4580002 3.5139999
-27.823999 6.467 3.5150001
-27.851 6.5250001 3.52
29.944 1.681 3.5840001
29.955 1.734 3.586
29.959 1.786 3.5869999
26.084999 1.9680001 3.5899999
26.056999 2.013 3.5869999
26.075001 2.0599999 3.5899999
26.094 2.1070001 3.5929999
12.813251 3.0289998 3.5662501
12.707 3.063 3.5769999
12.794 3.0599999 3.55
12.806 3.063 3.579
13.428499 3.062 3.576
13.51 3.056 3.5840001
13.553 3.0650001 3.569
13.632 3.0580001 3.589
13.651 3.063 3.5680001
13.761 3.0625 3.582
13.895 3.066 3.576
13.91 3.0699999 3.553
14.035 3.072 3.5704999
14.1445 3.0704999 3.5699999
14.27 3.0714998 3.5735002
14.394 3.072 3.5899999
14.402 3.073 3.5650001
14.533501 3.0739999 3.5825
14.646 3.0710001 3.595
14.685 3.079 3.5769999
14.7805 3.072 3.5845001
8.7315006 3.5550001 3.5885
5.237 3.707 3.5940001
5.2744288 3.7232862 3.5954289
5.177 3.7880001 3.5929999
5.2129998 3.7725 3.59725
5.2742 3.7745998 3.5978
5.3169999 3.7920001 3.599
5.1866002 3.8228002 3.595
5.2250004 3.8236666 3.5969999
5.2693338 3.8276668 3.5939999
5.3185 3.8274999 3.596
5.1858001 3.8757999 3.5940003
5.2250004 3.8796668 3.5961666
5.2888002 3.8760002 3.5927999
1.9804167 3.9304168 3.5550001
2.0262671 3.9234669 3.5552671
2.0720589 3.9222941 3.5568237
1.943 3.9705458 3.5745456
1.9753637 3.975455 3.5549092
2.0228751 3.9721875 3.5545628
2.0756667 3.9778893 3.5593889
2.1114004 3.9722002 3.5739999
1.9461001 4.0258002 3.5743999
1.9754547 4.0256367 3.5599093
2.0279412 4.0264707 3.5562351
2.0739501 4.0264502 3.5557001
2.1162858 4.0268574 3.5737145
1.9483999 4.0696001 3.5826001
1.9707778 4.0735002 3.5615556
2.0177503 4.0756664 3.5566669
2.073875 4.0760002 3.5567498
2.1125715 4.0721426 3.5654287
1.1055 4.1079998 3.5504999
0.92275 4.17625 3.56675
1.1160001 4.1589999 3.562
-1.153 4.2189999 3.5735002
-1.1488335 4.2231669 3.5761666
-1.1454616 4.2743845 3.5735383
-2.205889 4.3222222 3.5802224
-2.2 4.336 3.5610001
-1.1387001 4.3253002 3.5676
-3.2490001 4.3889999 3.579
-2.2038 4.3621998 3.5748003
-2.197875 4.3806252 3.5764999
-1.1304616 4.3721538 3.576385
-3.2571111 4.4215555 3.5791109
-3.2463336 4.4386668 3.572
-2.1922221 4.4217782 3.5669997
-1.501 4.4359999 3.595
-3.2538574 4.4784288 3.5708573
-3.2451999 4.4804001 3.5790002
-3.1210001 4.4797502 3.5845001
-3.0762222 4.4795556 3.591222
-3.0298002 4.4865999 3.5938001
-2.9868336 4.4766665 3.5916667
-2.1885555 4.4734445 3.5715554
-1.506 4.4520001 3.596
-1.5 4.4580002 3.598
-3.2520001 4.54 3.563
-3.2450001 4.5210915 3.5757277
-3.1689999 4.506 3.596
-3.135 4.507 3.598
-3.063 4.539 3.5880001
-3.0308573 4.5258574 3.5965714
-2.9804289 4.5328574 3.5937145
-2.918 4.5415001 3.598
-4.4300003 4.6155 3.5764999
-6.5189171 4.6734166 3.5743332
-6.5133338 4.7255554 3.5788889
-6.5105004 4.7723002 3.5667999
-6.5 4.7849998 3.5899999
-7.6114998 4.8404999 3.5599999
-6.5064292 4.827857 3.5700002
-6.4959998 4.8000002 3.576
-7.6150007 4.8645 3.5753336
-8.6690006 4.934 3.5605001
-7.6143746 4.9242501 3.5766251
-9.7819996 4.9710002 3.5650001
-8.6700001 4.9545002 3.5644999
-14.21425 5.3334999 3.5767503
-14.068 5.335 3.5865002
-13.95 5.3039999 3.585
-15.294 5.3889999 3.5680001
-14.211 5.375 3.566
-14.1845 5.3789997 3.5885
-15.306 5.4229999 3.573
-15.288 5.4460001 3.5710001
-14.215 5.4050002 3.569
-15.288 5.4770002 3.573
-15.2805 5.52 3.5745001
-17.561501 5.572 3.5685
-17.564499 5.6235003 3.5722499
-16.267 5.618 3.5669999
-17.566 5.6739998 3.559
-17.558001 5.7059999 3.559
-17.601 5.7540002 3.5699999
-27.733 6.3940001 3.552
-27.781 6.4559999 3.5599999
-27.795 6.5120001 3.563
-27.819 6.5700002 3.5680001
29.961 1.735 3.6400001
29.955 1.786 3.6389999
29.969999 1.839 3.641
29.912001 1.8890001 3.635
29.408001 1.91 3.6259999
26.101999 2.062 3.6400001
17.358999 2.8829999 3.6470001
13.405 3.056 3.608
13.7305 3.056 3.6265001
13.875999 3.0620003 3.6240001
13.992001 3.0625 3.6125
14.128 3.0665002 3.6199999
14.264999 3.0700002 3.6265001
14.382999 3.0695 3.628
14.5235 3.072 3.6345
14.651 3.072 3.6229999
14.785 3.073 3.6270001
14.916 3.0734999 3.6160002
15.0695 3.0774999 3.6240001
15.2275 3.082 3.632
8.743 3.5599999 3.622
5.2806673 3.7193334 3.6033332
5.3179998 3.7360001 3.6110001
5.1783848 3.7722311 3.619385
5.2304997 3.77125 3.6047502
5.2682505 3.77425 3.60425
5.3109999 3.766 3.6030002
4.2490001 3.8139999 3.6010001
4.275167 3.8268332 3.6101665
5.1792312 3.8208461 3.6246157
5.2140002 3.802 3.5999999
5.2648573 3.8224285 3.6022859
5.3115001 3.8227501 3.6027498
4.2843337 3.8593335 3.6093335
4.3203335 3.8873334 3.6286666
5.1809168 3.8735836 3.6262498
5.2291999 3.8659999 3.6015999
5.2737498 3.87375 3.6022501
5.3119998 3.858 3.6029999
3.1267648 3.9221761 3.6186469
3.1730001 3.9234004 3.6140006
3.2129998 3.926125 3.6204998
5.1837506 3.9276671 3.622417
3.0414999 3.9736249 3.6322503
3.0703812 3.9762857 3.6180952
3.1252503 3.9726875 3.6171873
3.1731877 3.9749997 3.6131251
3.2103333 3.9783335 3.6166668
3.0447147 4.0242858 3.6331429
3.0695789 4.0280528 3.6143157
3.1201432 4.0240002 3.6166432
3.1713748 4.0249376 3.6133747
3.2130001 4.0254288 3.6140003
1.9490001 4.066 3.6223333
1.9535 4.0865002 3.6364999
3.046 4.0770001 3.6470001
3.0666196 4.077476 3.6210952
3.1275337 4.0767331 3.6148005
3.173353 4.0744123 3.6145291
3.2208891 4.0749998 3.6154447
1.948 4.1129999 3.635
1.9545555 4.1262221 3.6273334
3.0454998 4.1139998 3.641
3.2579999 4.1160002 3.6389999
1.9584999 4.1784997 3.6263998
0.92566669 4.2436666 3.6190002
0.92925 4.2865 3.619
-1.1343333 4.324111 3.6151111
-2.1986001 4.3745999 3.6150002
-1.128 4.372333 3.6243334
-2.977 4.4364996 3.6085
-2.925308 4.4363847 3.6202307
-2.8777499 4.4359999 3.6225834
-2.2034998 4.4084997 3.6229999
-2.1961665 4.4232502 3.6238334
-1.511 4.4334288 3.6257145
-1.123 4.4271111 3.6170001
-3.253 4.4749999 3.6055
-3.244 4.4742723 3.6240909
-3.112 4.4835 3.6139998
-3.0715556 4.4668894 3.6065555
-3.0243573 4.465786 3.6085715
-2.9691668 4.470778 3.6141667
-2.9229999 4.4745717 3.6115003
-2.8725295 4.4753532 3.6232357
-2.8240769 4.4708467 3.6336155
-2.7785335 4.4716673 3.6379337
-2.7303848 4.4777694 3.6419232
-2.6780002 4.4830003 3.64675
-2.1913078 4.4713845 3.6260002
-1.5226667 4.474 3.6243331
-3.2520001 4.506 3.6140001
-3.2410836 4.5288334 3.6266668
-3.1802499 4.5305004 3.6240001
-3.1260002 4.534667 3.6136665
-3.0774999 4.5349998 3.619
-3.0250001 4.52 3.6019998
-2.9721251 4.5227499 3.6039999
-2.9265559 4.5239439 3.6093891
-2.8754117 4.5234709 3.6169415
-2.8257146 4.5214758 3.6259995
-2.7769411 4.5250001 3.632529
-2.72925 4.52525 3.6404371
-2.6743333 4.527 3.6461666
-2.632 4.5286002 3.6472001
-2.188 4.5237999 3.6274002
-4.3759999 4.5592504 3.6199999
-3.9230001 4.5900002 3.6489999
-3.2377496 4.5756664 3.6249166
-3.1760001 4.5500002 3.6229999
-3.1233335 4.5873337 3.6370001
-3.0830002 4.5770001 3.6199999
-3.0216 4.5840001 3.6168001
-2.9899998 4.5924997 3.6185
-2.9183335 4.5716667 3.6173334
-2.8717999 4.5742002 3.6287999
-2.8217499 4.5705004 3.6347499
-2.7740002 4.5539999 3.6330001
-2.7327499 4.5647502 3.6440001
-2.6845 4.5570002 3.6459999
-2.638 4.5500002 3.6459999
-4.454 4.6399999 3.618
-4.4379997 4.6245003 3.6269999
-4.013 4.6300001 3.645
-3.9879999 4.6339998 3.645
-3.9315002 4.6212502 3.6489999
-3.2323568 4.6225719 3.6229999
-3.1210001 4.6240001 3.6420002
-3.072 4.6100001 3.6306667
-3.0050001 4.6069999 3.632
-2.984 4.6100001 3.6400001
-2.95 4.6090002 3.641
-5.8860002 4.6939998 3.619
-4.0524998 4.6834998 3.6409998
-4.0267997 4.6690001 3.6450002
-3.9818001 4.6795998 3.6470001
-3.9215 4.6879997 3.6434999
-3.8759999 4.6754999 3.6489999
-6.2177505 4.7212501 3.6282499
-6.1702495 4.7194996 3.62675
-6.13025 4.7144995 3.6270001
-6.0771427 4.7224288 3.6242857
-6.0235 4.7215004 3.6217499
-5.9760003 4.7275996 3.6238
-5.9269996 4.7260003 3.618
-5.8889999 4.73 3.6140001
-4.0742502 4.7296247 3.6426251
-4.0223336 4.7162223 3.6444445
-3.9784286 4.7247148 3.6455717
-3.9246669 4.7249999 3.645
-6.5184999 4.7728748 3.6271248
-6.4823999 4.7758002 3.6416001
-6.427 4.7606668 3.6353335
-6.382833 4.7678332 3.6351669
-6.3263335 4.7775002 3.6339998
-6.2764997 4.7655001 3.6289999
-6.2315001 4.77075 3.6265001
-6.1792002 4.7732005 3.6301999
-6.1231666 4.7691665 3.6261668
-6.0716667 4.7803335 3.6268334
-6.0184999 4.7735004 3.6269999
-5.9673338 4.77 3.6233335
-5.9301672 4.7796669 3.6258333
-5.8940001 4.7509999 3.6229999
-7.6205001 4.8465004 3.6185
-6.5102501 4.8192501 3.6237502
-6.4729996 4.8236666 3.6353335
-6.4180002 4.8199997 3.6370001
-6.3740001 4.8240004 3.6357999
-6.3164997 4.8134999 3.632
-6.2810001 4.8276668 3.6315
-6.2280002 4.8282003 3.6308
-6.1720004 4.8228002 3.6284001
-6.1280003 4.8207502 3.6275001
-6.0753336 4.8299999 3.6261668
-6.0246673 4.8216667 3.6298332
-5.97225 4.8222499 3.6240001
-5.9285002 4.8241673 3.6248331
-7.611167 4.8746672 3.6125002
-6.513 4.8742504 3.6350002
-6.4835 4.8716249 3.6282499
-6.4260001 4.8617501 3.6345
-6.3721666 4.8711672 3.6345003
-6.3224001 4.8765998 3.6318002
-6.27 4.875 3.632
-6.2203331 4.8773336 3.6318336
-6.1698003 4.8776002 3.6268003
-6.1261997 4.8780003 3.6278
-6.0727501 4.8684998 3.6255002
-6.0288334 4.8765001 3.6255002
-5.9801998 4.8722005 3.6254003
-5.8959999 4.8639998 3.625
-7.6157999 4.9220004 3.6170003
-7.5869999 4.9464998 3.6199999
-6.5080004 4.9235001 3.6300001
-6.4794288 4.9211435 3.6284285
-6.4252501 4.9327497 3.6364999
-6.3782001 4.9232001 3.6341999
-7.6090002 4.9604998 3.612
-7.5929999 4.9879999 3.6129999
-27.813999 6.5159998 3.6159999
-27.830999 6.573 3.6199999
-27.858999 6.631 3.625
-27.885 6.6890001 3.6300001
29.922001 1.836 3.6889999
29.410999 1.858 3.678
29.921 1.89 3.6889999
29.407 1.91 3.678
29.415001 1.961 3.6800001
29.417 2.013 3.6800001
17.424999 2.862 3.6600001
17.284 2.901 3.697
17.408001 2.9219999 3.6589999
17.274 2.9630001 3.697
17.421 2.957 3.6949999
16.336 3.0369999 3.6559999
14.526 3.073 3.6760001
14.666 3.0755 3.6690001
14.809 3.0780001 3.6750002
14.931499 3.0764999 3.6760001
15.094 3.0829999 3.6719999
15.25 3.0869999 3.6800001
15.377501 3.0844998 3.6665001
11.733 3.444 3.6919999
11.767 3.4319999 3.678
11.852 3.434 3.6789999
11.736 3.4780002 3.6960001
11.760333 3.474 3.6793334
11.834667 3.4733334 3.6776667
8.5360003 3.563 3.6600001
8.5734997 3.5704999 3.6655002
8.6227503 3.5725 3.665
8.6739998 3.5580001 3.6719999
10.19 3.598 3.6989999
10.236668 3.5880001 3.6846666
10.2815 3.5904999 3.675
8.6295004 3.6110001 3.664
8.680666 3.6233335 3.6653335
8.7279997 3.608 3.6800001
9.5629997 3.6040001 3.698
9.6709995 3.645 3.6989999
10.17 3.6205001 3.6954999
9.5880003 3.6900001 3.697
9.6490002 3.6949999 3.698
9.6595001 3.6694999 3.6984999
8.7360001 3.701 3.678
6.2879996 3.7717497 3.6807499
6.3245997 3.7718003 3.6697998
6.3807502 3.7765 3.6760001
6.2885003 3.8198752 3.677875
6.3269997 3.82775 3.66575
6.368 3.8218334 3.6740003
6.4286666 3.8123336 3.6893334
5.1447997 3.8626001 3.6836002
5.1704545 3.8763633 3.6697278
6.2884998 3.875 3.677875
6.3179998 3.8741248 3.6721249
6.3730001 3.8763332 3.6713333
6.411334 3.8633335 3.6786668
6.4499998 3.8559999 3.6930001
5.1453333 3.9203334 3.6730001
5.169167 3.9190836 3.670083
6.2906666 3.9303336 3.6776667
6.3166246 3.9227498 3.6742501
6.416667 3.9133334 3.6773334
6.4530001 3.904 3.6900001
5.1470003 3.957 3.6819999
5.1648121 3.9726872 3.6708746
3.0397 4.0229001 3.6654
3.0450001 4.0753636 3.6725454
1.9547501 4.1245003 3.6708748
3.0462859 4.120286 3.6721427
3.052 4.1339998 3.66875
1.9596666 4.1780005 3.6788335
3.0480001 4.1550002 3.652
3.0531247 4.179625 3.6702499
1.9634286 4.2281427 3.6757145
0.92699999 4.2845001 3.6589999
1.9638332 4.2720003 3.6686666
0.93066669 4.3266668 3.6703334
-1.1296667 4.3660002 3.6700001
0.93449998 4.375 3.6820002
-1.5156667 4.4378333 3.6763334
-1.1255 4.4229999 3.672375
-1.077 4.421 3.6989999
-2.6766663 4.4742503 3.6546667
-2.6221876 4.4753122 3.6585622
-2.5773332 4.4738894 3.6663334
-2.4960001 4.4829998 3.6630001
-2.1935 4.4879999 3.6659999
-1.819 4.4590001 3.697
-1.789 4.473 3.6989999
-1.645 4.4720001 3.698
-1.585 4.4759998 3.698
-1.52775 4.47575 3.677
-1.1192858 4.4742861 3.6682861
0.001 4.4580002 3.6753335
-3.151 4.5320001 3.6719999
-2.7055001 4.5290003 3.6505001
-2.6766 4.5144 3.6545999
-2.6225455 4.517909 3.6555457
-2.5730007 4.5240002 3.6636431
-2.5294547 4.5190911 3.6692729
-2.4979999 4.5240002 3.6630001
-2.192857 4.5241427 3.6789999
-2.1400001 4.5479999 3.6960001
-2.0163333 4.5430002 3.694
-1.97 4.5300002 3.6983333
-1.915 4.5345001 3.6919999
-1.895 4.5209999 3.6964998
-1.81875 4.52525 3.698
-1.7874999 4.5238333 3.697
-1.7285999 4.5268002 3.6966
-1.619 4.5316668 3.6949997
-1.5677999 4.5294003 3.6931999
-1.5220001 4.5235004 3.6975
-1.47975 4.54175 3.6972499
-1.4173334 4.5333338 3.6950002
-1.398 4.5305004 3.6930001
-1.114125 4.5313749 3.6767499
-1.036 4.5485001 3.6989999
-3.9603336 4.5960002 3.6570001
-3.9245555 4.570889 3.6555557
-3.8792999 4.5756001 3.6584001
-3.8239095 4.5699091 3.6608188
-3.7744999 4.5755005 3.6676669
-3.7271817 4.5766363 3.6700909
-3.6812 4.5762 3.6733003
-3.6318574 4.5720005 3.6731429
-3.2349091 4.5782733 3.6752729
-3.197 4.5799999 3.688
-2.7839999 4.5939999 3.655
-2.7195001 4.5880003 3.6630001
-2.6752501 4.5817499 3.668
-2.6217499 4.56775 3.6715002
-2.57425 4.5762501 3.6805
-2.5315001 4.5651255 3.679625
-2.1820834 4.5801668 3.6838331
-2.1268182 4.5790911 3.6947277
-2.0765555 4.5783334 3.695889
-2.0234444 4.5802217 3.6963332
-1.9760002 4.5840006 3.6966665
-1.9232728 4.5657272 3.694273
-1.8739001 4.5681 3.6937001
-1.8240001 4.577167 3.6954999
-1.7743334 4.5756669 3.6964998
-1.7245001 4.5713339 3.6955004
-1.6678333 4.5703335 3.6953332
-1.6218001 4.5710006 3.6950002
-1.5702 4.5771999 3.6942003
-1.5168 4.5723996 3.6949003
-1.4791112 4.5681109 3.6955559
-1.4285001 4.576417 3.6964164
-1.3959999 4.5815001 3.6905
-0.98799998 4.5739999 3.697
-0.85399997 4.5679998 3.698
-3.9781671 4.6253333 3.6535003
-3.9221251 4.6248751 3.6561253
-3.8740001 4.6250772 3.659692
-3.8240004 4.6204543 3.6600914
-3.7753334 4.624167 3.6637502
-3.7241108 4.6253338 3.6709998
-3.6733332 4.6205835 3.6734998
-3.6353333 4.6243339 3.6739998
-3.227222 4.6345553 3.6794446
-3.1717501 4.638 3.6824999
-3.1300001 4.6209998 3.6719999
-2.9059999 4.6290002 3.664
-2.8829999 4.6469998 3.6800001
-2.8285 4.6219997 3.6665001
-2.7763336 4.6316667 3.6836669
-2.7409999 4.6429996 3.6964998
-2.687 4.6288576 3.6869998
-2.6225715 4.6254287 3.695857
-2.5784287 4.6284285 3.6965714
-2.529 4.6178336 3.6953335
-2.1756001 4.6262999 3.6773
-2.1225715 4.630857 3.6950004
-2.0693002 4.6280003 3.6961999
-2.0310001 4.6335006 3.6966667
-1.9725002 4.6244998 3.6941669
-1.9266249 4.6241255 3.6962502
-1.8778334 4.6225004 3.6950002
-1.8251249 4.6347499 3.6956251
-1.7741002 4.6294999 3.6957002
-1.7262857 4.6254287 3.6952145
-1.6757777 4.6237779 3.6952221
-1.6305 4.6244993 3.6943753
-4.0163336 4.6723337 3.6513336
-3.9707782 4.674222 3.6537776
-3.9275715 4.6742859 3.6548572
-3.8760998 4.6752 3.6575
-3.8242002 4.6718001 3.6592
-3.7740839 4.6692505 3.6608334
-3.7247143 4.6708579 3.6676431
-3.6775835 4.6789999 3.6717505
-3.631875 4.6728749 3.6723752
-3.2239997 4.6741004 3.6818001
-3.1801667 4.6741672 3.684
-3.1264 4.6818004 3.684
-3.0710001 4.6560001 3.6689999
-3.0205717 4.6861429 3.687429
-2.9732003 4.6849999 3.6891999
-2.929286 4.6738577 3.6875715
-2.8745832 4.6775832 3.6895835
-2.8234286 4.6761432 3.6954288
-2.7775457 4.675364 3.6943638
-2.7251003 4.6794004 3.6944001
-2.6831665 4.6774998 3.6921663
-2.6290002 4.6801429 3.6958573
-2.5791821 4.6752729 3.6952727
-2.5288889 4.6715555 3.6933331
-4.0510001 4.7069998 3.651
-4.0419998 4.7470002 3.651
-3.9679999 4.71 3.6500001
-3.9262857 4.7222857 3.6518574
-3.8753998 4.7240005 3.6554997
-3.8265457 4.722909 3.6580908
-3.7718749 4.7261877 3.6600001
-3.7208335 4.7285004 3.6640003
-3.6720834 4.7267499 3.6651669
-3.6262219 4.7190003 3.6680002
-3.2192781 4.7209449 3.6781666
-3.1783338 4.7300835 3.686667
-3.1230001 4.7230005 3.6891539
-3.0766001 4.7221999 3.6895001
-3.027143 4.7282143 3.6885002
-2.9763851 4.725769 3.6890771
-2.9235005 4.7224998 3.6885715
-3.964 4.756 3.655
-3.8929999 4.7540002 3.6559999
-27.864 6.632 3.677
-27.915001 6.6960001 3.6849999
29.415001 1.961 3.7320001
29.408001 2.0120001 3.7309999
21.58 2.6199999 3.721
21.587 2.6600001 3.723
20.806 2.7130001 3.7420001
21.612999 2.721 3.7284999
20.827499 2.7715001 3.7474999
20.826 2.826 3.7479999
17.309999 2.875 3.701
18.302999 2.8770001 3.74
17.271999 2.931 3.727
17.319 2.9389999 3.7049999
18.298 2.925 3.7405
17.2255 2.9699998 3.7344999
17.278999 2.9630001 3.73
18.322001 2.9779999 3.7460001
18.368 2.9849999 3.7219999
16.917 3.0220001 3.7190001
17.241501 3.0345001 3.724
17.4165 3.0335 3.7290001
18.309 3.0239999 3.7455001
15.091 3.082 3.7
15.278 3.092 3.7160001
15.408 3.0910001 3.717
15.589 3.098 3.73
16.823 3.0970001 3.717
17.332001 3.0650001 3.7119999
11.731 3.4430001 3.7149999
11.7395 3.47875 3.7319999
9.6119995 3.5270002 3.7049999
9.6733341 3.5303333 3.7056665
11.7384 3.5258 3.7288003
11.755 3.517 3.7049999
9.5430002 3.5653334 3.7130001
9.5807495 3.5775001 3.7107501
9.6370001 3.5940001 3.7019999
9.6693344 3.5799999 3.704
9.7250004 3.5679998 3.7076664
10.13 3.5969999 3.7420001
10.181334 3.5883331 3.7233334
10.208 3.5844998 3.724
11.738 3.5684998 3.7279999
9.5489998 3.618 3.7349999
9.5634289 3.6264288 3.7214286
9.6246672 3.6276665 3.7016666
9.7045002 3.6294999 3.7080002
10.07925 3.628 3.7397499
10.131167 3.6199999 3.7208335
10.156 3.6059999 3.71
9.5588579 3.6735716 3.7257142
9.6075001 3.6690001 3.701
9.7339993 3.6784999 3.704
10.004 3.651 3.7490001
10.0675 3.674 3.7417502
10.1185 3.67275 3.7214999
9.5633993 3.723 3.7216001
10.039 3.704 3.7460001
10.0865 3.711 3.7420001
6.2733841 3.8223844 3.7180767
6.2702503 3.8733337 3.7233334
5.1575561 3.9313333 3.7275555
6.2742729 3.9191818 3.7231817
5.1415 3.9535 3.723
5.1562862 3.9737141 3.7195716
6.2785006 3.9729166 3.7267501
5.1600003 4.0271816 3.7189093
5.1610003 4.075778 3.7227778
3.0465 4.1117496 3.72475
3.0536251 4.1343751 3.7276249
3.0560002 4.1738749 3.721
1.9302859 4.2222142 3.7437146
1.9634001 4.2205997 3.7349002
3.0606668 4.2232499 3.7265
1.1670001 4.2919998 3.72
1.2262501 4.2909999 3.7319999
1.2777001 4.2821999 3.7319
1.3257893 4.2756319 3.7308943
1.375158 4.2726316 3.7327363
1.4238946 4.2737894 3.7322106
1.4731667 4.2719998 3.731889
1.525143 4.2740479 3.7341902
1.5704705 4.2720585 3.7333531
1.6224737 4.2738943 3.7365792
1.671842 4.2761579 3.7366843
1.7256666 4.2747226 3.7394447
1.7778236 4.277647 3.7399414
1.8256873 4.271688 3.7415624
1.87175 4.2683754 3.7428749
1.9243333 4.2740006 3.7448893
1.9675456 4.2777276 3.7323637
2.6844997 4.2909999 3.7247498
2.707 4.2729998 3.7049999
3.0649998 4.2721114 3.7237778
0.93099999 4.342 3.714
1.1838462 4.3233848 3.7321539
1.2241499 4.32055 3.7334504
1.270762 4.3209529 3.7318571
1.3226999 4.3243499 3.7340004
1.3747727 4.3275909 3.7336364
1.4244444 4.3247776 3.7366669
1.4723336 4.3237782 3.7367775
1.524706 4.3264709 3.7371175
1.5758824 4.3237057 3.7387648
1.6256317 4.3250008 3.7372103
1.6750624 4.3252501 3.7381246
1.7239333 4.3240004 3.7415333
1.7746471 4.3264117 3.7405882
1.8268888 4.3219442 3.7427776
1.8750832 4.3194165 3.7436666
1.9245 4.3215003 3.7458334
1.9687001 4.3266997 3.7334001
2.674 4.3115001 3.7432499
2.7280002 4.3395 3.7480001
0.704 4.3940001 3.7219999
0.83319998 4.3874002 3.7321999
0.8802222 4.3833337 3.734333
0.92263639 4.380455 3.7315457
1.1843002 4.3761997 3.7327001
1.2243811 4.3758097 3.7345717
1.271 4.374125 3.7343752
1.3256315 4.3766317 3.7355788
1.3708237 4.3846478 3.7338238
1.4220001 4.3793335 3.7363892
1.4781874 4.3765001 3.7378123
1.5260557 4.3752222 3.7380555
1.5740713 4.3755717 3.7383571
1.6218749 4.3803749 3.7395625
1.6709231 4.3746152 3.7388463
1.7255335 4.3770666 3.736867
1.7691177 4.3755884 3.7385292
1.8253572 4.3799291 3.7369285
1.8756875 4.3784375 3.7401874
1.9236155 4.3809996 3.7390003
1.9703335 4.381 3.7325006
2.2449999 4.3785 3.7444999
2.2809999 4.3540001 3.747
2.3334286 4.3718576 3.7467141
2.352 4.368 3.7479999
-1.1157273 4.4241824 3.7102728
-1.0250417 4.4256248 3.7138748
-0.97375005 4.4212503 3.7163503
-0.92700005 4.4293332 3.7209444
-0.87484998 4.4295001 3.7242
-0.82250005 4.4231 3.7252998
-0.77453345 4.4262671 3.7286
-0.72326314 4.4236321 3.7315261
-0.67388242 4.4269409 3.7321765
-0.6266923 4.4343848 3.735846
-0.58211118 4.4370003 3.7377777
-0.52757144 4.4375715 3.7370002
-0.48100001 4.4369998 3.7320001
0.53266668 4.4403334 3.7399998
0.575625 4.4345002 3.7359998
0.62346673 4.4344001 3.7359333
0.67793334 4.4252 3.7349334
0.72775 4.4261498 3.7353501
0.77422732 4.4237275 3.7340457
0.82299995 4.423048 3.734714
0.87052375 4.4201908 3.7352383
0.91931576 4.4211574 3.7323678
1.1885555 4.4219999 3.7295554
1.227 4.4269447 3.7322779
1.2743636 4.4235911 3.7333639
1.32205 4.4240007 3.73365
1.3731112 4.4270558 3.730222
1.4229473 4.4240522 3.7288425
1.476 4.425333 3.7318099
1.523875 4.421875 3.7344999
1.574 4.4274545 3.7351818
-1.7275789 4.4780531 3.70979
-1.6784706 4.4718823 3.7101767
-1.6243502 4.4742007 3.7108498
-1.5741764 4.4728231 3.711412
-1.5265 4.4754171 3.7095838
-1.47825 4.4737506 3.7121999
-1.4303125 4.4726243 3.7103753
-1.1151818 4.470273 3.7128186
-1.0802352 4.4757056 3.7125883
-1.0244212 4.4784737 3.7137368
-0.97390914 4.4766364 3.7176366
-0.92753345 4.4735999 3.7209334
-0.87772721 4.4754095 3.7211821
-0.82478261 4.4774776 3.7232606
-0.77595991 4.4726396 3.7265205
-0.72526932 4.4771919 3.7294621
-0.67427272 4.4747734 3.7319095
-0.62549996 4.4746366 3.7344999
-0.57529992 4.4722996 3.7377
-0.52577269 4.4757729 3.7392278
-0.47805265 4.474369 3.7421577
0.0087499991 4.4765 3.7337501
0.103 4.4980001 3.7490001
0.16033334 4.4890003 3.7476668
0.27633333 4.4830003 3.7450004
0.331 4.4864998 3.7490001
0.37422222 4.4833331 3.7461112
0.43050003 4.4772501 3.744875
0.47126669 4.4778666 3.7448003
0.52235717 4.4737854 3.744
0.57452941 4.4758825 3.7417057
0.62670588 4.4765882 3.7394705
0.67377782 4.4708333 3.7381108
0.72642857 4.4794292 3.7377617
0.77564698 4.4760003 3.7353528
0.82618755 4.4734373 3.7335625
0.87520009 4.4728503 3.7360497
0.92163157 4.4687896 3.7272627
-2.2083335 4.5143337 3.7083335
-2.1764374 4.522625 3.7060001
-2.1266875 4.5229373 3.7054374
-2.074765 4.5219998 3.706059
-2.0270627 4.5240622 3.7065001
-1.9777501 4.5245838 3.7069166
-1.927778 4.5229998 3.7084448
-1.8758235 4.5250001 3.706471
-1.8302145 4.5237145 3.7067142
-1.7689233 4.5205388 3.7076921
-1.7243847 4.5253849 3.7060003
-1.6742858 4.5223331 3.706429
-1.6273528 4.5239406 3.7069411
-1.5826923 4.5206156 3.7080767
-1.5139999 4.5187001 3.7039001
-1.4732631 4.522789 3.7063158
-1.4271053 4.5230522 3.7073157
-1.110875 4.5184999 3.7108748
-1.0747502 4.5257497 3.7102506
-1.0252779 4.5266109 3.7146111
-0.97511101 4.5271111 3.7150552
-0.92686361 4.5224547 3.7184088
-0.87537503 4.5263748 3.7168338
-0.82874995 4.5241499 3.7165501
-0.77472723 4.5244088 3.7206364
-0.72400004 4.5316954 3.7225652
-0.67659998 4.5259495 3.7294495
-0.62323999 4.5251603 3.7270794
-0.57591307 4.524261 3.7328262
-0.5262174 4.5248704 3.7353046
-0.47729999 4.5204501 3.7380502
0.039999999 4.5139999 3.7479999
0.079999998 4.5405002 3.7472501
0.12800001 4.5450001 3.7490001
0.17728572 4.529429 3.7470002
0.23277776 4.5261111 3.7474442
0.2704286 4.5222144 3.7449291
0.32800004 4.5170002 3.7445004
0.37558335 4.5285001 3.7444167
0.42580006 4.5258002 3.7441003
0.47715387 4.5252314 3.7446923
0.52381247 4.5284996 3.743875
-2.201 4.573 3.704
-2.1718001 4.5706 3.7042
-2.1213751 4.57125 3.703125
-2.0775001 4.5678997 3.7054002
-2.030375 4.5682502 3.7054999
-1.9788181 4.5680003 3.7038181
-1.9312 4.5770001 3.7029998
-1.8734286 4.5668578 3.7032859
-1.8256668 4.5731668 3.7042503
-1.7743334 4.5696669 3.7034168
-1.722 4.5705457 3.7037275
-1.6799001 4.5761008 3.7040002
-1.6303637 4.5744548 3.7031822
-1.5823637 4.5690908 3.704
-1.5182859 4.5772858 3.7027144
-1.4700001 4.5792861 3.704
-1.4269999 4.5661998 3.7049999
-1.1056 4.5743999 3.7076001
-1.0734 4.5741339 3.7068667
-1.0241112 4.5738893 3.7092221
-0.97800004 4.5737619 3.710619
-0.92552626 4.5691056 3.713316
-0.87740004 4.5785332 3.7150004
-0.82388234 4.5725293 3.7158234
-0.77589476 4.5735793 3.7200005
-0.72525001 4.5765839 3.7225006
-0.67584211 4.572 3.7262633
-0.62658334 4.5804996 3.7330003
-0.57075 4.5721884 3.7315624
-0.5213334 4.5782671 3.7380004
-0.47411761 4.5738826 3.7404709
-2.6730001 4.6413336 3.7036667
-2.6305003 4.6291666 3.7025001
-2.5770001 4.6352 3.7066
-2.546 4.6300001 3.704
-2.180125 4.6257501 3.70175
-2.1248574 4.6207142 3.7024288
-2.0746667 4.6273336 3.7035003
-2.0257499 4.6226254 3.7021248
-1.9793638 4.6234546 3.7037275
-1.9228574 4.6204286 3.7042859
-1.872 4.6209998 3.7029998
-1.8222001 4.6226001 3.7024002
-1.7740002 4.6187148 3.7021432
-1.7185714 4.620429 3.7042859
-1.6743751 4.6224995 3.704
-1.6216666 4.6197777 3.7041109
-1.58375 4.6273751 3.703125
-1.5244001 4.6291003 3.7015998
-1.4755557 4.6241112 3.7030001
-1.4258889 4.6203332 3.7036667
-2.8316669 4.6860003 3.7026668
-2.7737501 4.6800003 3.7020001
-2.7212501 4.6745 3.7014999
-2.6694446 4.6784449 3.7035556
-2.6268334 4.6821666 3.7033334
-2.5739999 4.6704998 3.7005
-2.5384998 4.6644998 3.7022498
-2.1764998 4.6689997 3.7055001
-2.1248336 4.6704998 3.7045
-2.0241668 4.6731672 3.7035003
-1.9310001 4.6668339 3.7043333
-1.8893335 4.6620002 3.7029998
-2.9590001 4.7235003 3.7020001
-2.825 4.6999998 3.7030001
-2.766 4.7235003 3.704
-2.7390001 4.723 3.701
-28.277 6.836 3.734
-28.26 6.8839998 3.734
29.910999 2.099 3.796
29.896999 2.151 3.7939999
23.948999 2.444 3.776
23.931 2.484 3.773
23.948 2.529 3.777
24.921 2.543 3.7950001
23.947001 2.5699999 3.777
21.601999 2.6229999 3.7639999
23.941999 2.612 3.777
20.865 2.6830001 3.7520001
21.601999 2.661 3.7650001
20.739 2.7225001 3.7680001
21.609501 2.7205 3.7670002
20.753 2.78 3.7720001
21.615999 2.78 3.77
20.732 2.8139999 3.7690001
20.7365 2.8705001 3.7715001
18.278999 2.971 3.7709999
17.234667 3.0273333 3.775667
18.289001 3.0209999 3.7750001
17.2395 3.0645001 3.757
18.287001 3.0699999 3.776
17.238335 3.1216667 3.7800002
18.302 3.1059999 3.78
11.725668 3.5233333 3.7746668
10.1185 3.5929999 3.77
10.164 3.589 3.763
10.228 3.592 3.7739999
11.726999 3.5655 3.7825
11.763 3.5880001 3.76
9.975668 3.6273334 3.7856665
10.027715 3.6198573 3.7741432
10.064 3.6129999 3.7650001
10.113 3.6099999 3.76
11.739 3.6100001 3.7783334
11.766 3.6110001 3.786
9.5650005 3.6777999 3.7770002
9.975668 3.6803336 3.7850003
10.00975 3.67275 3.7692499
10.068 3.654 3.75
9.5648575 3.7198575 3.7715716
9.9703331 3.7253332 3.7820001
10.021667 3.7106667 3.7693334
10.082 3.74 3.7650001
9.5692501 3.77 3.7727499
9.5732498 3.8223748 3.773375
6.2681437 3.9207146 3.7735717
6.2698336 3.9740834 3.7732501
7.4140005 3.987 3.7796667
5.1622725 4.0252724 3.7740912
6.2773337 4.0295553 3.7722223
4.8179998 4.073 3.799
4.9120002 4.0650001 3.7939999
4.9635 4.0710001 3.7975001
5.0380001 4.0669999 3.7920001
5.16675 4.0745835 3.7731667
6.2793636 4.072546 3.7713637
4.5392499 4.1110001 3.7822499
4.5806251 4.1228752 3.7876248
4.6046667 4.1143336 3.7813334
5.1670003 4.1264443 3.77
3.6159999 4.1826668 3.7953334
3.6830001 4.1950002 3.799
5.1883335 4.1729999 3.776
2.2444 4.2340007 3.7592003
3.0641248 4.2257504 3.7720001
3.4885001 4.237 3.7980001
3.5209999 4.2229996 3.7980001
3.5833335 4.2140002 3.7973335
3.6186671 4.2406669 3.7986667
3.6608002 4.2202005 3.7962003
3.7194996 4.234334 3.797667
4.9359999 4.2480001 3.799
4.9920001 4.2199998 3.7980001
5.0320001 4.2090001 3.796
1.635 4.2969999 3.7509999
1.696 4.2750001 3.7520001
1.8895 4.276 3.7535
1.92275 4.2681251 3.7536249
1.9679999 4.2775002 3.7561669
2.2403333 4.2766666 3.7610002
2.2754118 4.2749414 3.7667644
2.325778 4.2736664 3.7704997
2.3724616 4.2746925 3.7706153
2.4226248 4.2732501 3.7743127
2.4715624 4.27525 3.7764997
2.525722 4.2750554 3.7831666
2.576077 4.2750769 3.7853847
2.6241539 4.2768464 3.7905383
2.6706157 4.2759995 3.7923849
2.7240002 4.2785716 3.7915716
2.7702498 4.2798748 3.7943749
2.8193336 4.2673335 3.7973335
2.8640001 4.2529998 3.7969999
3.0675714 4.2755713 3.771143
3.4719999 4.2919998 3.799
3.5170002 4.2874999 3.7950001
3.5825 4.2772498 3.7967498
3.6383333 4.2736673 3.798167
3.6745 4.26825 3.7969999
3.7318001 4.2720003 3.7970002
3.7696667 4.2690001 3.7943332
1.696 4.3429999 3.75
1.7869999 4.316 3.7509999
1.8738334 4.3258333 3.7516668
1.9236668 4.3203335 3.7521667
1.9678 4.3222003 3.7526002
2.2470002 4.3333335 3.7660003
2.2711668 4.3234167 3.7665832
2.3223081 4.3178468 3.7706926
2.3736665 4.3268661 3.7724004
2.4245453 4.3163638 3.7769094
2.477 4.3221002 3.7811997
2.5293748 4.3358126 3.7795625
2.5739412 4.3270588 3.784059
2.6264617 4.3281541 3.7851539
2.6675715 4.3222141 3.7820716
2.7275 4.3305006 3.7856669
2.7671249 4.33675 3.7857502
2.8154998 4.3310003 3.7909999
2.8702497 4.3362503 3.7922499
2.9365001 4.3439999 3.799
2.95 4.348 3.793
3.0692499 4.3232498 3.768625
3.428 4.3470001 3.796
3.5179999 4.3340001 3.799
3.5824001 4.3354001 3.7986
3.6129999 4.3109999 3.799
3.6752 4.3343997 3.7956002
3.7284 4.3355999 3.7936001
3.7775002 4.3308334 3.7950001
3.8195455 4.3273635 3.7934544
1.397 4.3979998 3.7509999
1.428 4.3889999 3.7520001
1.4675 4.3917499 3.7544999
1.5239999 4.3929996 3.76
1.5766667 4.3866668 3.7536666
1.6099999 4.3794999 3.753
1.6756666 4.3841667 3.7549999
1.7246668 4.3853335 3.757
1.7810001 4.376667 3.7516668
1.8214287 4.3767142 3.7554288
1.872 4.3755999 3.7576001
1.9221112 4.3707781 3.7579999
1.9674445 4.3743339 3.76
2.2455001 4.3710003 3.7525001
2.2763891 4.3748331 3.7618892
2.3245556 4.3732224 3.7659442
2.3764706 4.3724122 3.7666473
2.4252398 4.3694 3.7681601
2.4738097 4.3706665 3.7691429
2.520278 4.371222 3.7700551
2.5718126 4.3733125 3.7703123
2.6194444 4.3731661 3.7762227
2.6708126 4.3772497 3.7751875
2.7154002 4.3806 3.7784002
2.7764447 4.3791113 3.7817776
2.8261333 4.375267 3.7900002
2.8731821 4.3736367 3.7933636
2.9225001 4.373167 3.7973335
0.79250002 4.4245 3.7590001
0.80400002 4.421 3.7579999
0.89099997 4.4159999 3.7539999
1.1900001 4.4070001 3.7509999
1.207 4.4070001 3.7539999
1.272 4.402 3.7509999
1.3375 4.4084997 3.7585001
1.393 4.4130001 3.7620001
1.426 4.4095001 3.7610002
1.4590001 4.4054999 3.7595
1.5039999 4.4109998 3.7609999
1.5835 4.4014997 3.7624998
1.737 4.4029999 3.767
-0.46333334 4.4726672 3.7516665
0.024000002 4.4940004 3.7583332
0.071000002 4.4889998 3.7542
0.12360001 4.4945998 3.7601998
0.17733334 4.4865003 3.7548337
0.22728571 4.4878573 3.7559998
0.27511111 4.4865556 3.7532222
0.32550001 4.4826002 3.7530999
0.37514287 4.4784288 3.752286
0.42481819 4.4785461 3.7525456
0.48683333 4.4723339 3.7535
0.52600002 4.4708333 3.7558334
0.56700003 4.4836669 3.753
0.64300001 4.454 3.75
0.81900001 4.46 3.753
0.02778947 4.5233679 3.7591581
0.07588236 4.5222363 3.7588825
0.12438888 4.5215554 3.7568889
0.1762353 4.5218239 3.7555294
0.22035715 4.5194292 3.7555718
0.27950001 4.5225 3.7527499
0.31760001 4.5248003 3.7535999
0.37522224 4.5277777 3.7534447
0.42254543 4.5243635 3.753727
0.47016665 4.5256672 3.7540002
0.52883339 4.5161667 3.7515001
0.66100001 4.526 3.7519999
-0.48100001 4.5879998 3.75
0.030937497 4.5708752 3.7565625
0.076066673 4.5731335 3.7563336
0.12387501 4.5731254 3.7538128
0.17266667 4.572917 3.7545004
-11.051 5.3740001 3.757
-11.101 5.4219999 3.777
-11.065 5.4050002 3.789
-28.247 6.829 3.7820001
-26.757 6.8179998 3.789
-28.263 6.8850002 3.7850001
-26.716999 6.8569999 3.7850001
-28.275 6.9400001 3.789
29.916 2.0999999 3.849
27.146999 2.29 3.836
27.148001 2.339 3.836
27.153999 2.3870001 3.8380001
27.146999 2.4349999 3.8369999
24.919001 2.4990001 3.8380001
24.919001 2.5420001 3.839
23.868 2.5615001 3.829
24.92 2.586 3.8399999
23.862 2.6440001 3.8080001
23.91 2.608 3.8150001
24.915001 2.631 3.8399999
23.886999 2.6889999 3.813
21.5755 2.7360001 3.8200002
21.629 2.7030001 3.809
21.568501 2.7740002 3.8195
20.716335 2.8243332 3.8293333
21.564999 2.8310001 3.8204999
20.695999 2.8829999 3.8399999
20.7335 2.8699999 3.8084998
21.551001 2.8870001 3.839
20.690001 2.9189999 3.839
20.75 2.9289999 3.813
19.4545 2.9720001 3.8295002
20.6945 2.9755001 3.842
18.277 3.003 3.806
18.301001 3.039 3.812
19.440001 3.0209999 3.8280001
19.530001 3 3.809
17.242001 3.0810001 3.822
18.292 3.0710001 3.8110001
19.4305 3.072 3.8274999
17.239 3.1269999 3.823
18.282001 3.1246669 3.8333335
18.311001 3.108 3.816
18.27 3.1659999 3.8440001
11.724799 3.5711999 3.8316
11.72925 3.6157501 3.823
9.5688581 3.7242861 3.8228574
9.5713329 3.7741666 3.8179998
10.061 3.773 3.8039999
9.5734005 3.8239999 3.8241997
9.5712004 3.8738 3.8180001
8.5454998 3.9315 3.8074999
8.5593328 3.9290004 3.8343334
7.118 3.99 3.8445001
7.151 3.9760001 3.846
7.2286663 3.9853332 3.8453336
7.3610001 3.9920001 3.848
7.414 3.9949999 3.8340001
8.5445004 3.9679999 3.8134999
8.5582504 3.9697499 3.83325
6.2665558 4.0212226 3.8214447
6.9054999 4.0389996 3.8455
7.0333338 4.028667 3.8443334
7.0799999 4.0170002 3.8440001
7.1140003 4.0282502 3.8430002
7.1679997 4.0342503 3.8445001
7.2210002 4.0253334 3.8453336
7.276 4.0202498 3.846
7.3330002 4.026 3.8440001
7.3812499 4.02775 3.8462501
7.4265552 4.0274448 3.8247778
4.8685002 4.0797501 3.802
4.9740005 4.0630007 3.801667
5.0233335 4.0665002 3.8053336
5.0818 4.0668006 3.8055999
5.1329999 4.0772505 3.812
5.1686668 4.0736666 3.8133335
6.2709007 4.0685 3.8233001
6.7350001 4.0580001 3.848
6.8144999 4.0655003 3.8485
6.8874998 4.0770001 3.8474998
6.9349999 4.0640001 3.8464999
6.9712 4.0792003 3.8447998
7.0223331 4.0830002 3.8470001
7.0694003 4.0738001 3.8458002
7.1290007 4.0780001 3.8430002
7.1689997 4.0675001 3.8440001
7.2295008 4.0770001 3.8428335
7.27775 4.0794997 3.8425
7.3251667 4.0726662 3.8421669
7.3792496 4.0817499 3.8434999
7.4218888 4.0716662 3.8284447
7.4520001 4.0580001 3.845
4.6645999 4.1321998 3.8233998
4.7179999 4.13625 3.8340001
4.7703333 4.1389999 3.8326669
4.8252001 4.1345997 3.832
4.8797503 4.1362505 3.8330002
4.9306006 4.1330004 3.8346002
4.9766669 4.1333337 3.8340001
5.02 4.1278 3.8307998
5.0731668 4.1343336 3.8328333
5.1228333 4.1255002 3.8293333
5.1809998 4.1346002 3.8358002
5.2059999 4.1350002 3.8315001
6.2750001 4.1178999 3.8223999
6.8920002 4.1040001 3.839
6.9154997 4.1259999 3.8369999
6.9780002 4.1276665 3.8456666
7.0299997 4.1195002 3.8474998
7.0769997 4.1185002 3.8447499
7.1252499 4.1217504 3.8432498
7.178 4.1194 3.8446
7.2259998 4.125 3.8406668
3.6680002 4.185667 3.8039999
4.5890002 4.1630001 3.8039999
4.6296673 4.185667 3.8173332
4.6811996 4.1615996 3.8248003
4.7293749 4.1756253 3.8325002
4.7772732 4.1727271 3.8356366
4.8259096 4.1787276 3.8354545
4.8762226 4.1777782 3.8357782
4.9226251 4.1726251 3.8357501
4.972445 4.1723337 3.8352225
5.0212226 4.1719999 3.8351109
5.0755992 4.1833339 3.8276
5.1259999 4.1806364 3.8290908
5.1748128 4.1771874 3.8223748
5.2023335 4.1793337 3.830667
6.2759004 4.1701999 3.8212998
3.3889999 4.2049999 3.8
3.4284284 4.2260008 3.8100719
3.4722002 4.2203336 3.8069339
3.5240002 4.2248001 3.8075006
3.5767272 4.2226362 3.8056364
3.6275001 4.2208753 3.8033748
3.6751249 4.230875 3.8047497
3.71525 4.2172499 3.8032498
3.756 4.2480001 3.802
4.637167 4.229167 3.8284998
4.6711998 4.2350001 3.8233001
