# .PCD v0.7 - Point Cloud Data file format
VERSION 0.7
FIELDS x y z
SIZE 4 4 4
TYPE F F F
COUNT 1 1 1
WIDTH 1596
HEIGHT 1
VIEWPOINT 0 0 0 1 0 0 0
POINTS 1596
DATA ascii
-7.8049998 -6.0370002 3.5899999
-7.7923331 -6.0126667 3.5676668
-7.7892504 -5.9765 3.5717499
-7.7775002 -5.9261665 3.5798335
-7.7660003 -5.8698001 3.5764
-7.3695002 -2.1215 3.572
-7.3390002 -2.1129999 3.5569999
-7.3103333 -2.0676668 3.5600002
-7.3176665 -2.0420001 3.576
-7.2900004 -2.007 3.5646667
-7.3156672 -1.9686668 3.5930002
-7.2824998 -1.9762499 3.5587502
-7.3080001 -1.9119999 3.5585001
-7.2858887 -1.9287777 3.5725551
-7.3157501 -1.8731251 3.5655003
-7.2877502 -1.8725001 3.5845001
-7.3173332 -1.8416667 3.5893333
-7.296 -1.827 3.599
-7.323 -1.766 3.5970001
-7.2694998 -1.76 3.595
-7.3129997 -1.7236667 3.5956666
-7.2736001 -1.7196001 3.5956001
-7.2737498 -1.6775 3.592
-7.2443333 -1.6716666 3.595
-7.2766666 -1.628 3.5921669
-7.2389998 -1.635 3.5883331
-7.2731676 -1.5740001 3.5876665
-7.2444997 -1.58075 3.5960002
-7.2747498 -1.5207499 3.5882502
-7.2356663 -1.5215 3.5911665
-7.2824998 -1.4695001 3.5869999
-7.2327142 -1.4695715 3.5862856
-7.2693338 -1.4231668 3.5896668
-7.2276669 -1.4256667 3.5913332
-7.2692857 -1.3775716 3.5858574
-7.2295713 -1.3757144 3.5935717
-7.2191668 -1.3260001 3.5858333
-7.1999998 -1.316 3.5970001
-7.216455 -1.2744546 3.5840001
-7.197 -1.2640001 3.5910001
-7.2236009 -1.2192 3.5826004
-7.1949997 -1.2375 3.5795
-7.2138 -1.1734002 3.5786004
-7.1902499 -1.1655 3.5872502
-7.2287502 -1.12 3.5787499
-7.1834998 -1.1260999 3.5858002
-7.2286663 -1.0746667 3.5753334
-7.1801996 -1.0740001 3.5802
-7.2262001 -1.0354 3.5778
-7.1811996 -1.0215 3.5833995
-7.2130003 -0.96966666 3.5766666
-7.1747003 -0.97690004 3.5831001
-7.1500001 -0.96100003 3.592
-7.2092495 -0.92374998 3.5717502
-7.1627998 -0.93090004 3.5809002
-7.1479998 -0.91000003 3.5880001
-7.1707144 -0.8810001 3.5727143
-7.1470003 -0.87559998 3.5818002
-7.171 -0.83011115 3.5734444
-7.143167 -0.82833338 3.5883336
-7.1785712 -0.78242862 3.5707145
-7.1353636 -0.77445459 3.5835454
-7.1688337 -0.73200005 3.5671668
-7.1333632 -0.72254544 3.5841818
-7.1763334 -0.67783332 3.5679998
-7.1262503 -0.67324996 3.5796669
-7.1630001 -0.62625003 3.5645001
-7.1245384 -0.62130767 3.5786154
-7.1222315 -0.57092309 3.5754616
-7.1187859 -0.52107137 3.5738573
-7.0939999 -0.53899997 3.589
-7.1159167 -0.47216663 3.5662498
-7.0976667 -0.477 3.5886667
-7.1202736 -0.42509094 3.572727
-7.0925002 -0.41233334 3.5809999
-7.1198883 -0.37555555 3.5635555
-7.0928574 -0.36814287 3.5805717
-7.1197782 -0.3188889 3.5640001
-7.0888 -0.32220003 3.5810001
-7.1282864 -0.27028573 3.5582857
-7.0883574 -0.27199998 3.5782142
-7.1254997 -0.22500001 3.5598333
-7.0793338 -0.22150001 3.572834
-7.0709281 -0.17164285 3.5722859
-7.0698748 -0.12150001 3.5745623
-7.0625725 -0.074000016 3.5737858
-7.0419998 -0.078000002 3.599
-7.0684667 -0.025599999 3.5665996
-7.041667 -0.0083333347 3.5673332
-7.067286 0.024142858 3.5625715
-7.0442004 0.026799997 3.5764999
-7.0427699 0.076384619 3.5703847
-7.0587502 0.12475 3.5534999
-7.0351114 0.12244444 3.5748889
-7.0700002 0.169 3.552
-7.0374174 0.17216668 3.5780001
-7.0297499 0.22316667 3.5785835
-7.0237498 0.27216667 3.5763338
-7.020155 0.32084614 3.5733078
-6.994 0.31400001 3.5929999
-7.0062227 0.37055555 3.5661113
-6.9966669 0.36700004 3.5750003
-7.0156364 0.42072731 3.5746367
-6.9980001 0.43266666 3.5776668
-7.0112 0.46680003 3.5751998
-6.9949999 0.4831 3.5722001
-7.0063996 0.52839994 3.569
-6.9900002 0.52829999 3.5790002
-7.0096002 0.57560003 3.5751998
-6.9855552 0.57666665 3.5797777
-7.0050001 0.62199998 3.5929999
-6.988616 0.62761545 3.5770769
-7.0019999 0.68400002 3.579
-6.9816928 0.67346156 3.5733078
-6.9689293 0.72185713 3.5757859
-6.9651437 0.77100009 3.5732861
-6.9489999 0.77700001 3.5880001
-6.9599237 0.82100004 3.5753078
-6.9655838 0.87058342 3.5729167
-6.9429998 0.89349997 3.569
-6.9558744 0.92012507 3.5738752
-6.942625 0.93212497 3.5813749
-6.9577994 0.96859998 3.5830002
-6.9381256 0.97924995 3.572875
-6.9569998 1.025 3.5929999
-6.9320002 1.0274546 3.572546
-6.9520001 1.062 3.563
-6.9300671 1.0785335 3.5775337
-6.9217696 1.1270001 3.5704618
-6.9000001 1.104 3.5710001
-6.9152308 1.1758462 3.5712311
-6.9151001 1.2191 3.5742002
-6.8996673 1.2316667 3.5709999
-6.9082503 1.26975 3.571625
-6.89675 1.277 3.5725
-6.8922501 1.3201666 3.5705001
-6.9050002 1.392 3.5680001
-6.8828182 1.37 3.5721822
-6.901 1.416 3.569
-6.8843069 1.4276154 3.5772307
-6.8748465 1.4788462 3.5755384
-6.8661537 1.5279232 3.5730772
-6.8674297 1.5760714 3.5740714
-6.8449998 1.579 3.5899999
-6.8613334 1.6274168 3.572417
-6.8601665 1.6783333 3.5805004
-6.8485003 1.6753333 3.5693336
-6.8530002 1.7213334 3.5771666
-6.8438573 1.7334287 3.5680001
-6.8530002 1.7785 3.5714998
-6.8418465 1.7743847 3.5725386
-6.8335838 1.8247502 3.5677505
-6.8295836 1.8745835 3.5724168
-6.8296423 1.9272146 3.5751426
-6.8212147 1.9775715 3.5780005
-6.8147507 2.0253334 3.5744166
-6.8103638 2.0759091 3.576
-6.796 2.079 3.5699999
-6.8085718 2.1257143 3.5714288
-6.7956672 2.1263332 3.5763335
-6.8028336 2.1765001 3.5769997
-6.7937498 2.1773751 3.5714998
-6.7872725 2.224 3.570364
-6.8024998 2.2639999 3.562
-6.7850008 2.2750001 3.5754998
-6.781455 2.3226364 3.5690913
-6.7766666 2.3724167 3.5762501
-6.7697005 2.4220002 3.5782998
-6.7652507 2.4712501 3.5705001
-6.7617507 2.5244167 3.5780838
-6.7562861 2.5752859 3.5755715
-6.7445998 2.5755999 3.5728002
-6.7556 2.6229999 3.5832002
-6.7414451 2.6308889 3.5752225
-6.7509999 2.6619999 3.582
-6.7359996 2.6785452 3.5778182
-6.7352228 2.7292225 3.5746667
-6.7301993 2.7709 3.5735002
-6.7208571 2.824429 3.5746434
-6.714077 2.8741539 3.5756924
-6.7072001 2.9244001 3.5720003
-6.697 2.931 3.5925
-6.709444 2.9684443 3.5775554
-6.6975002 2.9865 3.5644999
-6.6963644 3.0233641 3.5744548
-6.7014999 3.066 3.5739999
-6.6900835 3.0760832 3.5762506
-6.6890001 3.1239002 3.5770996
-6.6828465 3.1742306 3.5746157
-6.6724167 3.2265832 3.5770833
-6.6657 3.2737999 3.5678997
-6.6641822 3.3220909 3.5765452
-6.6599002 3.3748002 3.5711002
-6.6490002 3.3864999 3.579
-6.6542501 3.4256248 3.5774999
-6.6494999 3.4230001 3.579
-6.6426253 3.476625 3.5697498
-6.6382856 3.5210001 3.5751429
-6.6353645 3.5740004 3.5730002
-6.6247778 3.6238892 3.5705559
-6.6229091 3.6732731 3.5771816
-6.6157503 3.7239165 3.5695834
-6.5999999 3.7420001 3.598
-6.6082001 3.7734001 3.5783002
-6.5938573 3.8297143 3.5750003
-6.5799999 3.8683333 3.5713334
-6.5160913 3.8666363 3.5714545
-6.4995003 3.8895001 3.5925
-6.5116668 3.9203336 3.5751667
-6.4927497 3.93225 3.5717499
-6.5009999 3.961 3.5940001
-6.487 3.96 3.5722499
-6.2834997 5.3334999 3.5969999
-6.2420001 5.3260002 3.598
-6.2729998 5.3530002 3.599
-6.0510001 6.9299998 3.585
-6.0226665 6.9300003 3.5833335
-6.1030002 6.9899998 3.5780001
-6.0630002 6.9805002 3.5840001
-6.0186667 6.9753337 3.5840001
-6.1192498 7.0332503 3.58125
-6.073 7.0300002 3.5826669
-6.0209999 7.0200005 3.5853333
-6.1605 7.0684996 3.5785
-6.1370001 7.0915003 3.579
-6.0852499 7.0822496 3.5822499
-6.0292501 7.0674996 3.5827501
-6.125 7.1240005 3.5793333
-6.0727501 7.1312499 3.5797501
-6.0123339 7.1270003 3.5773335
-6.1256666 7.1673331 3.5793333
-6.0662498 7.1805 3.5782499
-6.0310001 7.1830001 3.5799999
-5.9736667 7.1653328 3.579
-6.1252499 7.2307501 3.579
-6.0799999 7.2243338 3.5786667
-6.0272503 7.2167501 3.5792501
-5.9699998 7.2249999 3.57725
-6.1286669 7.2736664 3.5733335
-6.0679998 7.2659998 3.5755
-6.0236673 7.2596664 3.5750003
-5.9853339 7.2823334 3.5786667
-6.125 7.3210001 3.5764999
-6.0732498 7.3237505 3.5739999
-6.0212498 7.3129997 3.5775001
-5.9709997 7.3170004 3.576
-6.1212502 7.3687501 3.5752501
-6.0640001 7.3782501 3.57375
-6.0285001 7.3739996 3.5780001
-5.9815998 7.3766007 3.5753999
-6.1143336 7.4129996 3.5720003
-6.0705004 7.4254999 3.5745001
-6.02 7.4286666 3.573
-5.9520001 7.4229999 3.5739999
-6.1189995 7.4716663 3.5706668
-6.0797496 7.4759998 3.5722499
-6.0223999 7.4738002 3.5716
-5.9729996 7.475667 3.5756669
-6.1265001 7.5202503 3.5669999
-6.0679998 7.5139999 3.5710001
-6.0292501 7.533 3.5675001
-5.9750004 7.5184999 3.5697498
-6.0742502 7.5620003 3.5669999
-6.0339999 7.579 3.563
-5.9829998 7.5693336 3.5673332
-5.9276671 7.5536671 3.569
-6.1059999 7.6149998 3.5699999
-6.0776668 7.6340003 3.5693336
-6.0209999 7.6173339 3.5706668
-5.9713335 7.6183333 3.5726666
-5.9309998 7.6260004 3.572
-6.0539999 7.6589999 3.5710001
-6.0263329 7.6796675 3.5706668
-5.9710002 7.6636672 3.5726669
-6.0783339 7.7179999 3.5743332
-6.0279999 7.7273331 3.5716667
-5.9726667 7.7220001 3.5710001
-6.080667 7.7766666 3.5716667
-6.0209999 7.77 3.5764999
-5.9753337 7.7806664 3.5756669
-5.9239998 7.783 3.5774999
-6.0755 7.8264999 3.5755
-6.0356669 7.830667 3.5776668
-5.9710002 7.8213339 3.5799999
-6.0710001 7.8766665 3.579
-6.0149999 7.8600001 3.5810001
-5.994 7.8754997 3.5810001
-5.9159999 7.8740001 3.5829999
-6.0753336 7.9196663 3.5726669
-6.0300002 7.9230003 3.5732501
-5.9767146 7.9211431 3.5765717
-5.9265003 7.9312501 3.5727501
-6.0386672 7.9780002 3.5613334
-5.9580002 7.9590001 3.5580001
-5.9299998 7.9499998 3.55
-6.0180001 8.0100002 3.566
-5.9906669 8.0320005 3.5666666
-5.9330001 8.0130005 3.5683334
-6.0233335 8.0760002 3.5663333
-5.9736667 8.0776672 3.5630002
-5.9293327 8.0656672 3.5630002
-6.0314999 8.1310005 3.5634999
-5.9716663 8.1236668 3.5623336
-5.9259996 8.1189995 3.5679998
-6.0009999 8.1639996 3.5669999
-5.9705 8.1655006 3.5604999
-5.9184999 8.1545 3.5665002
-5.9740005 8.2212009 3.5658002
-5.9203334 8.2323332 3.5693336
-6.0203338 8.2790003 3.5636668
-5.9559999 8.2519999 3.563
-5.9276671 8.2723341 3.5626667
-6.0263338 8.317667 3.5556667
-5.9795003 8.31425 3.5602503
-5.9239998 8.3290005 3.5580001
-5.9733334 8.3673344 3.559
-5.9239998 8.5155001 3.5504999
-5.8969998 8.54 3.552
-5.9709997 8.5669994 3.5540001
-5.9289999 8.5860004 3.5510001
-5.9846663 8.635334 3.5553336
-5.9184999 8.6205006 3.559
-5.9176669 8.6679993 3.551667
-5.9645 8.7205 3.5545001
-5.9355001 8.743 3.556
-5.918334 8.7783337 3.5553331
-5.9156666 8.8286667 3.5553331
-5.927 8.8789997 3.5510001
-5.882 9.2950001 3.552
-5.5359998 10.811 3.552
-5.197 14.669 3.595
-5.1199999 14.695 3.566
-5.1680002 14.708 3.573
-7.9530001 -7.0370002 3.635
-7.9343333 -7.0373335 3.6300001
-7.8759999 -6.994 3.6259999
-7.8509998 -6.9229999 3.6029999
-7.823 -6.9460001 3.622
-7.7930002 -6.9439998 3.6129999
-7.835 -6.6540003 3.6120002
-7.7750001 -6.6665001 3.61025
-7.8674293 -6.6270003 3.6212857
-7.823 -6.6247501 3.6387501
-7.7867503 -6.6404996 3.63275
-7.8870001 -6.5970001 3.6400001
-7.75 -5.7600002 3.628
-7.42875 -2.7795 3.6442499
-7.4233336 -2.7160001 3.6426668
-7.4235001 -2.6747499 3.6422501
-7.4103332 -2.5756669 3.6376667
-7.3698339 -2.5278335 3.6345
-7.3731122 -2.4779999 3.6357777
-7.3660002 -2.4242499 3.6285002
-7.3737497 -2.37675 3.62925
-7.3740001 -2.3270001 3.6235003
-7.3650002 -2.2837999 3.6208
-7.3712497 -2.2279999 3.6194999
-7.3190002 -2.2262502 3.6283331
-7.3214006 -2.1790001 3.6261997
-7.3135552 -2.1288891 3.6216664
-7.2973337 -2.1243334 3.6316667
-7.3255005 -2.0723333 3.6108336
-7.2885556 -2.0740001 3.6265557
-7.3255005 -2.0215001 3.6175003
-7.2924447 -2.0291111 3.6224442
-7.3084998 -1.9665 3.6059999
-7.2835011 -1.9792858 3.6232147
-7.32125 -1.9224999 3.6064999
-7.2783084 -1.9229232 3.6285384
-7.329 -1.8763335 3.6040001
-7.2721667 -1.8779167 3.6236668
-7.3173332 -1.8146667 3.602
-7.2675629 -1.8285625 3.6223755
-7.2490001 -1.802 3.638
-7.2674999 -1.7763333 3.6203337
-7.2459998 -1.775 3.6340001
-7.2561111 -1.728 3.6264446
-7.2465 -1.72825 3.6330001
-7.2533998 -1.6906 3.628
-7.2418752 -1.663375 3.6294999
-7.238668 -1.6249166 3.6229999
-7.2519999 -1.563 3.6459999
-7.2330909 -1.5767275 3.6249998
-7.2253337 -1.5269167 3.6211667
-7.2273645 -1.4733635 3.621727
-7.2164445 -1.424889 3.6202223
-7.2127504 -1.3770835 3.6243334
-7.209455 -1.3238183 3.6252728
-7.1983333 -1.329 3.6393332
-7.2063994 -1.2788 3.6313999
-7.1949997 -1.268 3.6193333
-7.2119999 -1.2410001 3.628
-7.1914997 -1.2284167 3.6247501
-7.2010002 -1.2 3.619
-7.1897502 -1.17725 3.622417
-7.2030001 -1.122 3.6300001
-7.1849098 -1.1256363 3.629818
-7.1789289 -1.0738572 3.6255715
-7.1667142 -1.0217143 3.6246428
-7.1621113 -0.97122222 3.6267776
-7.1564999 -0.92837495 3.62075
-7.1451998 -0.92199993 3.6406002
-7.1570005 -0.87633342 3.6239996
-7.1444998 -0.87900007 3.6126668
-7.1589999 -0.83099997 3.6237502
-7.1453333 -0.82311118 3.6297781
-7.1554999 -0.78999996 3.6469998
-7.1358004 -0.76870006 3.6266999
-7.1287494 -0.72475004 3.6263337
-7.1243854 -0.67153847 3.6278462
-7.1173334 -0.62441677 3.6236668
-7.1109228 -0.57292312 3.6250772
-7.0974998 -0.57050002 3.6070001
-7.1086669 -0.52466661 3.6216669
-7.0957999 -0.50940001 3.6289997
-7.1087151 -0.46899998 3.6112857
-7.094286 -0.46800002 3.6308575
-7.1020002 -0.428 3.605
-7.090692 -0.42207697 3.6273077
-7.1020002 -0.38999999 3.6029999
-7.0866437 -0.36964288 3.6217856
-7.0854163 -0.32066667 3.6241665
-7.0773573 -0.2705 3.6269286
-7.0713854 -0.2206154 3.617615
-7.0717702 -0.17015384 3.6242306
-7.0667505 -0.12141668 3.6270833
-7.0649099 -0.071727283 3.6272726
-7.0570002 -0.022111112 3.6199999
-7.0482502 -0.022750001 3.6287498
-7.0585003 0.022666669 3.6276665
-7.0444288 0.029285716 3.6284285
-7.0640001 0.07 3.641
-7.0418572 0.075642854 3.6229286
-7.0510001 0.131 3.6115
-7.0377693 0.12476924 3.6241541
-7.0313339 0.17575 3.6210833
-7.0275841 0.22308335 3.6238334
-7.0242314 0.27169234 3.6254621
-7.0189095 0.3219091 3.6229091
-7.0090723 0.36785713 3.6218576
-6.9959998 0.39899999 3.6110001
-7.0064163 0.42758331 3.6178331
-6.994 0.42399999 3.6307499
-7.0066671 0.46566671 3.6193333
-6.9901819 0.4817273 3.6240003
-7.0045004 0.51699996 3.6359999
-6.9887276 0.53090912 3.625
-6.9798007 0.57966673 3.6273339
-6.9820771 0.6270768 3.6259234
-6.9757147 0.67685717 3.6230717
-6.9661674 0.72333336 3.6249168
-6.9629164 0.77241671 3.6260834
-6.9439998 0.78899997 3.648
-6.9619002 0.82310003 3.6239002
-6.948 0.82200003 3.6263332
-6.9625721 0.86871433 3.616143
-6.9457502 0.87075001 3.6252499
-6.95825 0.91725004 3.63675
-6.9438996 0.92589998 3.6258996
-6.9546671 0.963 3.6290002
-6.9360008 0.98308325 3.6209168
-6.9359226 1.029 3.6235385
-6.9249997 1.0747273 3.6260002
-6.9228578 1.1257857 3.6259999
-6.9173574 1.1727858 3.6237855
-6.9109001 1.2220001 3.6231999
-6.8959999 1.2270001 3.6254003
-6.9064159 1.2703333 3.6205003
-6.8940001 1.2825 3.6370001
-6.9060001 1.3099999 3.6230001
-6.894455 1.3210001 3.6208186
-6.908 1.3735 3.6224999
-6.8928185 1.3699093 3.6205456
-6.8851538 1.4211538 3.622231
-6.8808575 1.4759288 3.6282856
-6.8742499 1.5281667 3.6280832
-6.869 1.5757693 3.6273847
-6.8622732 1.6258183 3.6192732
-6.8499999 1.6440001 3.615
-6.8589096 1.6773638 3.6237278
-6.848 1.6815 3.6345
-6.8571434 1.7275715 3.6268573
-6.8441668 1.7275 3.6198337
-6.8546667 1.76 3.6316669
-6.8423996 1.7838 3.6260002
-6.8509998 1.8099999 3.6210001
-6.8375454 1.8274547 3.6166365
-6.835083 1.8760002 3.6219168
-6.8280001 1.9256667 3.6251664
-6.8231668 1.9761666 3.6298332
-6.8154626 2.0262311 3.6236155
-6.8081818 2.074091 3.6212728
-6.8112679 2.1272001 3.6266668
-6.8088565 2.1757143 3.621429
-6.7945004 2.1760001 3.6185
-6.8028002 2.2191999 3.6284001
-6.7963333 2.2355003 3.6193333
-6.8052502 2.2609999 3.6252499
-6.7885461 2.2819092 3.6269095
-6.7849998 2.3272502 3.6249168
-6.7764163 2.372417 3.6205833
-6.7755833 2.4224999 3.6271667
-6.7687693 2.4722311 3.6218462
-6.7660003 2.5231001 3.6268997
-6.7459998 2.539 3.605
-6.7595553 2.5692222 3.6251111
-6.7463336 2.5880001 3.6236668
-6.7601428 2.6169999 3.6294289
-6.7232504 2.62725 3.61375
-6.7376666 2.6751111 3.6218889
-6.737143 2.7274287 3.6190002
-6.7319231 2.7730772 3.6227694
-6.7309999 2.8269002 3.6271
-6.7156997 2.8763001 3.6234996
-6.7115393 2.9276154 3.6299231
-6.7101111 2.9779999 3.6234446
-6.6939998 2.9990001 3.605
-6.7071667 3.0191669 3.6331668
-6.6954999 3.0315001 3.6234999
-6.6921115 3.0781109 3.6286669
-6.6911111 3.124778 3.6288888
-6.686584 3.1730838 3.6253333
-6.677 3.2256362 3.6267276
-6.6739101 3.2750003 3.6270912
-6.6493335 3.3696666 3.6313334
-6.6490002 3.4300001 3.6364999
-6.6466665 3.478889 3.6204445
-6.6220913 3.6726363 3.6251819
-6.5250001 3.836 3.638
-6.4765005 3.8351669 3.6286666
-6.5777497 3.8667498 3.6270001
-6.5202508 3.8657498 3.6153746
-6.4747782 3.8774447 3.6313334
-6.5116668 3.9150004 3.6143336
-6.4796915 3.9273849 3.6234617
-6.4364996 3.9449999 3.6285
-6.4790001 3.9587498 3.61325
-6.3850002 4.414 3.6489999
-6.3386669 4.4156666 3.6476667
-6.3889999 4.467 3.648
-6.3460002 4.4710002 3.6489999
-6.4039998 4.5110002 3.6489999
-6.3695002 4.5290003 3.6485
-6.3278332 4.5270004 3.6461668
-6.454 4.5630002 3.648
-6.4089999 4.5650001 3.6489999
-6.375 4.5799999 3.645
-6.3286004 4.5778003 3.6445999
-6.4796667 4.6270003 3.6473336
-6.4305 4.6312499 3.6452501
-6.3758001 4.6222 3.6445999
-6.3247499 4.6227498 3.6405001
-6.4748001 4.6768003 3.6428001
-6.4302001 4.6792002 3.6438
-6.3784285 4.6765718 3.6411428
-6.3250003 4.6766672 3.6363335
-6.4749999 4.7287998 3.6431999
-6.425334 4.7250004 3.6416669
-6.3796668 4.7253337 3.6363335
-6.33075 4.72925 3.635
-6.4823999 4.7758002 3.6416001
-6.427 4.7606668 3.6353335
-6.382833 4.7678332 3.6351669
-6.3263335 4.7775002 3.6339998
-6.4729996 4.8236666 3.6353335
-6.4180002 4.8199997 3.6370001
-6.3740001 4.8240004 3.6357999
-6.3164997 4.8134999 3.632
-6.2810001 4.8276668 3.6315
-6.4260001 4.8617501 3.6345
-6.3721666 4.8711672 3.6345003
-6.3224001 4.8765998 3.6318002
-6.27 4.875 3.632
-6.4252501 4.9327497 3.6364999
-6.3782001 4.9232001 3.6341999
-6.3226671 4.9218335 3.6308334
-6.2735 4.9217501 3.6305001
-6.4264002 4.9713998 3.6340001
-6.3765998 4.9828005 3.6298001
-6.3284998 4.9827499 3.6330001
-6.276 4.9711666 3.6251667
-6.4186668 5.0266666 3.6260002
-6.3807497 5.02425 3.6289999
-6.3315001 5.0214996 3.6277502
-6.2688332 5.0260005 3.6241665
-6.4220004 5.0731997 3.6264
-6.3695998 5.0682001 3.6238
-6.3301673 5.074667 3.6255002
-6.2779999 5.0785003 3.6212502
-6.4201999 5.1265998 3.6234002
-6.3729997 5.1291995 3.6248002
-6.3233333 5.1329999 3.6223335
-6.2800002 5.1340003 3.6221664
-6.3794999 5.17875 3.6244998
-6.3380003 5.1813331 3.6240001
-6.2799997 5.1752501 3.62375
-6.2286673 5.1843333 3.6213336
-6.3786669 5.2270002 3.6280003
-6.3251667 5.2268333 3.6241665
-6.2685003 5.2268333 3.6216669
-6.2276669 5.2270002 3.6220002
-6.3784003 5.2748003 3.6228001
-6.32725 5.2752504 3.6212499
-6.2728 5.2809997 3.6197999
-6.2200003 5.2774005 3.6178002
-6.3671665 5.3311667 3.6186666
-6.3202496 5.3217502 3.6192501
-6.2715001 5.3280001 3.6174998
-6.2255001 5.3215003 3.6087501
-6.3710003 5.3740001 3.61625
-6.3305001 5.3924999 3.6125
-6.2766666 5.3936667 3.6123333
-6.2223334 5.366333 3.6036668
-6.3773999 5.4261999 3.6131999
-6.3194003 5.4266 3.6114004
-6.2684999 5.4254999 3.6100001
-6.2247996 5.4260001 3.6112001
-6.3712502 5.4749999 3.61025
-6.3146667 5.4650002 3.610667
-6.2709999 5.4665003 3.60975
-6.2304001 5.4804001 3.6113999
-6.3726668 5.5223341 3.6110001
-6.3233333 5.5116668 3.6096666
-6.2779999 5.5186 3.6104
-6.2270002 5.5240002 3.6159999
-6.3687501 5.57125 3.6105001
-6.3169999 5.572 3.6106
-6.2770004 5.5616674 3.6143336
-6.3691669 5.6200004 3.6079998
-6.3379998 5.6220002 3.6110001
-7.8585 -6.6079998 3.6545
-7.8274999 -6.605 3.6764998
-7.7751999 -6.6145997 3.6619999
-7.8782501 -6.59025 3.6659999
-7.8155003 -6.5950003 3.6705
-7.47575 -3.1360002 3.66925
-7.4695716 -3.0787146 3.6684289
-7.4755721 -3.0245717 3.661571
-7.4723334 -2.9673336 3.6603334
-7.4239998 -2.8144999 3.6564999
-7.3035717 -2.1800001 3.6755714
-7.3023334 -2.1073332 3.6590002
-7.2942495 -2.1294999 3.6708751
-7.2879095 -2.0760911 3.6767271
-7.302 -2.0335 3.6680002
-7.2813754 -2.0274999 3.677875
-7.277 -1.9786667 3.6735837
-7.2689095 -1.9238183 3.6760907
-7.2612739 -1.872818 3.675
-7.2608752 -1.8218751 3.6724999
-7.2395 -1.8335 3.6859999
-7.2550001 -1.7750001 3.6728573
-7.2484999 -1.7815 3.6599998
-7.2545004 -1.73 3.6729999
-7.2454286 -1.7247145 3.6785717
-7.2519999 -1.696 3.6600001
-7.2390909 -1.6733638 3.6790912
-7.2350001 -1.6279999 3.6765003
-7.2262497 -1.5780001 3.6710835
-7.2269998 -1.5244615 3.6714616
-7.2610002 -1.498 3.6600001
-7.2192144 -1.4734285 3.6733572
-7.2176929 -1.4288462 3.6760004
-7.211833 -1.3789999 3.6733332
-7.1925001 -1.3535 3.684
-7.2063332 -1.3325 3.6784999
-7.1955009 -1.3131667 3.6765001
-7.2055001 -1.2915001 3.6684999
-7.1947145 -1.2730001 3.672286
-7.204 -1.2130001 3.6530001
-7.1872497 -1.2300833 3.6784167
-7.2049999 -1.187 3.6830001
-7.1844997 -1.1785834 3.6700838
-7.1749234 -1.1251539 3.6733847
-7.1721668 -1.0728334 3.6743336
-7.1616364 -1.0196364 3.6751821
-7.1479998 -1.012 3.658
-7.1613998 -0.97539997 3.6649997
-7.1467147 -0.97514296 3.6721427
-7.1585999 -0.9314 3.6763999
-7.1416001 -0.92659998 3.6768003
-7.1559997 -0.87960005 3.6619999
-7.1444001 -0.87469989 3.675
-7.152 -0.84600002 3.6800001
-7.1360831 -0.82241666 3.6734998
-7.1338329 -0.77616668 3.6749167
-7.1278343 -0.72266668 3.6730003
-7.1156001 -0.67340004 3.6775334
-7.1171432 -0.62128574 3.6743569
-7.1130004 -0.57109094 3.678091
-7.0900002 -0.57599998 3.6659999
-7.1059999 -0.52399999 3.6684999
-7.0937781 -0.51966667 3.6764445
-7.1116667 -0.47 3.668
-7.0921822 -0.47236362 3.6750004
-7.0888338 -0.42025003 3.6756668
-7.0821877 -0.37024999 3.678812
-7.1040001 -0.32800001 3.6659999
-7.0769238 -0.31923079 3.6727695
-7.0690832 -0.26933333 3.6733336
-7.0710011 -0.22166668 3.6710672
-7.0673079 -0.17307693 3.6723845
-7.0616665 -0.11941667 3.6739166
-7.0450001 -0.127 3.6630001
-7.0569172 -0.071083337 3.6725004
-7.0472498 -0.075000003 3.68275
-7.0549088 -0.02218182 3.6770909
-7.0419998 -0.025750002 3.668
-7.0570002 0.039000001 3.6605
-7.0428891 0.024555555 3.6747775
-7.0539999 0.057 3.6830001
-7.0386004 0.076699995 3.6731
-7.0371542 0.12584616 3.6763079
-7.052 0.156 3.651
-7.0242314 0.17307694 3.6702311
-7.0218573 0.22364284 3.6718571
-7.0170002 0.27230769 3.6717691
-7.0157499 0.32108331 3.6663332
-7.010273 0.37027273 3.6730909
-6.9949999 0.38099998 3.6729999
-7.0099096 0.41818184 3.6742728
-6.9968004 0.43660003 3.6752
-7.0079999 0.47400001 3.6707501
-6.9923334 0.47977775 3.676111
-6.9820008 0.52607691 3.6730769
-7.0029998 0.58499998 3.684
-6.9846001 0.57340002 3.6803002
-6.9773331 0.6261667 3.6725001
-6.9689994 0.67466676 3.6705003
-6.972167 0.72383332 3.6748333
-6.9620004 0.76744443 3.6737778
-6.9495001 0.78350002 3.6665001
-6.9579096 0.81954551 3.6741819
-6.9454999 0.838 3.6754999
-6.9562221 0.87255555 3.6753337
-6.9442501 0.87199998 3.6727498
-6.9543333 0.91766667 3.6719999
-6.9423327 0.92422223 3.6698887
-6.9390006 0.97500002 3.6746428
-6.934 1.0277693 3.6723077
-6.924818 1.0747273 3.6722724
-6.954 1.1 3.6600001
-6.9216666 1.1255001 3.6762502
-6.9163852 1.1747693 3.6755388
-6.9106002 1.2257 3.6777999
-6.8994999 1.209 3.6799998
-6.9089999 1.2665 3.6743331
-6.8987503 1.2757499 3.6760001
-6.9052501 1.313 3.6767499
-6.8957772 1.3255554 3.6707776
-6.915 1.3559999 3.694
-6.8909097 1.3716364 3.666364
-6.8870721 1.4237143 3.6724286
-6.8860912 1.4752728 3.6762729
-6.8769169 1.5215834 3.6768336
-6.8739991 1.5739231 3.6787691
-6.8655 1.6273572 3.6687858
-6.8588753 1.678 3.6664999
-6.8424997 1.661 3.6754999
-6.8608751 1.726125 3.683625
-6.8485999 1.7250003 3.6652
-6.8643332 1.775 3.6856666
-6.8446245 1.7782499 3.674
-6.8530002 1.8305 3.6560001
-6.8414545 1.8260909 3.6708181
-6.8509998 1.874 3.677
-6.8368177 1.877 3.6698184
-6.8335447 1.9255455 3.6748183
-6.829917 1.9781668 3.6807499
-6.8243332 2.0271666 3.6771667
-6.8178339 2.0788336 3.6736667
-6.8122215 2.1229999 3.6775556
-6.7989998 2.145 3.6589999
-6.8089094 2.1717274 3.6737278
-6.7933331 2.1733334 3.6713333
-6.8076668 2.2191668 3.6746669
-6.7974 2.2302001 3.6652
-6.7968578 2.2712858 3.6801429
-6.7915001 2.3226252 3.671875
-6.7854004 2.3736999 3.6736
-6.7798753 2.417625 3.6742499
-6.5910001 2.427 3.698
-6.7764001 2.4739001 3.6707001
-6.7665839 2.5249166 3.6709166
-6.7607002 2.5764 3.6734998
-6.75775 2.622 3.6745002
-6.743 2.6400001 3.6583333
-6.7416663 2.6856666 3.661
-6.5550003 2.6855001 3.698
-6.7394991 2.724375 3.6611249
-6.7365999 2.7749002 3.6719997
-6.585 2.7720001 3.698
-6.7300997 2.8234003 3.6657002
-6.7232494 2.8749166 3.6725833
-6.566 2.8870001 3.697
-6.5314999 2.9745002 3.6989999
-6.7062006 3.0231004 3.6742001
-6.6989999 3.043 3.664
-6.5196676 3.0238333 3.6963334
-6.6951666 3.0793333 3.6693335
-6.5223331 3.0740001 3.6924999
-6.6919999 3.1292861 3.6782858
-6.5725002 3.1399999 3.6984999
-6.5180001 3.1212499 3.6930001
-6.6877999 3.1764002 3.6722
-6.6220002 3.1500001 3.6989999
-6.5756674 3.1843333 3.6959999
-6.527 3.1782501 3.6939998
-6.572 3.2390001 3.6960001
-6.5276003 3.2203999 3.6940002
-6.4899998 3.4130001 3.6989999
-6.6469998 3.4949999 3.658
-6.5019999 3.642 3.6949999
-6.477334 3.6276665 3.697
-6.43325 3.6247501 3.69275
-6.5135002 3.6700001 3.698
-6.4754 3.6678002 3.6961999
-6.4254999 3.67225 3.6932499
-6.5434999 3.717 3.6984999
-6.4716005 3.7286 3.6964002
-6.4232001 3.7250001 3.6938
-6.506 3.779 3.698
-6.4786673 3.7730002 3.6950002
-6.4239998 3.7762001 3.6941998
-6.5690002 3.8379998 3.6900001
-6.5153332 3.8253334 3.675
-6.4784446 3.8304443 3.6824443
-6.4284282 3.8267145 3.6928573
-6.5489998 3.8499999 3.684
-6.4746666 3.8747501 3.6755836
-6.421833 3.8791666 3.6816669
-6.463625 3.9301252 3.664875
-6.4291668 3.9246664 3.6776667
-6.4580002 3.9660001 3.6760001
-6.4445 3.9575 3.6675
-6.52 4.382 3.6589999
-6.4899998 4.3699999 3.661
-6.362 4.3979998 3.652
-6.4759998 4.4349999 3.6560001
-6.4299998 4.42875 3.6575003
-6.3843336 4.4253335 3.6566665
-6.3340001 4.4460001 3.654
-6.4766002 4.4712 3.6590002
-6.4232502 4.4744997 3.6545
-6.3782496 4.4765 3.6542501
-6.3259997 4.4766002 3.6524003
-6.4778571 4.524857 3.6565716
-6.4336672 4.5323334 3.6546667
-6.3889999 4.5230002 3.6516666
-6.4743338 4.5780005 3.6543331
-6.4307499 4.5852499 3.6537499
-6.3740001 4.5570002 3.6500001
-6.4809999 4.6079998 3.6535001
-6.4239998 4.6100001 3.6500001
-6.4889998 4.6560001 3.6530001
-7.8260002 -6.6620002 3.7390001
-7.7804999 -6.6595001 3.7259998
-7.866334 -6.6110001 3.7113333
-7.8353338 -6.6233339 3.7293334
-7.7870002 -6.6290002 3.701
-7.8850002 -6.5840001 3.7175
-7.8345003 -6.5650005 3.7290001
-7.8639998 -6.5320001 3.7190001
-7.8327498 -6.5232496 3.7284999
-7.8322001 -6.4824004 3.7232003
-7.8228335 -6.4324999 3.7280002
-7.8251667 -6.3740001 3.7218332
-7.81075 -6.3225002 3.72575
-7.7950001 -6.3150001 3.7290001
-7.8257499 -6.2735 3.7137499
-7.7950001 -6.2636671 3.7303333
-7.7926669 -6.2176666 3.7260003
-7.7888002 -6.1734004 3.7224
-7.7916002 -6.1265998 3.7278001
-7.7819996 -6.0730004 3.7232499
-7.7714996 -6.0253334 3.7268333
-7.7705712 -5.9734287 3.7185717
-7.7465 -5.9165001 3.7199998
-7.75 -5.8660002 3.7290001
-7.7410002 -5.8280001 3.737
-7.7294006 -5.7162004 3.7228
-7.3204169 -2.3245835 3.7252502
-7.311429 -2.2709999 3.7248573
-7.3071432 -2.2277143 3.7168572
-7.3022003 -2.1775999 3.7219999
-7.2969999 -2.16675 3.72825
-7.3026667 -2.1256666 3.7326667
-7.2916665 -2.125778 3.7216666
-7.2836361 -2.075 3.7220907
-7.283546 -2.027091 3.7304542
-7.2733641 -1.9758184 3.7188184
-7.2698188 -1.9216365 3.722182
-7.2663755 -1.8742501 3.7286248
-7.2410002 -1.854 3.7060001
-7.2634544 -1.8230909 3.7247276
-7.257 -1.7722499 3.7176249
-7.2470002 -1.7776002 3.7348001
-7.2544999 -1.7165 3.7119999
-7.2427001 -1.7299 3.7273998
-7.2358184 -1.6713636 3.7240911
-7.2349997 -1.6253333 3.7246671
-7.2262011 -1.5775334 3.7249336
-7.2202725 -1.5244547 3.7211821
-7.2133636 -1.4822726 3.7280912
-7.1989999 -1.459 3.7379999
-7.2079172 -1.4285001 3.7227497
-7.206429 -1.3824285 3.7177145
-7.1941671 -1.3670001 3.7315001
-7.2110004 -1.3315001 3.7395
-7.1905832 -1.3190001 3.7238336
-7.2010002 -1.252 3.7349999
-7.1896362 -1.2757273 3.7212727
-7.1812506 -1.2278333 3.7259166
-7.178875 -1.1767501 3.7256253
-7.1750774 -1.1253077 3.7251539
-7.1675382 -1.0709231 3.7220771
-7.1618881 -1.0236667 3.727222
-7.1456671 -1.0196667 3.7150002
-7.1537495 -0.98074996 3.72175
-7.1473341 -0.96100008 3.7276669
-7.1545 -0.93400002 3.7158334
-7.144556 -0.92633331 3.7308888
-7.1560001 -0.89700001 3.701
-7.1377506 -0.87633342 3.7224166
-7.1343083 -0.82769227 3.7236924
-7.133584 -0.77408332 3.7220006
-7.1247692 -0.72492307 3.7203081
-7.1142502 -0.67199999 3.7223749
-7.1124163 -0.62400007 3.7232502
-7.0939999 -0.602 3.733
-7.1085 -0.57010001 3.7244
-7.0974998 -0.5765 3.7094998
-7.1073332 -0.52950001 3.7205
-7.0938005 -0.50920004 3.7253997
-7.1054997 -0.46874997 3.7214999
-7.0935555 -0.47266665 3.7288888
-7.1027498 -0.41824999 3.7379999
-7.0871253 -0.421875 3.7181251
-7.0813751 -0.37024999 3.7255003
-7.0857005 -0.32210001 3.7218003
-7.0732217 -0.2727778 3.7161112
-7.0690837 -0.22125 3.7236671
-7.0612307 -0.17007691 3.7210767
-7.0300002 -0.177 3.7490001
-6.9767499 -0.16325 3.7477498
-7.0630002 -0.12300002 3.7250772
-7.0009999 -0.139 3.7490001
-6.967 -0.102 3.7460001
-7.0626249 -0.0735 3.7341249
-7.0430002 -0.070000008 3.7183332
-6.9130001 -0.052999999 3.7479999
-7.0567498 -0.02275 3.7288749
-7.0383334 -0.0083333347 3.7266669
-6.9840002 -0.028999999 3.7465
-7.0553746 0.028125003 3.7244999
-7.0392861 0.027428571 3.7260003
-6.9720001 0.026000001 3.7480001
-6.9419999 0.032000002 3.7479999
-7.06075 0.075500004 3.72925
-7.0336928 0.077769227 3.7296927
-6.9759994 0.076200001 3.7474003
-6.9327497 0.074000001 3.7432501
-7.0559998 0.12450001 3.7309999
-7.036417 0.12408333 3.7297502
-6.9689999 0.117 3.747
-6.9302502 0.13124999 3.7460001
-7.0321436 0.17535716 3.7267861
-6.9803743 0.17237501 3.7460001
-6.9270005 0.16739999 3.7437999
-7.0282497 0.22299999 3.7253332
-6.9724002 0.22239999 3.744
-6.9242005 0.2184 3.7461998
-6.8700004 0.23016667 3.7444999
-7.0174298 0.27192861 3.7240717
-6.9744997 0.27024999 3.7446251
-6.9235725 0.27257144 3.7451427
-6.8857498 0.29124999 3.7437501
-7.0168753 0.32124996 3.7214999
-6.9708571 0.31657144 3.7448573
-6.9239998 0.3276 3.7456002
-6.8791666 0.33100003 3.7440002
-7.0130835 0.37083334 3.7235
-6.9848747 0.3775 3.7354999
-6.9244285 0.37814286 3.7417145
-6.873858 0.37714285 3.7408574
-7.0088892 0.41777778 3.7279999
-6.9836669 0.43544447 3.728889
-6.9316249 0.42612499 3.7414999
-6.8725719 0.41971433 3.7392857
-7.0026665 0.486 3.742667
-6.9840002 0.47578576 3.725286
-6.9257145 0.47728574 3.7412858
-6.8681431 0.46785718 3.7385714
-7.0019999 0.53499997 3.744
-6.9829168 0.52858335 3.7244167
-6.9335999 0.52500004 3.7444
-6.8750005 0.52850002 3.7379997
-7.0019999 0.597 3.7149999
-6.9780712 0.57571435 3.7287142
-6.9227996 0.57080001 3.7376001
-6.8769999 0.57449996 3.7372501
-6.8248329 0.57816672 3.7360001
-7.0009999 0.63499999 3.717
-6.9750767 0.62446159 3.723846
-6.9313331 0.6238333 3.7363334
-6.879333 0.62622225 3.7361112
-6.8210006 0.62599999 3.7363336
-6.9730005 0.67346156 3.7216153
-6.9301429 0.67328578 3.7365718
-6.8722501 0.67724997 3.7357497
-6.8202004 0.66860002 3.7334001
-6.970417 0.72383332 3.7205834
-6.9238892 0.72222221 3.735667
-6.8710003 0.72366667 3.7350001
-6.8214293 0.7262857 3.7321427
-6.9623003 0.77130002 3.7175
-6.9270005 0.77680004 3.7318001
-6.8701663 0.77233338 3.7323332
-6.8275561 0.77311116 3.7367778
-6.9578195 0.81727272 3.7224545
-6.9199996 0.83187503 3.7372501
-6.8717499 0.82325 3.7362499
-6.8272505 0.824 3.7334998
-6.9652495 0.868375 3.7208753
-6.9319 0.88110012 3.7286
-6.8765001 0.87274998 3.734375
-6.8225999 0.87699997 3.7320001
-6.9639997 0.91499996 3.7135
-6.9336004 0.92973346 3.7233338
-6.8706665 0.92422223 3.7357776
-6.8175001 0.92799997 3.7348335
-6.9566665 0.98000002 3.7250001
-6.9320769 0.97869241 3.7276156
-6.8700008 0.97214288 3.7372859
-6.8294001 0.97959995 3.7370002
-6.7764444 0.9771111 3.7337778
-6.9239998 1.0253333 3.7222672
-6.8816671 1.0286667 3.7383335
-6.831625 1.0254999 3.7372501
-6.7755008 1.029 3.7358332
-6.9286432 1.0788571 3.7226431
-6.8738337 1.0726666 3.7376668
-6.8241668 1.0753334 3.7371669
-6.7781434 1.0755714 3.7337141
-6.9185843 1.1220001 3.7225833
-6.8765998 1.1316 3.7279999
-6.8292499 1.1224999 3.728375
-6.7754998 1.1259999 3.7309999
-6.9145999 1.1714 3.7202001
-6.8712006 1.1778001 3.7259998
-6.8301668 1.1698333 3.7256668
-6.7758746 1.174875 3.7206249
-6.9171438 1.2215716 3.7227144
-6.8801436 1.2257143 3.7234287
-6.8202496 1.224125 3.7193747
-6.7715716 1.2204287 3.7212858
-6.9022503 1.26825 3.7142501
-6.8791246 1.2751249 3.7203753
-6.8177505 1.2745 3.7208753
-6.7728 1.2688 3.723
-6.9130001 1.3133334 3.7146668
-6.8819098 1.3266363 3.7209997
-6.8243341 1.3235 3.7240005
-6.779285 1.3257145 3.7224286
-6.902 1.385 3.714
-6.8829236 1.3687693 3.7173848
-6.823667 1.3813334 3.7221668
-6.76825 1.3701251 3.7203751
-6.7216005 1.3764 3.7163999
-6.9060001 1.4170001 3.711
-6.8847003 1.4212 3.7164998
-6.8235717 1.4244286 3.7230003
-6.7726665 1.4241667 3.7183332
-6.7187777 1.4247776 3.7161112
-6.8797698 1.470077 3.7204618
-6.820333 1.4778333 3.7231669
-6.7824292 1.476143 3.7249999
-6.7270007 1.4732 3.7208002
-6.8797784 1.5228888 3.7218888
-6.8264294 1.5245717 3.7222857
-6.7741427 1.5271429 3.7224286
-6.7268577 1.5252858 3.7194285
-6.8775001 1.5774 3.7194996
-6.8235717 1.5702857 3.7242861
-6.7729998 1.5824002 3.7208002
-6.7248745 1.5761249 3.7211251
-6.8688998 1.6264 3.7164001
-6.8272004 1.6204001 3.7222002
-6.7754998 1.625625 3.7226248
-6.7225008 1.6236666 3.7206664
-6.8625555 1.6794444 3.7143335
-6.824286 1.6685716 3.7230003
-6.779429 1.6754287 3.7254286
-6.7272496 1.6800001 3.72
-6.8627148 1.7269999 3.7170002
-6.8280001 1.7298334 3.7211666
-6.7815719 1.7194287 3.7208576
-6.7355003 1.7275 3.7175002
-6.6742225 1.7231112 3.7144444
-6.8571672 1.7798333 3.7140002
-6.8266668 1.7763333 3.7213333
-6.7751665 1.7753334 3.7184999
-6.7235003 1.775125 3.7170002
-6.6721668 1.7735 3.7139997
-6.8530002 1.8234999 3.7137499
-6.8315001 1.8305 3.7155001
-6.773375 1.8245 3.7181249
-6.73 1.82225 3.7172499
-6.6759996 1.82625 3.7132499
-6.8292308 1.8767693 3.7141542
-6.7768006 1.8714001 3.7198002
-6.7310009 1.8757144 3.7187145
-6.6822505 1.872 3.7150002
-6.8509998 1.913 3.7130001
-6.8317151 1.9294287 3.7148576
-6.7772226 1.9280001 3.7182224
-6.7199998 1.9243333 3.7198889
-6.6706004 1.9256001 3.7174001
-6.82725 1.977375 3.718375
-6.7726665 1.9765003 3.719667
-6.7208571 1.9784286 3.7150002
-6.6673336 1.9686668 3.7115002
-6.8192501 2.026875 3.7176249
-6.7756004 2.0256 3.7198002
-6.7252002 2.0232 3.7160001
-6.6744289 2.0248575 3.7118576
-6.8210001 2.0695715 3.7121432
-6.7838573 2.0711432 3.7207141
-6.7218332 2.0755002 3.7140002
-6.6718574 2.072 3.7157145
-6.8212862 2.1240001 3.7182858
-6.7798572 2.1278572 3.7207146
-6.7283335 2.1205001 3.7163334
-6.6768575 2.1244287 3.7108574
-6.6318336 2.1259999 3.7076669
-6.8111668 2.1808333 3.7123332
-6.7775002 2.1702499 3.7155001
-6.7251248 2.1728749 3.711
-6.6743336 2.1758335 3.7115002
-6.6271667 2.1733336 3.7133331
-6.7776003 2.2237999 3.7174001
-6.7364001 2.2284 3.7196
-6.6757145 2.2195716 3.7148573
-6.6360002 2.2290001 3.7136002
-6.7776003 2.2737999 3.7160001
-6.7255001 2.277375 3.7166247
-6.6723337 2.2721667 3.7133331
-6.623714 2.2722859 3.7087145
-6.7756248 2.3206251 3.7151251
-6.7342501 2.3262498 3.7189999
-6.6828337 2.3216667 3.7143333
-6.6288338 2.3291669 3.7093334
-6.7803335 2.3715 3.7181668
-6.7297502 2.3765001 3.7178748
-6.6771669 2.3816669 3.7140005
-6.6278567 2.3734288 3.7108576
-6.7809 2.4245002 3.7150006
-6.7220001 2.4275999 3.7180002
-6.6830001 2.4346666 3.712667
-6.6290002 2.4261429 3.7074287
-6.7726254 2.4688749 3.7154999
-6.7263336 2.4768333 3.7179999
-6.6718001 2.4784 3.7126
-6.6260004 2.4735 3.7077498
-6.7297139 2.5285714 3.7142859
-6.6734285 2.5262859 3.7138577
-6.6228004 2.5186 3.7082002
-6.579 2.5307999 3.7048001
-6.724 2.5676 3.7158
-6.6715722 2.5807142 3.7115717
-6.6194 2.5700002 3.707
-6.5764003 2.5716 3.7049999
-6.7268004 2.6222 3.7182
-6.6855001 2.6292498 3.7184999
-6.6313338 2.6215 3.7118335
-6.5743332 2.6256666 3.7060001
-6.7198 2.6716001 3.7211998
-6.6691666 2.6768336 3.7116668
-6.6328006 2.6775999 3.7119999
-6.5836673 2.6696668 3.706167
-6.7226667 2.7191665 3.7136667
-6.6748333 2.7343335 3.7125001
-6.6272497 2.72825 3.7097499
-6.5814004 2.7218001 3.7052
-6.7143998 2.7711999 3.7152002
-6.6764998 2.7792501 3.7155001
-6.6254001 2.7725999 3.7084
-6.5664001 2.7728002 3.7020001
-6.7298574 2.8231428 3.7112856
-6.6760001 2.8284287 3.7144289
-6.6187506 2.8210001 3.70825
-6.5736666 2.8201666 3.7049999
-6.7250004 2.8733752 3.7133749
-6.6805 2.8752499 3.7164998
-6.6308336 2.8721666 3.7110002
-6.5830002 2.8698001 3.7076001
-6.67975 2.9264998 3.7227499
-6.6339998 2.9166667 3.7140002
-6.5772848 2.9271429 3.7221427
-6.5256667 2.9326668 3.7243335
-6.6824999 2.9751668 3.7275004
-6.6301112 2.9779999 3.7211113
-6.5774288 2.9745715 3.7184286
-6.5257497 2.96825 3.7147498
-6.6760001 3.0191998 3.7156003
-6.6220002 3.0251999 3.7080002
-6.5771666 3.0250001 3.7049999
-6.5229998 3.0320001 3.7079999
-6.6862001 3.0746002 3.7124002
-6.6241665 3.0723338 3.7046669
-6.5782499 3.072 3.7025001
-6.6824288 3.1247144 3.7121432
-6.6272006 3.1262 3.7062001
-6.5746002 3.1242001 3.7007999
-6.6783996 3.1791999 3.7087998
-6.625 3.1795001 3.7029998
-6.579 3.1719999 3.7005
-6.5500002 3.1719999 3.7030001
-6.6674004 3.2204003 3.7062001
-6.6372499 3.2319999 3.704
-6.5879993 3.21875 3.7030001
-6.6300001 3.2605 3.711
-6.5716004 3.2796001 3.7214
-6.5235 3.2869999 3.7249999
-6.4759998 3.2820001 3.7156665
-6.6270003 3.3170002 3.7385001
-6.5738001 3.3293998 3.7272
-6.5195007 3.3275001 3.7165
-6.4712 3.3198001 3.7104001
-6.6304002 3.3756001 3.7306001
-6.5822501 3.381 3.7210002
-6.527 3.3743334 3.7093334
-6.4790001 3.3683336 3.7046666
-6.6199999 3.415 3.7249999
-6.5747499 3.4207499 3.7142501
-6.5205002 3.4145 3.7049999
-6.6254005 3.6397998 3.7250001
-6.5734 3.6358001 3.7146001
-6.5265002 3.6289999 3.7145
-6.4895 3.6194999 3.7245002
-6.6208 3.6711998 3.7040002
-6.5767145 3.6765716 3.7051432
-6.5264997 3.6845002 3.7
-6.46 3.677 3.701
-6.5870004 3.7190001 3.7052498
-6.5192499 3.7295001 3.7035
-6.5705996 3.7704003 3.7066002
-6.5273337 3.7606666 3.7023335
-6.4759998 3.7909999 3.704
-6.5795002 3.8214998 3.7038333
-6.5366669 3.8163333 3.7033334
-6.4849997 3.8045001 3.7030001
-6.421 3.8970001 3.724
-6.3959999 3.8970001 3.7290001
-7.8245001 -6.7205 3.7934999
-7.8330002 -6.6778002 3.7695999
-7.7810001 -6.6950002 3.7550001
-7.8415999 -6.6292 3.7764001
-7.8306003 -6.5685997 3.7792001
-7.8287997 -6.5209999 3.7714002
-7.8183336 -6.4713335 3.7730002
-7.822 -6.43925 3.7762499
-7.8105721 -6.3798571 3.7688572
-7.8059998 -6.329 3.7716
-7.796 -6.316 3.79
-7.8053336 -6.2793341 3.7770002
-7.7955003 -6.2714996 3.7739999
-7.8010001 -6.2319999 3.7509999
-7.7924004 -6.2206001 3.7778001
-7.7876673 -6.1656666 3.7715003
-7.7806001 -6.1135998 3.7728002
-7.7790003 -6.0732002 3.7708001
-7.7725997 -6.0247998 3.7769997
-7.7641997 -5.9710002 3.7736001
-7.7546668 -5.9200001 3.7690001
-7.7420001 -5.9239998 3.779
-7.7449999 -5.8730001 3.7874999
-7.7392497 -5.8214998 3.7737503
-7.7319999 -5.7735 3.7744999
-7.691 -5.665 3.7795
-7.3569999 -2.543 3.7920001
-7.3509998 -2.4835 3.7795
-7.3276663 -2.3764443 3.7692223
-7.3216662 -2.3224444 3.7694445
-7.3185 -2.2767501 3.7690001
-7.315444 -2.2225556 3.7702222
-7.3092499 -2.1737499 3.7684999
-7.2993331 -2.1756668 3.7653337
-7.3156672 -2.1293335 3.783
-7.2942495 -2.1210001 3.7702498
-7.3039999 -2.0825 3.7735
-7.2862 -2.0734003 3.7624002
-7.3099999 -2.049 3.7969999
-7.2802858 -2.0195713 3.7787144
-7.303 -1.965 3.799
-7.2744613 -1.9763077 3.7776153
-7.3125 -1.9205 3.7979999
-7.2809005 -1.9321002 3.7740002
-7.3070002 -1.898 3.7920001
-7.270875 -1.8720001 3.7836251
-7.2641249 -1.823 3.7720001
-7.2601671 -1.7779999 3.7791667
-7.2206664 -1.7751667 3.7893333
-7.2533331 -1.7226667 3.7826669
-7.234077 -1.7267693 3.7771537
-7.2601247 -1.676 3.7813749
-7.2373333 -1.6791667 3.7835002
-7.2612 -1.6340001 3.7810001
-7.2307496 -1.618 3.7846251
-7.2223749 -1.571375 3.7751248
-7.2188182 -1.5240911 3.7719092
-7.1778336 -1.5248334 3.7876668
-7.2220006 -1.473143 3.7757144
-7.1782856 -1.4774288 3.7844288
-7.2131109 -1.4246668 3.7736669
-7.1798573 -1.4277142 3.7822862
-7.2133331 -1.3782222 3.7745557
-7.1784005 -1.3718001 3.786
-7.2151999 -1.3216001 3.7840002
-7.1749997 -1.3274446 3.7768891
-7.2063332 -1.2743335 3.7773333
-7.1713333 -1.2740002 3.7722218
-7.1268005 -1.2696 3.7820001
-7.2020001 -1.239 3.783
-7.1776667 -1.2247778 3.7708888
-7.1240005 -1.2237145 3.7805715
-7.179112 -1.1745555 3.7763333
-7.1256671 -1.1786667 3.7783334
-7.1741114 -1.1224444 3.7696669
-7.1287155 -1.1272857 3.777
-7.1707783 -1.0764444 3.7677777
-7.1251998 -1.0776 3.7748001
-7.1589999 -1.0241667 3.7671666
-7.1285 -1.03125 3.7761252
-7.1550002 -0.98199999 3.7639999
-7.1338 -0.97659999 3.7684
-7.0798893 -0.97411114 3.7714446
-7.1570001 -0.92400002 3.767
-7.1235995 -0.92690003 3.7694001
-7.0699997 -0.91779995 3.7726002
-7.1529999 -0.88499999 3.779
-7.1283641 -0.87454545 3.765182
-7.0812006 -0.8682 3.7751999
-7.1539998 -0.80900002 3.7579999
-7.1308885 -0.82577783 3.7688892
-7.0763335 -0.8186667 3.7715001
-7.151 -0.78299999 3.7720001
-7.1221814 -0.77554548 3.764909
-7.0682001 -0.77679998 3.7690003
-7.1218891 -0.72377777 3.7636669
-7.0767145 -0.72485721 3.77
-7.0328002 -0.72299999 3.7723999
-7.1263747 -0.67324996 3.7605
-7.0766249 -0.67474997 3.7661252
-7.0307498 -0.67675 3.7657502
-7.1134005 -0.62580001 3.7625999
-7.0769997 -0.62716669 3.7668333
-7.0212502 -0.626625 3.7662499
-7.116333 -0.57000005 3.7638335
-7.0758576 -0.58185714 3.7627146
-7.0233335 -0.57266665 3.7620001
-7.1057501 -0.52724999 3.75525
-7.0785718 -0.52557147 3.7618573
-7.0262499 -0.52775002 3.764375
-7.1044998 -0.47150001 3.7639999
-7.0741253 -0.47574997 3.7621253
-7.0239997 -0.47240001 3.7593999
-7.118 -0.403 3.77
-7.082375 -0.42300001 3.7631252
-7.0271254 -0.43062502 3.7652502
-7.1030002 -0.38999999 3.7609999
-7.082572 -0.36757144 3.7585716
-7.0275006 -0.37975001 3.7600002
-6.9723749 -0.37687501 3.7618752
-7.0761819 -0.32218179 3.7593641
-7.0263329 -0.3285 3.7608335
-6.974 -0.32812503 3.7613752
-7.1100001 -0.29100001 3.7620001
-7.0831432 -0.26828572 3.7565715
-7.0305719 -0.27685714 3.7580001
-6.9741116 -0.27700001 3.7576668
-7.0682001 -0.21759999 3.7576001
-7.0228887 -0.22733334 3.7582219
-6.9682856 -0.22957143 3.7572863
-7.0682497 -0.18100001 3.75825
-7.0240006 -0.16940002 3.7554002
-6.9746666 -0.17966667 3.756
-7.0623336 -0.12800001 3.7550001
-7.0273337 -0.11483334 3.7548337
-6.9767499 -0.12925 3.7554998
-6.9433999 -0.1232 3.7520001
-7.0679998 -0.066 3.753
-7.0301251 -0.07175 3.7562499
-6.9698749 -0.071125001 3.7550001
-6.9260001 -0.077 3.7550001
-7.066 -0.035499997 3.7515001
-7.0263338 -0.024833335 3.7538335
-6.9662862 -0.021714289 3.7538574
-6.9196 -0.021200001 3.7544
-7.0640001 0.0080000004 3.75
-7.0191665 0.026499998 3.7528334
-6.9675002 0.02025 3.7535
-6.9233336 0.030000001 3.753
-7.0273337 0.064999998 3.7516665
-6.9169998 0.074000001 3.75
-7.0155997 0.1204 3.7532003
-6.9790001 0.12533334 3.752667
-6.9280005 0.108 3.7506666
-7.0339999 0.155 3.7509999
-6.9154997 0.171 3.75
-6.8909998 0.176 3.753
-7.0219998 0.21675 3.7535
-7 0.228 3.7650001
-6.9200001 0.21924999 3.7532501
-6.8845 0.2245 3.7575002
-6.8864999 0.26700002 3.7515001
-6.9844999 0.34399998 3.7515001
-6.9109998 0.31 3.75
-6.8579998 0.308 3.753
-6.9814997 0.36849999 3.7509999
-6.9775 0.52100003 3.7540002
-6.9039998 0.51599997 3.753
-6.8829999 0.514 3.757
-6.8410001 0.523 3.75
-6.8600001 0.634 3.75
-6.9190001 1.094 3.75
-6.8920002 1.09 3.7509999
-6.4695001 3.6304998 3.7505
-7.8340006 -6.7890005 3.8330002
-7.7732501 -6.783 3.8299999
-7.8553333 -6.7273331 3.8240001
-7.8439999 -6.7312498 3.822
-7.8559999 -6.6880002 3.835
-7.8439999 -6.6623335 3.8123336
-7.8378 -6.6208 3.8264
-7.8364 -6.5690002 3.8256001
-7.8330002 -6.5295 3.8210001
-7.8215995 -6.4878006 3.8222001
-7.8191671 -6.4369998 3.8251667
-7.809 -6.3723335 3.8235002
-7.8036666 -6.3150001 3.8316667
-7.8099999 -6.2610002 3.8410001
-7.7950001 -6.2822499 3.8210001
-7.8010001 -6.21 3.825
-7.7955003 -6.2277508 3.8232501
-7.7870002 -6.1722002 3.8242002
-7.7825007 -6.1248336 3.8195
-7.7748332 -6.0678329 3.8233333
-7.77075 -6.0212498 3.82075
-7.427 -2.9117501 3.8435001
-7.4164004 -2.8708 3.8332002
-7.4082003 -2.8292 3.8360002
-7.4095001 -2.7725 3.8369999
-7.405714 -2.7238572 3.8342862
-7.4060001 -2.6830001 3.8375001
-7.3731666 -2.6686668 3.8284998
-7.3776665 -2.6223333 3.8228335
-7.3792858 -2.5772858 3.8221431
-7.3701429 -2.5228572 3.8214288
-7.3730006 -2.4695001 3.8270001
-7.3703337 -2.4260001 3.8248334
-7.3352499 -2.4289999 3.8309999
-7.3640003 -2.3740001 3.819
-7.3305006 -2.375 3.8260002
-7.3585 -2.3085001 3.8239999
-7.3317499 -2.328125 3.8178751
-7.3639998 -2.2750001 3.8210001
-7.33325 -2.2724998 3.823
-7.3236251 -2.22575 3.8178747
-7.3260007 -2.1752858 3.8125715
-7.3076668 -2.1273334 3.8066669
-7.2820001 -2.1187999 3.8096001
-7.3193336 -2.0799999 3.8059998
-7.2717147 -2.0762861 3.8057144
-7.3115001 -2.0225 3.802
-7.2736001 -2.0342002 3.8036001
-7.2875004 -1.9200001 3.802
-7.2919998 -1.895 3.8010001
-7.2726669 -1.8306668 3.8
-7.2399998 -1.827 3.8
-7.849 -6.8010001 3.8610001
-7.8509998 -6.756 3.8499999
-7.8326006 -6.7730002 3.8738
-7.8410006 -6.722857 3.8750002
-7.7880001 -6.7490001 3.8929999
-7.8646007 -6.6862001 3.8822
-7.8390002 -6.697 3.8940001
-7.8695002 -6.6409998 3.8794999
-7.8379998 -6.6030002 3.8510001
-7.8449998 -6.5630002 3.8629999
-7.8435001 -6.527 3.8640001
-7.8404999 -6.4779997 3.872
-7.823 -6.4175 3.862
-7.8293333 -6.3816671 3.8686666
-7.4689999 -3.217 3.875
-7.4623337 -3.1766667 3.8640001
-7.4603338 -3.1396666 3.8620002
-7.4602499 -3.0762501 3.8617501
-7.4560003 -3.0215001 3.8590002
-7.4530001 -2.96 3.855
-7.4266 -2.9766002 3.8568001
-7.4280005 -2.9400001 3.852
-7.4064999 -2.786 3.855
-7.8379998 -6.7680001 3.9119999
-7.8309994 -6.734333 3.925
-7.7651429 -6.7288575 3.9218571
-7.8404999 -6.6870003 3.9229999
-7.7859998 -6.6999998 3.941
-5.1294999 14.436501 3.9359999
-5.073 14.424334 3.9183335
-7.8319998 -6.7154999 3.9689999
-7.7624998 -6.7030001 3.9660001
-7.8358893 -6.6795559 3.9735558
-7.7705002 -6.6805 3.9780002
-7.8373332 -6.6336665 3.9806669
-5.0819998 14.341 3.993
-5.2165003 14.359501 3.9815001
-5.177 14.371 3.9809999
-5.1210003 14.372499 3.99
-5.0570002 14.35 3.993
-5.177 14.422999 3.9746666
-5.1226668 14.431 3.9713333
-5.0703335 14.416 3.9633331
-7.8276 -6.6739998 4.0251999
-7.776 -6.6554999 4.0194998
-7.8325 -6.6296668 4.0228333
-7.7603335 -6.6463332 4.0363331
-7.836 -6.5900002 4.0310001
-5.1690001 14.349 4.0310001
-5.1219997 14.335 4.0235
-5.079 14.333 4.0339999
-5.2185001 14.3655 4.026
-5.1719999 14.355 4.0050001
-5.1420002 14.351 4.0009999
-7.8210001 -6.6314998 4.0715003
-7.7653332 -6.6193333 4.0653334
-7.8328748 -6.5783753 4.0710001
-7.7620001 -6.5974998 4.0930004
-5.1100001 14.34 4.0809999
-5.0830002 14.344 4.079
-5.2123337 14.361334 4.0763335
-5.1760001 14.368 4.0795002
-5.1346664 14.357333 4.0683336
-5.0570002 14.35 4.0500002
-7.830667 -6.6123333 4.1113338
-7.823 -6.5777144 4.1275716
-7.7637501 -6.5752501 4.1287498
-7.8186674 -6.5716667 4.1723337
-7.7697997 -6.5365996 4.1870003
-7.7245002 -4.8777504 4.1862502
-7.756 -6.5110002 4.2129998
-7.7609997 -6.4920001 4.2399998
-7.7379999 -6.4959998 4.2449999
-7.7160001 -4.8559999 4.2089996
-7.698 -4.7979999 4.2459998
-7.7743335 -6.4768333 4.2751665
-7.6950002 -4.6859999 4.2930002
-6.4889998 4.0079999 4.2915001
-7.7670002 -6.4520001 4.3039999
-7.6812501 -4.7132497 4.3039999
-7.6865001 -4.6805 4.3169999
-6.5074997 3.9955001 4.3315001
-6.4910002 3.9849999 4.3210001
-6.4952497 4.021625 4.3292499
-6.5025001 3.9791667 4.3775001
-6.4980001 3.99 4.3959999
-6.5009999 4.0229998 4.3720002
-6.4948006 4.0253005 4.3734002
-6.4882503 4.066 4.3789997
-5.2389998 14.149 4.3850002
-5.1170001 14.123 4.3940001
-5.2740002 14.166 4.3785
-5.2150002 14.161 4.3850002
-5.1715002 14.157 4.3800001
-5.1300001 14.161 4.3769999
-6.5085721 3.9780002 4.428143
-6.4970002 3.9890001 4.4489999
-6.5033336 4.0240002 4.4390001
-6.4954004 4.0225997 4.4192004
-6.5019999 4.0705004 4.4224997
-6.4938574 4.0632858 4.4241428
-6.5469999 4.1300001 4.4450002
-5.2865 14.087 4.4295001
-5.22475 14.073 4.4334998
-5.1743336 14.076 4.4243331
-5.2779999 14.14 4.4145002
-5.1789999 14.14 4.4050002
-5.2279997 14.158 4.4145002
-5.1560001 14.154 4.4060001
-6.5139999 3.9413333 4.4840002
-6.5091114 3.9752223 4.4761109
-6.50775 4.0194998 4.4809999
-6.4932499 4.0257502 4.4714999
-6.5039997 4.0640001 4.4934998
-6.4920001 4.0695 4.4680004
-6.5009999 4.1009998 4.4850001
