# .PCD v0.7 - Point Cloud Data file format
VERSION 0.7
FIELDS x y z
SIZE 4 4 4
TYPE F F F
COUNT 1 1 1
WIDTH 1565
HEIGHT 1
VIEWPOINT 0 0 0 1 0 0 0
POINTS 1565
DATA ascii
-0.67547071 -2.5238829 -1.5925689
-0.62748843 -2.5283954 -1.5931394
-0.57697225 -2.5316391 -1.5938611
-0.53256249 -2.5363753 -1.596375
-0.47046158 -2.530231 -1.5968465
-0.41677776 -2.5274444 -1.5956665
-0.38100001 -2.533 -1.597
-0.32474998 -2.5266252 -1.596125
-0.27664289 -2.5302143 -1.5955001
-0.22093333 -2.525167 -1.5958666
-0.17564286 -2.5266073 -1.5966429
-0.13121428 -2.5231431 -1.5962857
-0.079535715 -2.5302498 -1.5957502
-0.023120003 -2.5299602 -1.59508
0.024314284 -2.5265145 -1.5945712
0.073806435 -2.5239677 -1.594613
0.12522224 -2.5304217 -1.5942668
0.17397618 -2.526119 -1.5944523
0.22520408 -2.5251017 -1.5932858
0.27726084 -2.5227392 -1.5911957
0.32480845 -2.5252976 -1.5921278
0.37383926 -2.5252678 -1.590607
0.42503077 -2.5222149 -1.5891231
0.47549093 -2.5230365 -1.5874
0.52453578 -2.5238929 -1.5876071
0.5736379 -2.5253446 -1.5857068
0.62580365 -2.5229466 -1.5843928
0.67451674 -2.521033 -1.5826666
0.72447377 -2.5233688 -1.5821759
0.77532065 -2.5249434 -1.5812268
0.82505 -2.526567 -1.5811499
0.87476611 -2.5235956 -1.580936
0.92382145 -2.5260186 -1.5810717
0.97419238 -2.5245774 -1.5811157
1.0245832 -2.5229666 -1.5800333
1.0734792 -2.5254793 -1.5791879
1.1245849 -2.5226038 -1.5803775
1.174592 -2.5241017 -1.5785509
1.221875 -2.5259376 -1.5783961
1.2739809 -2.5282881 -1.5786921
1.3252918 -2.5250416 -1.5768125
1.3728772 -2.5255716 -1.5769182
1.4248267 -2.5265193 -1.5753075
1.4753828 -2.5248079 -1.5723404
1.5245607 -2.5271709 -1.5728048
1.5747874 -2.5259781 -1.5716807
1.6257143 -2.5271664 -1.5730476
1.6756577 -2.5277894 -1.5732895
1.7236319 -2.524658 -1.573079
1.774465 -2.5245347 -1.5723488
1.8256111 -2.5250831 -1.5727221
1.8753903 -2.525439 -1.5730243
1.9239999 -2.5241282 -1.5716153
1.975871 -2.5258386 -1.5729352
2.0234723 -2.5244725 -1.5722777
2.0731425 -2.528286 -1.5711429
2.1208436 -2.5246248 -1.5701562
2.1750293 -2.5280592 -1.5705295
2.2254193 -2.5249677 -1.5710967
2.2736075 -2.5228214 -1.5707499
2.3264596 -2.5277026 -1.5705674
2.3764074 -2.5267775 -1.5686295
2.4258964 -2.5274134 -1.5691377
2.4736922 -2.5241539 -1.5697693
2.5225556 -2.5252962 -1.5701481
2.5755999 -2.5269601 -1.5701998
2.6234231 -2.5271921 -1.5679616
2.6722503 -2.5239997 -1.567625
2.7218094 -2.524857 -1.5679047
2.779 -2.5268824 -1.5718822
2.8256669 -2.527611 -1.5717778
2.8728423 -2.5306315 -1.5703158
2.9231055 -2.5293684 -1.5696843
2.9727225 -2.5275002 -1.5697222
3.0221248 -2.5308747 -1.5675626
3.0715296 -2.529294 -1.5675883
3.1222222 -2.5226111 -1.5638335
3.1720717 -2.5228572 -1.5625714
3.2286253 -2.5288126 -1.5620624
3.2762504 -2.5230837 -1.5584168
3.3247144 -2.5247858 -1.5587143
3.3744442 -2.5226114 -1.5563334
3.4200838 -2.5192502 -1.5556668
3.4768748 -2.5176251 -1.553125
3.5253334 -2.5193334 -1.5513334
-11.588 -2.766 -1.518
-11.5295 -2.7625 -1.5315
-11.373501 -2.767 -1.5325
-11.278 -2.7539999 -1.541
-11.232 -2.7740002 -1.5350001
-11.1165 -2.7655001 -1.5404999
-11.019 -2.7520001 -1.5470001
-11.56 -2.7379999 -1.513
-11.539333 -2.7186668 -1.524
-11.423 -2.7160001 -1.5369999
-11.4 -2.7420001 -1.535
-11.318 -2.701 -1.544
-11.2765 -2.7224998 -1.539
-11.172 -2.7175 -1.546
-11.128 -2.737 -1.541
-4.1240001 -2.7156668 -1.5120001
-12.548 -2.6730001 -1.521
-12.4165 -2.6795001 -1.5285001
-11.5312 -2.6755998 -1.5248002
-11.473 -2.674 -1.5420001
-11.436 -2.687 -1.538
-11.351 -2.6889999 -1.548
-4.1138 -2.6932001 -1.5361999
-4.0664544 -2.6734545 -1.523909
-4.0231366 -2.6659093 -1.522182
-3.9777336 -2.6656003 -1.5188
-3.9175758 -2.671242 -1.5215155
-3.895875 -2.6748753 -1.5361251
-4.0304999 -2.6455002 -1.5469999
-3.9762859 -2.6445713 -1.542143
-3.9218004 -2.6417 -1.5393
-3.8965001 -2.6455002 -1.5465
3.4089999 -2.6329999 -1.548
3.5203333 -2.6316667 -1.5480001
3.5746667 -2.6176667 -1.5490001
3.6323998 -2.6369998 -1.5486001
3.6772499 -2.6271253 -1.5483751
3.7240911 -2.6249094 -1.5472728
3.7720003 -2.622231 -1.5453078
3.8186929 -2.6226153 -1.5446925
3.8764172 -2.6273334 -1.5430835
3.9282002 -2.6238 -1.5424001
3.9760909 -2.6258183 -1.5417274
4.0242724 -2.6295457 -1.5402728
4.0719166 -2.6212502 -1.5388334
4.1243639 -2.6227276 -1.5380911
4.1771002 -2.6263001 -1.5376999
4.2307501 -2.63025 -1.5376251
4.276556 -2.6266665 -1.5345556
4.3241816 -2.6281817 -1.5324546
4.3715715 -2.627286 -1.5308573
4.4238 -2.6266999 -1.5282
4.4732499 -2.634625 -1.5274999
4.5294442 -2.628778 -1.5256667
4.5702 -2.6346002 -1.5224
4.6221437 -2.6295714 -1.5207144
4.6732497 -2.6322498 -1.5202501
4.7258 -2.631 -1.5161999
4.7706671 -2.6316667 -1.5145
4.8282003 -2.6284001 -1.5104001
4.868 -2.6340001 -1.5095
4.9254999 -2.6287498 -1.5095
4.9744 -2.6210001 -1.5136
5.0306664 -2.6220002 -1.5136669
5.0775714 -2.6264286 -1.5127145
5.1284003 -2.6204 -1.512
5.1712503 -2.6257501 -1.512
5.2130003 -2.6240001 -1.51025
5.2747145 -2.6240001 -1.5091431
5.336 -2.6217499 -1.5085
5.3792 -2.6178 -1.5086
5.4246669 -2.6186666 -1.5053334
5.4791999 -2.6212001 -1.505
5.528667 -2.6193335 -1.5063334
5.5738001 -2.6188002 -1.5031999
5.6302004 -2.6211998 -1.5046
5.6717501 -2.6225002 -1.50225
5.7293334 -2.6186669 -1.503
5.777 -2.6283336 -1.503
5.8400002 -2.608 -1.503
5.87925 -2.6282501 -1.5015
5.9330001 -2.625 -1.501
6.1009998 -2.648 -1.502
6.2160001 -2.6459999 -1.501
3.454 -2.582 -1.55
3.5880001 -2.595 -1.548
3.6345 -2.5569999 -1.5495
3.6798005 -2.5762999 -1.5481
3.7253335 -2.5761111 -1.5464445
3.7690003 -2.5748889 -1.5457779
3.8191006 -2.5791998 -1.5434999
3.8743 -2.5809 -1.5423
3.9294999 -2.5755 -1.5375
3.9746003 -2.5764 -1.5358
4.0224442 -2.576333 -1.5343333
4.0806003 -2.5706003 -1.5324
4.1193333 -2.5695 -1.5295
4.1691113 -2.570889 -1.5275555
4.2261434 -2.5718572 -1.5251429
4.2727499 -2.5673749 -1.523
4.3325 -2.571125 -1.521625
4.3766003 -2.5680001 -1.52
4.4212499 -2.5718751 -1.5195
4.4726 -2.5713 -1.5159999
4.5217495 -2.5688751 -1.5139999
4.5742002 -2.572 -1.5125
4.6259999 -2.5703001 -1.5104001
4.6766667 -2.5756669 -1.5085555
4.7257271 -2.568182 -1.5073637
4.7810001 -2.5711429 -1.5058571
4.8267274 -2.5764546 -1.5046366
4.8746004 -2.5639999 -1.5052
4.9277997 -2.5728002 -1.5128001
4.9747005 -2.5706003 -1.5116001
5.0250001 -2.5768001 -1.5120001
5.0740004 -2.5763335 -1.5116667
5.1264 -2.5748 -1.5122
5.1721668 -2.5808334 -1.5120001
5.2244997 -2.5727003 -1.5117
5.276834 -2.5758333 -1.5090001
5.3239999 -2.5816 -1.5096
5.3756671 -2.5718334 -1.5113333
5.4226665 -2.5768332 -1.5095
5.4728332 -2.5771666 -1.5100001
5.525167 -2.5743337 -1.5083334
5.5741668 -2.5775001 -1.5065
5.6279998 -2.5702 -1.508
5.6721997 -2.5786002 -1.5072
5.7220006 -2.5762498 -1.5058749
5.7773337 -2.5760002 -1.5055001
5.8134999 -2.569 -1.50475
5.8796668 -2.5748334 -1.5041666
5.9143333 -2.5673335 -1.503
5.9647498 -2.5704999 -1.5024999
6.0229998 -2.5704999 -1.503
6.073 -2.573 -1.501
6.1240001 -2.595 -1.502
3.4254999 -2.5172501 -1.54825
3.4761429 -2.5187144 -1.5474286
3.5305555 -2.5241113 -1.5473334
3.5736921 -2.5228467 -1.5457692
3.6262004 -2.5208669 -1.544
3.6773846 -2.5193846 -1.5439998
3.7255003 -2.5205717 -1.5415714
3.7747142 -2.5235717 -1.541
3.8218124 -2.5209377 -1.5381249
3.8748231 -2.5262942 -1.5346469
3.9248333 -2.5245001 -1.5340002
3.9692142 -2.5232859 -1.5317857
4.0232148 -2.5266428 -1.5317857
4.0736003 -2.5243335 -1.5287334
4.1322222 -2.5271111 -1.5301112
4.172616 -2.5253079 -1.5287694
4.2220001 -2.5234616 -1.528154
4.2759089 -2.5298181 -1.5257273
4.3763638 -2.5278182 -1.5250908
4.4770002 -2.5287004 -1.5235
4.5745554 -2.528111 -1.5215555
4.6205006 -2.5263333 -1.52
4.77425 -2.5287499 -1.5144167
5.0191255 -2.5292501 -1.5145
5.0716252 -2.5336249 -1.51325
5.1817145 -2.5272858 -1.5150001
5.2328005 -2.5264001 -1.5148
5.2731428 -2.5295715 -1.5122858
5.3761253 -2.5332499 -1.5122502
5.42975 -2.52825 -1.5115
5.6380005 -2.5296667 -1.5086668
5.6775007 -2.5256667 -1.5091666
5.7782497 -2.5295 -1.508
5.9383335 -2.5410001 -1.5056667
6.0170002 -2.5365 -1.5039999
6.0733337 -2.5353334 -1.5059999
-10.664 -2.802 -1.482
-10.624 -2.8106668 -1.4773334
-11.652 -2.7809999 -1.484
-11.616 -2.7620001 -1.479
-10.806 -2.779 -1.4705
-10.758 -2.7869999 -1.494
-10.733667 -2.7873333 -1.4643334
-10.672501 -2.7944999 -1.493
-10.641 -2.796 -1.46
-9.0050001 -2.757 -1.483
-4.1469998 -2.7590001 -1.465
-11.6065 -2.7165 -1.455
-11.581 -2.7256 -1.4818
-9.0300007 -2.747 -1.4614999
-4.1158748 -2.7305 -1.47725
-4.0671248 -2.7106247 -1.46875
-4.0310001 -2.7090001 -1.4616001
-3.9798574 -2.7077146 -1.4588571
-3.9177337 -2.7200999 -1.4720002
-3.8940001 -2.7305 -1.4863334
-4.0555 -2.6925001 -1.487
-4.0246005 -2.6913002 -1.4855
-3.9806428 -2.6885712 -1.4810716
-3.9293482 -2.6883912 -1.4835651
5.7989998 -2.651 -1.498
7.448 -2.6589999 -1.471
7.4689999 -2.652 -1.475
7.6634998 -2.6670001 -1.451
5.7069998 -2.6385 -1.5
5.776 -2.6040001 -1.5
5.8179998 -2.6282499 -1.49975
5.868 -2.608 -1.497
5.9193335 -2.6266668 -1.4976667
5.9718332 -2.6231668 -1.4965
6.0248003 -2.6278 -1.4962
6.0725002 -2.6040001 -1.4979999
6.1198339 -2.6266668 -1.4978333
6.1742501 -2.6285 -1.49675
6.2229996 -2.6146667 -1.4956667
6.2627497 -2.6372499 -1.4942501
6.3070002 -2.6389999 -1.4944999
6.3600001 -2.641 -1.492
7.1329999 -2.6105001 -1.4814999
7.1836672 -2.6359999 -1.4786667
7.2859998 -2.6010001 -1.4809999
7.3409996 -2.6135001 -1.478
7.3745003 -2.618 -1.477
7.4193335 -2.6193335 -1.478
7.4920001 -2.6300001 -1.477
7.5174999 -2.6317501 -1.4745001
7.5790005 -2.6304288 -1.4698573
7.631 -2.6260002 -1.4653333
7.6792002 -2.6262002 -1.4544001
4.75 -2.5869999 -1.5
4.8633337 -2.5930002 -1.4976667
5.836 -2.5880001 -1.4995
5.9370003 -2.596 -1.4990001
6.0096664 -2.5756667 -1.5
6.0640001 -2.5773335 -1.4996667
6.1226668 -2.5683334 -1.4993334
6.1643333 -2.5860002 -1.4973334
6.2059999 -2.5899999 -1.494
6.914 -2.5510001 -1.4910001
6.9660001 -2.563 -1.4875
7.0139999 -2.5739999 -1.484
7.0804996 -2.5910001 -1.484
7.1700001 -2.5599999 -1.485
7.2333331 -2.5683336 -1.4833333
7.2909999 -2.589 -1.4809999
7.313333 -2.5676668 -1.484
7.38375 -2.5700002 -1.483
7.4396667 -2.5823333 -1.4793334
7.4590001 -2.5599999 -1.4809999
7.5267501 -2.576 -1.48
7.5770001 -2.56725 -1.4777499
7.6389999 -2.5774999 -1.4714999
7.6725001 -2.578167 -1.4671667
7.7083335 -2.5753336 -1.4536667
6.073 -2.5415001 -1.4985
6.8660002 -2.5265 -1.493
6.9219999 -2.54 -1.4910001
7.1855001 -2.53 -1.48575
-10.664 -2.802 -1.443
-10.605 -2.806 -1.416
-10.5766 -2.8222001 -1.4250001
-11.712 -2.7739999 -1.427
-11.641 -2.757 -1.439
-10.866 -2.7739999 -1.409
-10.79 -2.7750001 -1.429
-10.728 -2.786 -1.4313334
-10.678 -2.7926669 -1.4186667
-10.645 -2.7969999 -1.402
-4.1570001 -2.7969999 -1.4170001
-4.1234999 -2.7666252 -1.4289999
-4.0865002 -2.7572501 -1.415
-4.0235004 -2.753 -1.402
-3.9890001 -2.7550001 -1.408
-3.9117148 -2.7768929 -1.4228214
-3.898 -2.7525001 -1.4305
-9.0790005 -2.727 -1.425
-9.0405006 -2.724 -1.4200001
-4.0630002 -2.7336249 -1.4298749
-4.0261431 -2.7319524 -1.4262859
-3.9778423 -2.7288423 -1.4255264
-3.9245405 -2.7315135 -1.4280808
7.6896667 -2.6788335 -1.437
7.7308745 -2.6772499 -1.4195
7.763 -2.664 -1.409
7.6896667 -2.6236668 -1.4386667
7.7244287 -2.625 -1.4237143
7.7646003 -2.6222 -1.41
17.349001 -2.622 -1.403
19.5 -2.6010001 -1.401
7.6849999 -2.5769999 -1.45
7.7311244 -2.5779998 -1.4358751
16.361 -2.5745001 -1.4405
16.5835 -2.5799999 -1.4299999
16.84 -2.575 -1.4220001
17.073 -2.5810001 -1.411
17.101999 -2.5539999 -1.413
17.3585 -2.5770001 -1.403
19.509001 -2.5680001 -1.401
15.92 -2.5469999 -1.4299999
15.973 -2.5280001 -1.4349999
16.379501 -2.5195 -1.4414999
16.587 -2.5079999 -1.429
16.612 -2.54 -1.432
16.8325 -2.5289998 -1.421
17.097 -2.523 -1.4119999
17.380001 -2.5184999 -1.404
19.5765 -2.5239999 -1.4054999
15.963 -2.4979999 -1.433
-10.578572 -2.8725715 -1.379143
-10.6045 -2.806 -1.3775001
-10.573001 -2.8230002 -1.3742858
-4.1286006 -2.8092 -1.3674001
-3.9164009 -2.8268335 -1.3759668
-10.785335 -2.7736669 -1.3790001
-10.740001 -2.783 -1.3736666
-10.694 -2.79 -1.378
-10.645 -2.7969999 -1.3724999
-4.1160002 -2.78475 -1.3915001
-4.0715456 -2.7760913 -1.3720001
-4.0297694 -2.7699234 -1.376
-3.9766665 -2.7715557 -1.3693891
-3.9270909 -2.7772121 -1.3773031
-3.9722002 -2.7456002 -1.3928001
-3.9433334 -2.7470002 -1.3893335
7.7470002 -2.704 -1.3940001
7.8251433 -2.7264285 -1.3594286
7.7816672 -2.6785555 -1.3885556
7.8198333 -2.6756668 -1.3648334
7.7842002 -2.6224 -1.3898
7.8201118 -2.6275554 -1.3704444
17.6355 -2.618 -1.3945
17.9445 -2.632 -1.387
18.3165 -2.6215 -1.3824999
18.805 -2.609 -1.385
19.812 -2.6070001 -1.388
21.072001 -2.6210001 -1.364
21.664 -2.6170001 -1.363
22.264 -2.609 -1.3609999
17.629999 -2.5699999 -1.393
17.938 -2.5829999 -1.386
17.98 -2.5580001 -1.3890001
18.320999 -2.5739999 -1.382
18.858999 -2.5829999 -1.3890001
19.811001 -2.572 -1.388
20.177999 -2.5829999 -1.378
20.221001 -2.5510001 -1.38
20.608 -2.5999999 -1.37
20.652 -2.5680001 -1.373
21.087 -2.585 -1.364
21.153999 -2.5550001 -1.369
21.669001 -2.579 -1.363
22.32 -2.575 -1.365
23.563 -2.5725 -1.357
17.649 -2.5420001 -1.3940001
17.658001 -2.5120001 -1.395
17.969999 -2.5250001 -1.387
18.35 -2.546 -1.3839999
18.403999 -2.5209999 -1.388
18.868 -2.55 -1.3890001
18.916 -2.523 -1.392
19.895 -2.5469999 -1.393
19.919001 -2.5139999 -1.395
20.299999 -2.5250001 -1.385
20.674999 -2.5339999 -1.374
20.763 -2.5079999 -1.38
21.169001 -2.52 -1.369
21.712 -2.5450001 -1.3660001
21.761 -2.5109999 -1.369
22.318001 -2.536 -1.364
22.398001 -2.5050001 -1.369
23.573 -2.5109999 -1.357
18.969999 -2.497 -1.396
24.205999 -2.494 -1.351
-10.581429 -2.8820002 -1.3244286
-4.1654997 -2.8610001 -1.3305
-10.6175 -2.8095 -1.3115001
-10.5778 -2.8226001 -1.3284
-4.1214285 -2.8315713 -1.3287143
-4.0681825 -2.8130002 -1.3173636
-4.0245008 -2.8101432 -1.3193573
-3.9720626 -2.8109999 -1.3152499
-3.9246457 -2.8272257 -1.3255482
-4.0667996 -2.7944 -1.3422
-4.0204997 -2.7912502 -1.3373749
-3.9668 -2.7867999 -1.3408999
-3.9300001 -2.7929091 -1.3347273
7.8692865 -2.7685714 -1.3172858
7.9039998 -2.7579999 -1.303
7.8330002 -2.7335 -1.3429999
7.8749084 -2.7255456 -1.3210911
7.9099998 -2.714 -1.301
7.8423338 -2.6756668 -1.3486667
7.8757782 -2.6767778 -1.3275557
7.9190001 -2.668 -1.3122001
24.132 -2.5699999 -1.347
24.860001 -2.5610001 -1.3430001
25.781 -2.5669999 -1.348
26.492001 -2.5910001 -1.3380001
26.589001 -2.5550001 -1.3430001
27.216 -2.5669999 -1.327
24.195999 -2.5350001 -1.35
24.908001 -2.523 -1.346
25.777 -2.5209999 -1.347
26.598 -2.5090001 -1.3430001
27.216 -2.5190001 -1.326
24.983999 -2.4879999 -1.35
25.834999 -2.483 -1.35
-10.587801 -2.9247999 -1.2708
-10.601 -2.885 -1.263
-10.5765 -2.8713331 -1.2825
-4.1545 -2.8915 -1.2665
-4.1271119 -2.8685555 -1.2778889
-4.0780001 -2.859 -1.26
-4.0196667 -2.8546667 -1.2595
-3.9955001 -2.8585 -1.2565
-3.9248574 -2.8737147 -1.2760714
-4.0699 -2.8366001 -1.2809
-4.0299048 -2.8361433 -1.2795237
-3.9769044 -2.8355243 -1.2775714
-3.9340501 -2.8369 -1.2801499
7.8940001 -2.7625 -1.26825
7.9180002 -2.7630002 -1.275
7.8959999 -2.724 -1.3
7.9294 -2.7281001 -1.2780001
7.9720001 -2.7195001 -1.25825
7.9285002 -2.6791668 -1.2900002
27.410999 -2.585 -1.288
30.062 -2.5669999 -1.2539999
27.363001 -2.5320001 -1.285
30.094 -2.516 -1.255
-10.603 -2.9854999 -1.2275
-10.59625 -2.9684999 -1.2265
-9.6123333 -2.9676666 -1.2390001
-9.5722504 -2.977 -1.2229999
-9.5409994 -2.9897499 -1.2155
-10.607 -2.9460001 -1.2460001
-10.589834 -2.9248333 -1.2179999
-4.1789999 -2.9305 -1.2349999
-4.1291666 -2.908 -1.2190001
-4.0760002 -2.901 -1.21
-3.9286661 -2.9239628 -1.2269999
-10.579876 -2.876375 -1.224375
-4.1210003 -2.8895001 -1.2410001
-4.0716672 -2.8759336 -1.2252001
-4.0275192 -2.8743601 -1.2269599
-3.9749 -2.8745503 -1.21975
-3.9367311 -2.8755383 -1.231154
-3.9590001 -2.848 -1.243
7.928143 -2.7708573 -1.2321429
7.9572501 -2.7722502 -1.2175
7.9347496 -2.7335 -1.22025
7.9594293 -2.728143 -1.2240002
27.441999 -2.6359999 -1.2410001
27.417999 -2.586 -1.24
27.403999 -2.536 -1.239
-17.674667 -3.0770001 -1.1726668
-10.622 -3.0106666 -1.1719999
-9.4580002 -3.0050001 -1.1756667
-9.4251671 -3.0215001 -1.1725
-10.602 -2.9849999 -1.189
-10.594334 -2.969667 -1.1743333
-9.5603333 -2.9763334 -1.1803334
-9.5334997 -2.9920001 -1.175
-9.4960003 -2.9983335 -1.1796666
-4.1645002 -2.9580002 -1.1755
-4.1360002 -2.954 -1.155
-3.931087 -2.972261 -1.1734782
-10.591 -2.9320002 -1.17625
-4.1610003 -2.9454999 -1.1914999
-4.1242003 -2.9304001 -1.1778001
-4.0756874 -2.9152498 -1.1739374
-4.0275793 -2.9176316 -1.1696317
-3.9687495 -2.9144375 -1.1708125
-3.934643 -2.9255002 -1.1771073
-4.06775 -2.8944998 -1.194
-4.0240002 -2.8973999 -1.1888001
-3.9792857 -2.8964286 -1.1894287
-3.9365001 -2.8922501 -1.1972499
7.9910002 -2.8039999 -1.197
7.9824004 -2.7661998 -1.1884
8.0159998 -2.78475 -1.1735001
27.423 -2.681 -1.193
27.421 -2.6340001 -1.192
30.048 -2.6199999 -1.2
27.406 -2.5840001 -1.191
30.051001 -2.566 -1.2
-17.649 -3.0940001 -1.15
-10.6195 -3.0105 -1.1235
-9.4573345 -3.0043335 -1.1230001
-9.4282494 -3.01825 -1.12025
-9.3673344 -3.0236669 -1.1313334
-9.3259993 -3.0350001 -1.127
-9.2980003 -3.0439999 -1.107
-10.601334 -2.9716668 -1.1363333
-10.588 -2.9750001 -1.1223333
-9.5189991 -2.9784999 -1.1372499
-9.4867496 -2.9907498 -1.12125
-4.1717501 -2.99125 -1.13375
-4.1279998 -2.9688334 -1.1231667
-4.0789003 -2.9602001 -1.1141
-4.0284996 -2.9607501 -1.1118333
-3.9714444 -2.9605558 -1.1086667
-3.9361999 -2.9744399 -1.1254801
-4.1079998 -2.9449999 -1.14
-4.0720835 -2.9393334 -1.1368332
-4.0265002 -2.9394999 -1.1390834
-3.9747221 -2.9379447 -1.1343889
-3.9404998 -2.9437504 -1.134625
27.403999 -2.7279999 -1.1440001
27.438999 -2.6830001 -1.145
30.032 -2.6719999 -1.147
27.409 -2.6329999 -1.1440001
30.028 -2.618 -1.147
-9.2738008 -3.0754001 -1.0814
-9.2455006 -3.089 -1.0515001
-9.4534998 -3.0035 -1.079
-9.4289999 -3.0076671 -1.0676668
-9.3746662 -3.0233335 -1.08
-9.3150005 -3.0313334 -1.0740001
-9.2757502 -3.04125 -1.0704999
-4.1652498 -3.0225 -1.08525
-4.1347141 -3.0214288 -1.0654286
-4.0756664 -3.0056667 -1.0586667
-4.0240002 -3.0037498 -1.05425
-3.9545 -3.0170002 -1.0575
-3.9427202 -3.0261998 -1.0769601
-9.4726667 -2.9853334 -1.0833334
-4.1047497 -2.9842498 -1.0862499
-4.070375 -2.9814997 -1.0816875
-4.0275292 -2.9831178 -1.0799412
-3.9731114 -2.9832594 -1.0766667
-3.9408751 -2.9888749 -1.081
30.007999 -2.723 -1.094
30.031 -2.6719999 -1.095
-14.1755 -3.1645 -1.0335
-14.244 -3.141 -1.038
-14.137 -3.1429999 -1.005
-9.2313337 -3.1173332 -1.0223334
-9.2218342 -3.0721669 -1.0285001
-8.935667 -3.0923333 -1.0090001
-4.16325 -3.0655 -1.0225
-4.1413336 -3.0580001 -1.0173334
-3.9544444 -3.0714445 -1.0246667
-3.9453332 -3.0783887 -1.0218334
-9.4140005 -3.0093334 -1.0313334
-9.3796673 -3.0163333 -1.0280001
-9.3354006 -3.0272 -1.0276
-9.2797995 -3.0380001 -1.0190001
-9.2306671 -3.0456667 -1.0256666
-4.1198001 -3.0358 -1.0292001
-4.0769997 -3.0268002 -1.0252
-4.0293503 -3.0241001 -1.02525
-3.9716072 -3.0236428 -1.0246786
-3.9435384 -3.034462 -1.0333847
-3.9716668 -2.9970002 -1.0463334
30.039 -2.779 -1.043
30.040001 -2.7260001 -1.0420001
30.006001 -2.6700001 -1.041
-14.1195 -3.1782501 -0.96599996
-9.2115002 -3.1405001 -0.98950005
-9.1852007 -3.1244001 -0.97459996
-9.0030003 -3.1040001 -0.99299997
-8.9029999 -3.105 -1
-8.8769999 -3.105 -0.98099995
-8.8470001 -3.1029999 -0.96200001
-4.1644998 -3.109 -0.96224999
-9.21175 -3.0647497 -0.99175006
-9.1774282 -3.0778573 -0.97100008
-8.9685001 -3.092 -0.96449995
-8.925333 -3.094667 -0.96900004
-8.8900003 -3.0999999 -0.96600002
-4.1554999 -3.0855 -0.98399997
-4.1261249 -3.077625 -0.9763751
-4.0752501 -3.0673122 -0.97068757
-4.0240769 -3.0625386 -0.96846157
-3.9710374 -3.0699258 -0.97203708
-3.9447503 -3.0787501 -0.97575009
-9.2317505 -3.0445001 -0.97599995
-4.0776 -3.0463998 -0.99440002
-4.0238748 -3.0431249 -0.98975003
-3.9798572 -3.0441427 -0.98785722
-3.9389999 -3.0380001 -0.995
30.035 -2.7780001 -0.99000001
30.049999 -2.727 -0.99000001
-14.1285 -3.23225 -0.917
-14.136 -3.1949999 -0.92900002
-9.1549997 -3.1029999 -0.94099998
-9.1020002 -3.1029999 -0.93599999
-8.8929996 -3.102 -0.949
-8.8459997 -3.102 -0.94499999
-8.783 -3.1059999 -0.91850001
-4.1656003 -3.1240001 -0.93800002
-4.1234999 -3.1164999 -0.91400003
-4.0769 -3.1125998 -0.91139996
-4.0139999 -3.1079998 -0.91125
-3.9641604 -3.1219201 -0.92215991
-3.9484999 -3.1285 -0.926
-9.0279999 -3.0896668 -0.92833328
-8.9693336 -3.0873334 -0.917
-8.9223328 -3.0883336 -0.92400002
-8.8740005 -3.0949998 -0.92250001
-8.8334999 -3.0974998 -0.91900003
-8.7659998 -3.092 -0.921
-4.1155 -3.0949998 -0.94200003
-4.0748467 -3.0899231 -0.93476939
-4.0247498 -3.0883126 -0.93049991
-3.9760668 -3.0889997 -0.93613344
-3.9400001 -3.0880001 -0.9425
30.070999 -2.8340001 -0.93800002
30.066 -2.7809999 -0.93800002
-14.157499 -3.2650001 -0.86800003
-14.1315 -3.2325001 -0.87900001
-8.8079996 -3.158 -0.861
-8.7980003 -3.154 -0.87599999
-4.0904999 -3.1545 -0.86150002
-4.0310001 -3.1535001 -0.85800004
-3.9647 -3.1745665 -0.87426674
-8.8109999 -3.1246667 -0.86000001
-8.7895002 -3.117167 -0.88283336
-4.152 -3.145 -0.86400002
-4.1191001 -3.1324003 -0.87589991
-4.07125 -3.1320624 -0.87556255
-4.0240474 -3.1300001 -0.87628567
-3.9755912 -3.1359997 -0.88063639
-3.9495001 -3.1125 -0.89250004
30.038 -2.8840001 -0.88499999
30.035 -2.8310001 -0.88499999
30.017 -2.776 -0.884
-8.8559999 -3.2189999 -0.801
-8.8425007 -3.2049999 -0.82449996
-4.1350002 -3.201 -0.80199999
-3.966083 -3.2249169 -0.82766664
-8.8288574 -3.1701427 -0.82771432
-4.1760001 -3.187 -0.83399999
-4.1193123 -3.1708124 -0.82462502
-4.075047 -3.1711905 -0.82442868
-4.0222917 -3.170042 -0.82387495
-3.9747145 -3.1786072 -0.82721442
-4.1157999 -3.1428001 -0.84040004
-4.0284996 -3.1465001 -0.84799999
30.025999 -2.8829999 -0.83200002
30.017 -2.829 -0.83099997
-8.9589996 -3.2650001 -0.75999999
-8.9049997 -3.263 -0.78899997
-8.8827152 -3.2198572 -0.76985723
-4.1216669 -3.2137332 -0.77080005
-4.0736427 -3.2148569 -0.76485717
-4.027143 -3.2147856 -0.76671427
-3.9765155 -3.2257097 -0.77358061
-8.8479996 -3.1719999 -0.79900002
-4.1262002 -3.1884 -0.78759992
-4.0738335 -3.1936669 -0.79100001
-4.0253749 -3.1926248 -0.79037499
-3.9827144 -3.1935713 -0.79185712
-3.947 -3.1889999 -0.796
30.042999 -2.9360001 -0.77999997
30.017 -2.882 -0.77899998
-4.1233335 -3.261889 -0.71111113
-4.0735002 -3.257 -0.70975
-4.023818 -3.2609999 -0.7092728
-3.9801669 -3.2743337 -0.72408336
-4.1288824 -3.2325883 -0.73147058
-4.0764666 -3.2363334 -0.7324667
-4.025938 -3.2380626 -0.73268747
-3.9805553 -3.2417774 -0.73666662
30.069 -2.9909999 -0.72799999
30.045 -2.9360001 -0.727
-7.472857 -3.3528574 -0.67699999
-7.4252501 -3.35725 -0.68125004
-7.3782864 -3.3631432 -0.67014289
-7.5115714 -3.3387144 -0.67328578
-7.4819999 -3.348 -0.653
-4.1479998 -3.306 -0.65399998
-4.0316668 -3.3046665 -0.65466666
-3.9847085 -3.3229585 -0.67574996
-4.128273 -3.2761364 -0.67509091
-4.0743637 -3.2806821 -0.67418188
-4.0264001 -3.2793 -0.67944998
-3.9901671 -3.2859168 -0.68208337
-4.1279998 -3.2420001 -0.69300002
-4.079 -3.25 -0.68900001
30.087999 -3.0450001 -0.676
30.054001 -2.99 -0.67500001
30.063999 -2.938 -0.67500001
-10.9045 -3.4355001 -0.62199998
-10.885 -3.4400001 -0.611
-10.834 -3.444 -0.60900003
-10.891 -3.4000001 -0.611
-7.4710002 -3.3536668 -0.62333333
-7.4186249 -3.3582501 -0.62724996
-7.3668575 -3.3644285 -0.62057149
-7.3164001 -3.3784006 -0.62919992
-3.9904544 -3.3756812 -0.62577266
-7.5135002 -3.3470001 -0.61949998
-7.4900007 -3.333333 -0.62916666
-7.447 -3.348 -0.60699999
-4.1573334 -3.3246667 -0.60633337
-4.1235504 -3.3143003 -0.62515002
-4.0775261 -3.3186843 -0.62168425
-4.021955 -3.318727 -0.62604547
-3.9892635 -3.3313682 -0.62815785
-4.1560001 -3.3 -0.64499998
-4.1246672 -3.2885003 -0.63633335
-4.0685 -3.2995 -0.6455
-4.0323334 -3.2936666 -0.64166671
30.041 -3.04 -0.62199998
30.049 -2.9890001 -0.62199998
-10.872 -3.415 -0.58999997
-10.828001 -3.4146669 -0.57499999
-7.3082867 -3.4248571 -0.57000005
-7.2976675 -3.4196668 -0.58566666
-10.912 -3.3859999 -0.57200003
-10.893001 -3.3863335 -0.57099998
-7.527 -3.3529999 -0.56999999
-7.46525 -3.3525 -0.57999998
-7.4177995 -3.3565998 -0.57720006
-7.3792496 -3.3599999 -0.57475001
-7.3202858 -3.375643 -0.57742864
-7.2950001 -3.388 -0.56999999
-4.1586666 -3.3646667 -0.56533337
-4.1264 -3.3612001 -0.56129998
-4.0743003 -3.3603001 -0.56270003
-4.0167503 -3.3694501 -0.56765002
-3.9933081 -3.379231 -0.58461541
-7.5099998 -3.3388002 -0.57680005
-7.4819999 -3.3355999 -0.56919998
-7.4450002 -3.3469999 -0.56400001
-4.1619997 -3.3455 -0.583
-4.1276875 -3.336 -0.58362502
-4.0769167 -3.3429172 -0.58641672
-4.0250835 -3.3435836 -0.58491671
-4 -3.349 -0.597
30.069 -3.0940001 -0.56999999
30.063 -3.0420001 -0.56999999
-7.3150916 -3.4761817 -0.52245456
-7.2989998 -3.4519999 -0.54400003
-7.3057775 -3.4234445 -0.52333337
-7.2966666 -3.4193332 -0.51966667
-4.158 -3.4089999 -0.50699997
-4.1333332 -3.4046669 -0.50633335
-4.0708003 -3.4068 -0.50680006
-4.0139003 -3.4174497 -0.51800001
-3.9942667 -3.4286668 -0.52660006
-7.377667 -3.3581111 -0.52266675
-7.3222866 -3.3767142 -0.52214283
-7.2969999 -3.388 -0.542
-4.1584291 -3.3831432 -0.53142858
-4.1274705 -3.3831179 -0.5257647
-4.0737648 -3.3847649 -0.52782351
-4.0245562 -3.3832779 -0.5343889
-4.1389999 -3.345 -0.54400003
30.056 -3.1459999 -0.51700002
30.066 -3.0940001 -0.51700002
30.066 -3.0420001 -0.51700002
-7.3109999 -3.4728751 -0.47287497
-7.296 -3.4660001 -0.48800001
-4.0640001 -3.451 -0.45100001
-4.0111108 -3.4759443 -0.47122225
-3.9913998 -3.4774003 -0.48120004
-7.3094292 -3.423286 -0.47342861
-7.2945004 -3.4264998 -0.4725
-4.1638336 -3.4219167 -0.47341669
-4.1236506 -3.4249001 -0.47454998
-4.0726819 -3.4265907 -0.47345456
-4.0225706 -3.4321434 -0.4782857
-3.99475 -3.43525 -0.48300001
-4.1225004 -3.3975 -0.49400002
-4.0710001 -3.3970001 -0.495
30.063 -3.198 -0.46399999
30.048 -3.145 -0.46399999
30.052999 -3.092 -0.46399999
-7.3228331 -3.5255001 -0.42700002
-4.0086665 -3.525238 -0.42266664
-7.3097506 -3.4724166 -0.42500004
-4.1672506 -3.4637504 -0.42058334
-4.1262503 -3.4649503 -0.42134997
-4.070353 -3.4650002 -0.42305884
-4.023963 -3.475889 -0.42570373
-3.9948003 -3.4778001 -0.43700001
-4.1598334 -3.4371662 -0.43783331
-4.1149998 -3.4460001 -0.44499999
-4.0904999 -3.444 -0.44299999
-4.027 -3.4445 -0.44800001
30.097 -3.2019999 -0.412
30.049 -3.145 -0.41100001
-7.3190002 -3.5236669 -0.37711111
-4.1577501 -3.507 -0.35825002
-4.1147499 -3.5047498 -0.36050001
-4.0710831 -3.5124166 -0.36166668
-4.0189028 -3.5213547 -0.37667742
-7.3098755 -3.4744999 -0.3775
-4.1716924 -3.4880769 -0.37730768
-4.124929 -3.4870715 -0.3814286
-4.0768828 -3.4891174 -0.38394117
-4.0369997 -3.4943333 -0.39266667
30.065001 -3.2509999 -0.359
30.106001 -3.2019999 -0.359
-6.1634998 -3.6070001 -0.32499999
-6.1282725 -3.6092727 -0.32318184
-6.1668 -3.5910001 -0.31599998
-6.1490002 -3.5910001 -0.33000001
-4.1865001 -3.5560002 -0.30649999
-4.0734997 -3.553 -0.31099999
-4.0209661 -3.5699308 -0.32206899
-7.3205009 -3.5245004 -0.32750002
-4.1650772 -3.5247693 -0.32753846
-4.1254706 -3.5293531 -0.32647055
-4.0797219 -3.5328891 -0.3266111
-4.0313334 -3.5352004 -0.33733332
-4.1620002 -3.4979999 -0.34599999
30.052 -3.3039999 -0.30599999
30.035 -3.2479999 -0.30599999
30.086 -3.2 -0.30599999
-6.1684999 -3.6034999 -0.27499998
-6.1280913 -3.6067274 -0.27554545
-6.074584 -3.6157501 -0.27116665
-6.0215836 -3.6270835 -0.27074999
-5.9864998 -3.6381252 -0.28500003
-4.0216799 -3.6253996 -0.27500001
-7.3485003 -3.5539999 -0.26499999
-6.2140002 -3.5872002 -0.2678
-6.1774001 -3.5883999 -0.27510002
-4.1691999 -3.5661333 -0.27253333
-4.120091 -3.5675457 -0.27345455
-4.0750003 -3.573 -0.27472726
-4.0369473 -3.5835788 -0.28194734
-4.1635003 -3.5400002 -0.28825003
-4.1335001 -3.5425 -0.2985
30.059999 -3.3050001 -0.25400001
30.055 -3.25 -0.25299999
-7.5155001 -3.6585 -0.24250001
-7.4640002 -3.6633334 -0.23633334
-7.4197502 -3.6762497 -0.22574998
-7.4000001 -3.691 -0.211
-6.0585003 -3.6675 -0.205
-6.0380001 -3.6772726 -0.22463639
-7.5009999 -3.6440001 -0.227
-7.4736671 -3.6410003 -0.21700001
-7.4154997 -3.642 -0.2105
-6.1750002 -3.6023335 -0.23166667
-6.1222224 -3.6063335 -0.22477777
-6.0776 -3.6142004 -0.22430001
-6.0330839 -3.628417 -0.22500001
-4.1714449 -3.6099999 -0.21644445
-4.1271539 -3.6091542 -0.21799999
-4.0753336 -3.6169341 -0.21613336
-4.0311852 -3.6247785 -0.22800003
-6.2227998 -3.5801003 -0.22900002
-6.1792498 -3.5899997 -0.2255
-6.1410003 -3.5966663 -0.21433334
-4.16925 -3.586 -0.23599999
-4.1183338 -3.5923336 -0.23833333
-4.0755 -3.5943334 -0.24150001
-4.0349998 -3.5939999 -0.245
30.048 -3.355 -0.20100001
30.054001 -3.3039999 -0.20100001
-7.4197702 -3.7264619 -0.17515385
-6.1094999 -3.7132499 -0.16
-7.4097781 -3.6757779 -0.17577778
-7.3979998 -3.674 -0.19599999
-6.1075001 -3.6754999 -0.15650001
-6.0748749 -3.6705 -0.1805
-4.1164999 -3.6574998 -0.16325
-4.0695715 -3.6607144 -0.16142857
-4.0298333 -3.6709998 -0.1741111
-7.4549999 -3.6215 -0.19
-7.4117007 -3.6243 -0.17309999
-7.3982496 -3.6294999 -0.17099999
-6.152 -3.608 -0.18099999
-6.1251245 -3.61025 -0.173125
-6.0791879 -3.6205626 -0.1770625
-4.1723003 -3.6294 -0.17839998
-4.1289287 -3.6342859 -0.17878573
-4.0789371 -3.63675 -0.1838125
-4.0371666 -3.6430001 -0.18800001
-7.4202003 -3.7250001 -0.12520002
-6.151 -3.7090001 -0.12
-6.1323333 -3.7148337 -0.1305
-5.3738003 -3.7374001 -0.131
-5.3347502 -3.7446249 -0.126
-4.1110001 -3.7014999 -0.1015
-4.0780001 -3.7030001 -0.101
-4.0331364 -3.7249999 -0.12154545
-7.417429 -3.6761429 -0.12457144
-7.3959999 -3.6570001 -0.139
-6.1549997 -3.6895001 -0.108
-6.1256661 -3.6726668 -0.12922221
-4.1749501 -3.6713002 -0.12230001
-4.1257081 -3.6756253 -0.12616669
-4.0721669 -3.68225 -0.12720832
-4.0370002 -3.6907501 -0.13291667
-6.0960002 -3.6470001 -0.14399999
-4.1603336 -3.6400001 -0.14633334
30.037001 -3.4070001 -0.148
30.038 -3.3540001 -0.148
-7.46 -3.7850001 -0.068000004
-7.4368753 -3.7695003 -0.082000002
-5.3202305 -3.7570772 -0.080000006
-5.272934 -3.7634668 -0.07433334
-5.2274375 -3.7738125 -0.073187508
-5.1744757 -3.7865233 -0.074571423
-5.1326003 -3.7948003 -0.064199999
-4.0391879 -3.7710621 -0.071874999
-7.4288888 -3.7265553 -0.073666669
-6.1799998 -3.7070003 -0.078666672
-5.3559999 -3.747 -0.097999997
-5.3285999 -3.7366002 -0.074600004
-4.1739411 -3.7148824 -0.067705885
-4.1247649 -3.7180588 -0.072294123
-4.0746522 -3.7243047 -0.072000004
-4.0395455 -3.7335455 -0.079181813
-6.1770835 -3.676167 -0.074416667
-4.1801429 -3.6877143 -0.087000005
-4.1430001 -3.697 -0.092
30.055 -3.4630001 -0.094999999
30.047001 -3.4089999 -0.094999999
30.033001 -3.3529999 -0.094999999
-5.1114001 -3.8064001 -0.0288
-5.0724998 -3.8191249 -0.021687502
-5.0495 -3.836 -0.0060000001
-7.4559999 -3.7509999 -0.039000001
-5.2749166 -3.7594171 -0.023666669
-5.2256155 -3.768923 -0.024769232
-5.1792145 -3.7802856 -0.023500001
-5.1304998 -3.78825 -0.020583332
-5.0900002 -3.7975001 -0.028999999
-4.1783333 -3.7555003 -0.011666666
-4.1260004 -3.7616668 -0.012499999
-4.0745387 -3.7650001 -0.020076925
-4.04179 -3.7773154 -0.025421049
-5.309 -3.7484999 -0.041000001
-5.2860003 -3.7395 -0.023499999
-4.2055001 -3.7335 -0.035
-4.1775999 -3.7398005 -0.030666666
-4.1236672 -3.7424448 -0.035333335
-4.0855999 -3.7444 -0.040200002
-4.046 -3.7390001 -0.044
30.052999 -3.4630001 -0.043000001
30.013 -3.405 -0.043000001
-5.0694547 -3.8080909 0.023
-5.0295253 -3.8254213 0.028631577
-4.9946671 -3.8200002 0.044333335
-4.1645002 -3.8025 0.044
-4.1214004 -3.8040001 0.0414
-4.0766006 -3.8158002 0.037400004
-4.0433531 -3.825294 0.024823533
-5.2620001 -3.7596669 0.0086666672
-5.2259288 -3.7670717 0.025428571
-5.1735268 -3.7760527 0.025842104
-5.1245623 -3.7861876 0.028375
-5.0840001 -3.7936668 0.029444443
-5.046 -3.799 0.037999999
-4.2093334 -3.779 0.024
-4.176158 -3.7801573 0.022947369
-4.1275716 -3.7837145 0.017571431
-4.0770006 -3.7904 0.017199999
-4.0404 -3.7928002 0.012000001
-5.2519999 -3.743 0.016000001
30.101999 -3.523 0.0099999998
30.058001 -3.4630001 0.0099999998
-5.0050001 -3.878 0.059999999
-4.9828887 -3.8691111 0.07766667
-4.0580997 -3.8768997 0.077500008
-4.0456252 -3.8713751 0.067625001
-5.066 -3.8096666 0.063666672
-5.0245833 -3.8131666 0.076583341
-4.9822865 -3.8275714 0.079428576
-4.2069998 -3.8210001 0.074000001
-4.1779413 -3.8205297 0.075470589
-4.1241817 -3.8234549 0.071999997
-4.0758238 -3.8332937 0.07364706
-4.0442858 -3.8309999 0.064000003
-5.1258335 -3.7840002 0.073749997
-5.0795383 -3.7914617 0.078615382
-5.0383334 -3.7980001 0.073666662
-4.1833334 -3.7933335 0.063166671
30.024 -3.5669999 0.063000001
30.046 -3.516 0.063000001
-27.785999 -4.0289998 0.108
-4.9686251 -3.921875 0.117625
-4.9439998 -3.92875 0.14475
-4.0500002 -3.9184999 0.13699999
-4.9646673 -3.8800001 0.10666667
-4.9333634 -3.8710907 0.13354547
-4.2049999 -3.8634999 0.13625
-4.1771002 -3.8641 0.13020001
-4.1226249 -3.8655005 0.12924999
-4.0693917 -3.8745658 0.1222174
-4.0465002 -3.881 0.11399999
-5.0605001 -3.81025 0.12050001
-5.020556 -3.8077779 0.12133334
-4.9776821 -3.8204548 0.12527274
-4.9375458 -3.8336368 0.12618184
-4.2040005 -3.8456669 0.11700001
-4.1767497 -3.8423753 0.1105
-4.1242003 -3.8442001 0.1046
-4.0830002 -3.848 0.102
30.030001 -3.622 0.116
30.040001 -3.569 0.116
30.037001 -3.5150001 0.116
-4.9293332 -3.9681664 0.17716667
-4.9165001 -3.9280002 0.1744
-4.21 -3.9059999 0.184
-4.1762004 -3.9096 0.19160001
-4.1225557 -3.911778 0.18455556
-4.0667629 -3.9223812 0.1748095
-4.0485001 -3.9029999 0.161
-4.9067497 -3.8747499 0.16225
-4.8843746 -3.8710001 0.183625
-4.210125 -3.89025 0.17399999
-4.1760006 -3.8836429 0.16592857
-4.124917 -3.8895833 0.16316667
-4.0774288 -3.8940001 0.15714286
30.042 -3.6229999 0.169
30.049999 -3.5699999 0.169
-4.895 -4.0019999 0.236
-4.9073334 -3.9689999 0.20600002
-4.8825006 -3.9707501 0.22775
-4.1193333 -3.9580002 0.243
-4.0659132 -3.9744346 0.22373913
-4.0263333 -3.9951665 0.2265833
-3.9960001 -3.99 0.23
-3.3711998 -3.9916997 0.2304
-3.3241432 -3.9958575 0.23157144
-4.8720765 -3.9237695 0.2223077
-4.2104616 -3.9199233 0.22476923
-4.1736112 -3.9281671 0.22388887
-4.1269417 -3.9319408 0.21982354
-4.0771432 -3.9349284 0.213
-4.8638568 -3.8808575 0.21814287
30.035 -3.6760001 0.221
30.038 -3.6229999 0.221
-4.0539999 -4.006 0.26199999
-4.0284996 -4.0091667 0.26591671
-3.9877894 -4.0209999 0.27468419
-3.46 -4.0029998 0.29899999
-3.4243336 -4.0058336 0.27783334
-3.3659232 -4.0045385 0.27384615
-3.3290005 -4.0060768 0.27623075
-3.2775002 -4.0062003 0.26900002
-3.2227144 -4.00981 0.27333334
-3.1803534 -4.019412 0.26776469
-4.8610001 -3.9815001 0.25600001
-4.8378181 -3.9720912 0.27909091
-4.2117 -3.9626999 0.2802
-4.1724 -3.969867 0.28126666
-4.1255555 -3.9733336 0.27477777
-4.0752168 -3.9805653 0.26995653
-4.0362225 -3.9942219 0.27566662
-3.9927502 -3.9967501 0.27724999
-3.418 -3.9920998 0.28049999
-3.3808236 -3.9941177 0.27329412
-3.3211429 -3.9965718 0.26900002
-3.2754169 -3.9965837 0.278
-3.2287145 -3.9965713 0.28528571
-3.1850002 -3.9969997 0.26200002
-4.8221426 -3.9227147 0.27585715
-4.2114997 -3.9417498 0.26825002
-4.1737499 -3.9475 0.25674999
-4.1110001 -3.95 0.25299999
30.058001 -3.7320001 0.27399999
30.011999 -3.6730001 0.27399999
30.048 -3.6240001 0.27399999
-3.2539999 -4.0620003 0.34450001
-4.8169999 -4.0019999 0.31550002
-4.0265002 -4.008667 0.32100001
-3.9863162 -4.0212626 0.32363158
-3.5050001 -4.0120001 0.338
-3.4750001 -4.0053334 0.3276667
-3.4217143 -4.0044284 0.32428572
-3.3688333 -4.0045004 0.31850001
-3.3208001 -4.0051999 0.31940001
-3.2721334 -4.0071998 0.32133335
-3.2303183 -4.0182729 0.31886369
-1.7166667 -4.0430002 0.31500003
-1.6719999 -4.048667 0.34200001
-4.8110003 -3.9756668 0.31233335
-4.7877498 -3.97225 0.33362499
-4.2198749 -3.9651246 0.32337499
-4.1790385 -3.97527 0.32653847
-4.1266117 -3.9861112 0.32194445
-4.0750499 -3.98895 0.32309997
-4.0257335 -3.9925337 0.3204667
-3.9856668 -3.9979999 0.33899999
-3.4650912 -3.9903636 0.3338182
-3.4241333 -3.9957333 0.32679999
-3.3733571 -3.994 0.32157144
-3.327286 -3.9937861 0.33278573
-3.2772002 -3.9973338 0.32406667
-3.2346666 -3.9923334 0.33200002
30.052 -3.7309999 0.32699999
30.052999 -3.678 0.32699999
-3.9921763 -4.0764112 0.37223533
-3.2758002 -4.0729332 0.37766665
-1.6687781 -4.0616107 0.3703889
-1.6280257 -4.0678725 0.37405127
-1.5763572 -4.074357 0.37552384
-1.5260423 -4.079936 0.37527663
-1.4361112 -4.0859447 0.38300002
-4.776 -4.0025001 0.36250001
-4.7470002 -4.007 0.39399999
-4.1500001 -4.0019999 0.37599999
-4.072 -4.0089998 0.39300001
-4.0155001 -4.0058336 0.36933336
-3.9871252 -4.024375 0.37318754
-3.514667 -4.0039997 0.37866664
-3.4740005 -4.0050001 0.38033336
-3.4384999 -4.006 0.3725
-3.3804002 -4.0032001 0.3712
-3.3283336 -4.003222 0.37811109
-3.2796817 -4.0205908 0.37363639
-3.247 -4.0159998 0.35499999
-1.6682501 -4.046 0.37024999
-1.638 -4.0469999 0.377
-4.1278334 -3.9858334 0.37377778
-4.0726004 -3.9866002 0.37175006
-4.0265713 -3.9936428 0.37707147
-3.516875 -3.9899998 0.3845
-3.4743328 -3.9915001 0.36983335
-3.4251907 -3.9918094 0.37561908
-3.3756368 -3.9906368 0.37559089
-3.3270001 -3.9935718 0.37228572
-3.2834289 -3.9932857 0.37085718
30.049999 -3.7850001 0.38
30.084999 -3.7349999 0.38
-4.0048332 -4.1286674 0.42200002
-3.995909 -4.1251817 0.42563638
-3.352 -4.1335001 0.44499999
-3.3369999 -4.1240001 0.4296667
-1.472 -4.1035004 0.42199999
-0.91569239 -4.109231 0.41961539
-0.87127578 -4.110414 0.42051724
-0.20716667 -4.1199999 0.44283336
-3.9921429 -4.0748572 0.42050007
-3.3186152 -4.0726924 0.42607692
-3.2980001 -4.0806665 0.4066667
-1.6221036 -4.0640001 0.42024139
-1.5776668 -4.0724225 0.42548889
-1.5248888 -4.0747504 0.42419446
-1.4762503 -4.0804 0.42580006
-1.4273845 -4.0858459 0.42594877
-1.3895999 -4.0874 0.43620002
-0.91735297 -4.0935292 0.42735294
-0.88087487 -4.0943127 0.42987502
-0.83399999 -4.0939999 0.412
-0.15700001 -4.099 0.433
-3.9877367 -4.027 0.42494735
-3.3283331 -4.0194764 0.42661899
-3.2943332 -4.0190001 0.403
-1.619 -4.0450001 0.41433331
29.99 -3.8299999 0.43200001
30.021 -3.7809999 0.43200001
-4.0072145 -4.1725712 0.4777143
-1.3413334 -4.1653337 0.49533337
-4.0025001 -4.1314998 0.47075
-3.9942498 -4.1174998 0.47837496
-3.3754544 -4.1287274 0.47590911
-1.414 -4.1030002 0.45100001
-1.367 -4.1113639 0.472
-1.3404001 -4.1209998 0.48799998
-0.91663641 -4.1046367 0.4810909
-0.87447369 -4.1088424 0.47221053
-0.82277274 -4.1143408 0.47204551
-0.77388638 -4.1224546 0.47402281
-0.72992116 -4.120605 0.4727104
-0.25433332 -4.1323333 0.48333332
-0.22042501 -4.1236753 0.47727498
-0.17268179 -4.1227951 0.47434101
-0.12615791 -4.1231842 0.47376317
-0.076688893 -4.1230888 0.47340009
-0.031275008 -4.1287994 0.47265002
-3.9907649 -4.0750589 0.47111765
-3.3664999 -4.0662498 0.47916669
-3.3439999 -4.0742002 0.45640001
-1.6098 -4.0636001 0.45679998
-1.5701716 -4.0627141 0.47280008
-1.5272727 -4.0725689 0.47406814
-1.475467 -4.0760674 0.47406673
-1.4251282 -4.0831547 0.47474357
-1.3787742 -4.0881619 0.47551608
-1.3397143 -4.0868568 0.48971429
-0.91812491 -4.0928745 0.46406245
-0.88291669 -4.0931664 0.47391671
-0.83650005 -4.0933332 0.47933337
-0.78533334 -4.0980005 0.48199999
-0.236 -4.099 0.484
-0.12899999 -4.0999999 0.498
-0.093000002 -4.0999999 0.484
-1.58 -4.04075 0.47350001
30.014 -3.8889999 0.48500001
30.033001 -3.836 0.486
30.014999 -3.78 0.48500001
-3.9960001 -4.2049999 0.51550001
-4.0047274 -4.1766367 0.52554554
-3.9961429 -4.1778579 0.52585715
-1.3216002 -4.1797004 0.52149999
-1.299 -4.1659999 0.54500002
-0.94200003 -4.1785002 0.528
-0.71216667 -4.1630001 0.52383339
-0.31033334 -4.1686668 0.54200006
-0.28549999 -4.1826248 0.52212501
-0.167 -4.1570001 0.52700001
-0.145 -4.1599998 0.505
-0.060999997 -4.1529999 0.54799998
-0.034714289 -4.1615715 0.523
-4.0057998 -4.1248002 0.52220005
-3.9954166 -4.123167 0.52691674
-3.4160001 -4.1218748 0.52737498
-3.3994999 -4.1040001 0.52499998
-1.3789999 -4.1044998 0.5485
-1.3196001 -4.1250005 0.51909995
-1.2955 -4.1294999 0.54449999
-0.92056257 -4.112875 0.52199996
-0.8733685 -4.1074209 0.51810527
-0.81790918 -4.1084089 0.52418178
-0.77760005 -4.1160445 0.52455562
-0.73064989 -4.11765 0.523
-0.31099999 -4.1426668 0.546
-0.26996768 -4.1229348 0.52745152
-0.22353068 -4.1199594 0.5236122
-0.17287232 -4.1213837 0.52253193
-0.12411908 -4.1205006 0.52495247
-0.078590885 -4.1235685 0.52136368
-0.041692313 -4.1360774 0.5123077
-4.0019999 -4.0960002 0.52399999
-1.5606 -4.0668001 0.5104
-1.4749774 -4.0733409 0.52561373
-1.4257393 -4.0808911 0.52508706
-1.3746817 -4.0843415 0.52275002
-1.3290625 -4.0892186 0.52656245
-1.2958001 -4.0899997 0.53780001
-0.91761541 -4.0899229 0.52661544
-0.87682748 -4.092207 0.5283103
-0.83271992 -4.0938001 0.52180004
-0.78600001 -4.0964999 0.51750004
-0.26425001 -4.0962501 0.53649998
30.044001 -3.8929999 0.53899997
30.006001 -3.832 0.53799999
-4.0123339 -4.2076674 0.57233334
-1.3015001 -4.2130003 0.551
-1.2783334 -4.2188339 0.57800007
-4.0051999 -4.1795001 0.56820005
-3.9993334 -4.1700001 0.58266664
-1.2786001 -4.1691003 0.57109994
-0.95200002 -4.1570001 0.59299999
-0.71514297 -4.179286 0.57485718
-0.32857144 -4.1695719 0.5721429
-0.101 -4.1669998 0.59500003
-0.081499994 -4.1586666 0.57366669
1.7757499 -4.1910834 0.5678333
1.8239446 -4.1944447 0.57555556
1.873091 -4.1948633 0.57645464
1.9225715 -4.1966429 0.57628572
1.9701332 -4.1957331 0.57740003
2.0250001 -4.1950002 0.58200002
2.474 -4.1975002 0.58700001
-1.27125 -4.1184168 0.57666665
-0.954 -4.1339998 0.58999997
-0.91549999 -4.1107497 0.57274997
-0.8687368 -4.1050529 0.57310528
-0.81773072 -4.1077309 0.57403851
-0.77599996 -4.1138968 0.57483351
-0.72915798 -4.117579 0.57442111
-0.35533333 -4.123333 0.59033334
-0.32084376 -4.1198115 0.57843751
-0.27225533 -4.1151905 0.57436174
-0.2241137 -4.1187048 0.57368183
-0.17559998 -4.1167798 0.5729599
-0.12600005 -4.1230855 0.57287228
-0.087750003 -4.1332502 0.56091666
-0.76800001 -4.099 0.551
30.02 -3.9430001 0.59100002
30.017 -3.8889999 0.59100002
-4.0107498 -4.2062502 0.62625003
-1.2543334 -4.2249999 0.60799998
-1.2331251 -4.2212501 0.63012493
-0.71850002 -4.2014999 0.61950004
-0.382 -4.2020001 0.63200003
1.7945 -4.224 0.60549998
1.8190558 -4.217833 0.62527776
1.8790001 -4.204143 0.62528574
1.9203333 -4.2058892 0.61855555
1.9705625 -4.2080622 0.62512499
2.0284739 -4.206737 0.62510526
2.0652728 -4.211091 0.63027275
2.3974001 -4.2282004 0.62800002
2.4189999 -4.2147503 0.62371433
2.4740837 -4.2084589 0.62133336
2.522625 -4.2136669 0.62612504
2.5747859 -4.2230358 0.62139291
2.6269231 -4.2324228 0.62569231
2.6585002 -4.2319999 0.62562495
-4.006556 -4.1772218 0.6162222
-1.258 -4.191 0.60100001
-1.2298334 -4.16925 0.62641668
-0.95349997 -4.1805 0.60399997
-0.94699997 -4.1677499 0.62099999
-0.71775001 -4.1974998 0.63
-0.37927273 -4.1692734 0.62954551
-0.1215 -4.1556673 0.61766672
1.8303913 -4.1942167 0.62243485
1.875222 -4.1929998 0.62648153
1.9207826 -4.1943913 0.62260872
1.9748638 -4.1946816 0.62581825
2.0194547 -4.1957273 0.62818182
2.0584998 -4.198 0.63800001
2.418818 -4.1920915 0.6249091
2.4707999 -4.197 0.62220001
2.5254998 -4.1995001 0.63849998
-0.13605554 -4.1299996 0.61516666
30.041 -3.9990001 0.64499998
30.006001 -3.941 0.64399999
30.025 -3.8900001 0.64399999
-0.72375 -4.2845001 0.671875
1.8601429 -4.2692857 0.68900001
3.1800001 -4.257 0.68725002
3.2108333 -4.2533331 0.66250002
-4.0110002 -4.2064004 0.67460006
-1.2107501 -4.2227497 0.6595
-1.1888334 -4.2165003 0.68066669
-0.71999997 -4.2098336 0.67383337
1.8391669 -4.2258334 0.66016668
1.8673848 -4.2184615 0.67938465
1.9317144 -4.2044287 0.66585714
1.9750001 -4.2044291 0.68128574
2.0290003 -4.2050004 0.66976923
2.0765626 -4.2062502 0.67518753
2.115 -4.2150002 0.6813333
2.3933334 -4.2453337 0.68633336
2.4142413 -4.2189317 0.67127585
2.4778945 -4.2067895 0.67399997
2.5266845 -4.2112627 0.67436844
2.5712612 -4.2215219 0.67452168
2.6223571 -4.2280002 0.67239296
2.6589 -4.2338996 0.67590004
2.9347999 -4.2308998 0.68959999
2.9719586 -4.2272501 0.675125
3.02496 -4.2302399 0.67247993
3.0722082 -4.2326245 0.67575002
3.1242278 -4.236455 0.67186362
3.1688573 -4.2418575 0.6720714
3.2014999 -4.243 0.67799997
-1.2065001 -4.1800003 0.65549999
1.845 -4.1885004 0.65700001
1.8745219 -4.1907825 0.67356521
1.9210312 -4.190907 0.67696875
1.9741201 -4.1939597 0.67172003
2.0222275 -4.1939998 0.6784091
2.0685 -4.19625 0.6755833
2.10425 -4.1967502 0.69024998
2.4244213 -4.1926842 0.6776315
2.4706666 -4.1939998 0.67422223
2.503 -4.199667 0.67700005
30.034 -4.0510001 0.69800001
30.016001 -3.9960001 0.69700003
30.000999 -3.9400001 0.69599998
-0.72466671 -4.2848334 0.72433341
1.8835001 -4.2743335 0.71875012
1.9036667 -4.2813334 0.74333334
2.3949091 -4.281364 0.72418183
2.4022501 -4.2757502 0.7245
2.8889999 -4.2819996 0.740125
2.9121671 -4.2757497 0.71700001
3.1440001 -4.2509999 0.745
3.1653335 -4.2543335 0.71866667
-1.1622857 -4.2134285 0.71114284
-0.72300005 -4.2285004 0.72266668
1.8892223 -4.2183332 0.71400005
1.9132727 -4.2176361 0.73527277
1.978 -4.2043333 0.72033334
2.0265 -4.2047501 0.72799993
2.0778463 -4.2058463 0.72100002
2.1314502 -4.2069507 0.72710001
2.1666667 -4.2206664 0.73566669
2.3959999 -4.2288003 0.71900004
2.4076002 -4.2230997 0.72485
2.4777143 -4.204072 0.72442853
2.5224092 -4.2100449 0.72213638
2.5709283 -4.21875 0.72660714
2.6249652 -4.2258968 0.72231036
2.6578751 -4.2286253 0.72562504
2.8945 -4.2321253 0.74137497
2.9229617 -4.2253079 0.72503853
2.9749999 -4.2259202 0.72383994
3.0243599 -4.2267194 0.72643995
3.0743332 -4.2278333 0.72470832
3.1202857 -4.235786 0.72092855
3.1603334 -4.2476673 0.71600008
1.893 -4.1919999 0.71033335
1.9262304 -4.1913843 0.72399992
1.9732002 -4.1919665 0.7225334
2.0225503 -4.1912503 0.72569996
2.0714736 -4.1928949 0.72342104
2.1160769 -4.1941543 0.72592312
2.4266191 -4.1920481 0.72485715
2.4654615 -4.1956153 0.72246158
2.51 -4.1999998 0.73299998
-0.72799999 -4.3049998 0.755
1.895 -4.323 0.75700003
1.9235264 -4.3193154 0.7739473
2.3904448 -4.326611 0.77194452
2.4046669 -4.323667 0.77633333
2.8395002 -4.3273749 0.78999996
2.867353 -4.329 0.76705885
-0.72450006 -4.2838335 0.77850002
1.9326924 -4.2729235 0.77423072
1.9545 -4.2659998 0.79449999
2.3940001 -4.2777772 0.77166665
2.4021111 -4.2802224 0.77655554
2.8404286 -4.278286 0.78957146
2.8650911 -4.271091 0.76418185
1.933625 -4.2277503 0.76537502
2.3977144 -4.2290001 0.77485716
2.6230836 -4.2232504 0.77412498
2.6585002 -4.2315001 0.77600002
2.840889 -4.2303333 0.78900003
2.8741937 -4.2211943 0.77370965
2.9728184 -4.2195458 0.77445459
3.025583 -4.2251668 0.77541673
3.075412 -4.2341175 0.7737059
3.1169002 -4.2435002 0.76410002
30.035 -4.0510001 0.75
30.033001 -3.9979999 0.75
2.3840718 -4.3787856 0.82707149
2.7908335 -4.3633337 0.83833337
2.8223748 -4.3691249 0.81349993
1.94575 -4.3252501 0.80949998
1.9688573 -4.3212852 0.82842869
2.3902633 -4.3291578 0.8248421
2.401 -4.3080001 0.80449998
2.7946668 -4.3330002 0.84066671
2.8165627 -4.3248754 0.81918752
5.2809997 -4.3339996 0.80979997
5.3253636 -4.336 0.82572734
5.3714004 -4.3355994 0.82790011
5.4236999 -4.3374 0.82319993
5.4762225 -4.3417778 0.829
5.5120001 -4.3452497 0.824
1.9768001 -4.2732668 0.82500005
2.3934548 -4.2818184 0.82590914
2.4025714 -4.2747145 0.82271427
2.7888572 -4.2758574 0.84371436
2.8155 -4.276063 0.82012504
30.006001 -4.1009998 0.80299997
30.004999 -4.0469999 0.80199999
2.3914001 -4.4089999 0.87260002
2.3847058 -4.3796477 0.87170583
2.7687776 -4.3673334 0.86444449
5.3330002 -4.3692222 0.87455553
5.3530002 -4.3660002 0.88700002
5.5939999 -4.3699999 0.87400001
5.7454286 -4.3831434 0.87157142
5.7667503 -4.3632503 0.87341678
5.8266249 -4.3622499 0.87687492
5.8765559 -4.3624444 0.86799997
5.9235001 -4.3668337 0.87350005
5.9605718 -4.369143 0.87814289
6.1733575 -4.3757143 0.87335718
6.223875 -4.36625 0.87562495
6.2710004 -4.3672862 0.87728572
6.3256249 -4.3709998 0.87212497
6.376143 -4.3745713 0.87785721
6.4175 -4.381 0.87425005
1.9909999 -4.3252497 0.85774994
2.0148335 -4.3208332 0.87924999
2.3907373 -4.3271575 0.87447357
2.7440002 -4.3197999 0.88840002
2.7674003 -4.3317332 0.86919999
5.3346 -4.3382001 0.87320006
5.3726163 -4.3352304 0.87415391
5.4225001 -4.3367505 0.87337506
5.4746666 -4.3386669 0.87449998
5.5300002 -4.3408885 0.87244445
5.566 -4.348 0.89499998
5.763 -4.3499999 0.85699999
1.995 -4.2849998 0.85100001
30.034 -4.158 0.85699999
30.028999 -4.1040001 0.85600001
30.040001 -4.052 0.85600001
-26.246 -4.6539998 0.94
-25.868 -4.6799998 0.92699999
-25.948 -4.6479998 0.92900002
2.3900001 -4.4070001 0.903
