ply
format ascii 1.0
comment PCL generated
element vertex 1806
property float x
property float y
property float z
element camera 0
property float view_px
property float view_py
property float view_pz
property float x_axisx
property float x_axisy
property float x_axisz
property float y_axisx
property float y_axisy
property float y_axisz
property float z_axisx
property float z_axisy
property float z_axisz
property float focal
property float scalex
property float scaley
property float centerx
property float centery
property int viewportx
property int viewporty
property float k1
property float k2
end_header
-15.613 5.5479999 0.184
-15.621 5.5640001 0.17299999
-15.615 5.552 0.16599999
-15.617 5.5560002 0.15700001
-15.618 5.559 0.148
-15.618 5.5570002 0.14
-15.622 5.5650001 0.131
-15.616 5.553 0.123
-15.615 5.5510001 0.115
-15.619 5.559 0.106
-15.617 5.5539999 0.097999997
-15.611 5.5409999 0.090000004
-15.62 5.5619998 0.079999998
-15.615 5.5500002 0.071999997
-15.614 5.546 0.064000003
-15.618 5.5549998 0.055
-15.616 5.5500002 0.046999998
-15.618 5.5539999 0.037999999
-15.613 5.5450001 0.029999999
-15.612 5.5409999 0.022
-15.615 5.5469999 0.013
-15.604 5.552 0.28600001
-15.609 5.5630002 0.27599999
-15.605 5.553 0.26899999
-15.617 5.5799999 0.257
-15.611 5.5669999 0.25
-15.604 5.5500002 0.244
-15.606 5.5539999 0.235
-15.616 5.5770001 0.22400001
-15.604 5.5489998 0.21799999
-15.611 5.5640001 0.208
-15.609 5.559 0.2
-15.605 5.5500002 0.192
-15.606 5.553 0.183
-15.61 5.5609999 0.17399999
-15.608 5.5570002 0.16599999
-15.604 5.5479999 0.15800001
-15.609 5.5580001 0.149
-15.606 5.552 0.141
-15.607 5.553 0.132
-15.611 5.5630002 0.123
-15.6 5.5380001 0.116
-15.608 5.5549998 0.106
-15.608 5.5549998 0.097999997
-15.606 5.5489998 0.090000004
-15.608 5.5549998 0.081
-15.609 5.5570002 0.071999997
-15.607 5.552 0.064000003
-15.603 5.5430002 0.056000002
-15.61 5.5570002 0.046
-15.61 5.5570002 0.037999999
-15.606 5.5500002 0.029999999
-15.612 5.5609999 0.021
-15.61 5.5570002 0.012
-15.596 5.5549998 0.26899999
-15.599 5.5599999 0.25999999
-15.609 5.5819998 0.249
-15.603 5.5700002 0.242
-15.595 5.552 0.235
-15.59 5.54 0.228
-15.596 5.5539999 0.21799999
-15.603 5.5669999 0.208
-15.595 5.5489998 0.20100001
-15.599 5.5580001 0.192
-15.596 5.552 0.184
-15.601 5.5619998 0.17399999
-15.602 5.5650001 0.16500001
-15.598 5.5560002 0.15800001
-15.598 5.5549998 0.149
-15.6 5.5609999 0.14
-15.598 5.5539999 0.132
-15.596 5.5510001 0.124
-15.596 5.5489998 0.115
-15.599 5.5570002 0.106
-15.597 5.553 0.097999997
-15.591 5.5380001 0.090999998
-15.6 5.5570002 0.081
-15.597 5.5510001 0.072999999
-15.595 5.5469999 0.064000003
-15.597 5.5510001 0.055
-15.596 5.5479999 0.046999998
-15.598 5.552 0.037999999
-15.597 5.5500002 0.029999999
-15.591 5.5359998 0.022
-15.588 5.5289998 0.014
-15.59 5.5599999 0.252
-15.587 5.5549998 0.244
-15.593 5.566 0.234
-15.591 5.5630002 0.226
-15.595 5.572 0.21600001
-15.594 5.5689998 0.208
-15.588 5.5560002 0.20100001
-15.59 5.559 0.192
-15.583 5.5450001 0.185
-15.587 5.553 0.175
-15.584 5.5450001 0.167
-15.582 5.5419998 0.15899999
-15.587 5.5510001 0.15000001
-15.582 5.54 0.142
-15.591 5.5599999 0.132
-15.585 5.546 0.124
-15.588 5.553 0.115
-15.582 5.54 0.108
-15.59 5.5560002 0.097999997
-15.585 5.5469999 0.090000004
-15.579 5.5310001 0.082999997
-15.581 5.5359998 0.074000001
-15.581 5.5359998 0.064999998
-15.589 5.553 0.055
-15.586 5.546 0.046999998
-15.592 5.559 0.037999999
-15.583 5.539 0.030999999
-15.59 5.5539999 0.021
-15.588 5.5489998 0.013
-15.575 5.5479999 0.245
-15.578 5.5549998 0.235
-15.58 5.5599999 0.226
-15.581 5.5609999 0.21799999
-15.577 5.553 0.20999999
-15.579 5.5549998 0.20100001
-15.581 5.5599999 0.192
-15.581 5.5609999 0.183
-15.581 5.5609999 0.175
-15.572 5.54 0.168
-15.577 5.552 0.15800001
-15.578 5.552 0.15000001
-15.583 5.5630002 0.14
-15.573 5.5430002 0.134
-15.58 5.5570002 0.124
-15.575 5.5450001 0.116
-15.578 5.5510001 0.107
-15.578 5.552 0.097999997
-15.581 5.5580001 0.089000002
-15.582 5.559 0.081
-15.579 5.5539999 0.072999999
-15.577 5.5479999 0.064999998
-15.571 5.5349998 0.057
-15.576 5.546 0.048
-15.578 5.5500002 0.039000001
-15.574 5.5409999 0.030999999
-15.575 5.5419998 0.022
-15.58 5.5539999 0.013
-15.571 5.5599999 0.227
-15.566 5.5500002 0.219
-15.563 5.5430002 0.211
-15.567 5.552 0.20200001
-15.566 5.5479999 0.193
-15.569 5.5560002 0.184
-15.565 5.546 0.176
-15.569 5.5539999 0.167
-15.565 5.5450001 0.15899999
-15.566 5.5479999 0.15000001
-15.568 5.552 0.142
-15.566 5.546 0.133
-15.566 5.5469999 0.125
-15.563 5.539 0.117
-15.56 5.5339999 0.109
-15.562 5.5380001 0.1
-15.565 5.5440001 0.090999998
-15.572 5.5580001 0.081
-15.568 5.5500002 0.072999999
-15.567 5.5469999 0.064999998
-15.57 5.553 0.056000002
-15.564 5.54 0.048
-15.563 5.5370002 0.039999999
-15.565 5.5430002 0.030999999
-15.569 5.5500002 0.022
-15.567 5.546 0.013
-15.552 5.539 0.212
-15.56 5.5560002 0.20200001
-15.567 5.5700002 0.192
-15.555 5.546 0.185
-15.553 5.5419998 0.177
-15.556 5.546 0.168
-15.552 5.5380001 0.16
-15.554 5.5430002 0.15099999
-15.553 5.539 0.14300001
-15.557 5.5489998 0.133
-15.555 5.5430002 0.125
-15.554 5.5409999 0.117
-15.553 5.5380001 0.109
-15.554 5.5409999 0.1
-15.556 5.5450001 0.090999998
-15.554 5.5409999 0.082999997
-15.549 5.5289998 0.075000003
-15.559 5.5510001 0.064999998
-15.558 5.5479999 0.056000002
-15.551 5.5339999 0.048999999
-15.556 5.5440001 0.039000001
-15.557 5.5440001 0.030999999
-15.557 5.546 0.022
-15.558 5.5469999 0.014
-15.541 5.5359998 0.204
-15.546 5.5469999 0.19400001
-15.551 5.5580001 0.184
-15.551 5.5570002 0.176
-15.55 5.5549998 0.168
-15.546 5.5450001 0.16
-15.547 5.5469999 0.15099999
-15.542 5.5370002 0.14300001
-15.547 5.5469999 0.134
-15.54 5.5320001 0.127
-15.548 5.5479999 0.117
-15.55 5.552 0.108
-15.542 5.5349998 0.1
-15.547 5.5469999 0.090999998
-15.543 5.5370002 0.082999997
-15.537 5.5250001 0.075000003
-15.545 5.5409999 0.066
-15.549 5.5500002 0.056000002
-15.544 5.5380001 0.048999999
-15.541 5.5310001 0.039999999
-15.545 5.539 0.030999999
-15.548 5.5450001 0.022
-15.547 5.5430002 0.014
-15.543 5.5599999 0.185
-15.535 5.5430002 0.178
-15.542 5.5580001 0.168
-15.536 5.5440001 0.16
-15.54 5.552 0.15099999
-15.533 5.539 0.14300001
-15.537 5.5469999 0.134
-15.534 5.54 0.126
-15.528 5.526 0.119
-15.533 5.5370002 0.109
-15.533 5.5380001 0.1
-15.536 5.5430002 0.090999998
-15.531 5.533 0.083999999
-15.541 5.553 0.072999999
-15.536 5.5419998 0.066
-15.538 5.546 0.057
-15.536 5.5419998 0.048
-15.533 5.5359998 0.039999999
-15.528 5.5250001 0.032000002
-15.534 5.5380001 0.023
-15.535 5.539 0.014
-15.527 5.5469999 0.177
-15.522 5.5359998 0.17
-15.53 5.552 0.16
-15.522 5.5339999 0.153
-15.529 5.5510001 0.14300001
-15.526 5.5440001 0.13500001
-15.528 5.5469999 0.126
-15.525 5.54 0.118
-15.526 5.5419998 0.109
-15.528 5.5469999 0.1
-15.519 5.527 0.093000002
-15.525 5.54 0.082999997
-15.526 5.5409999 0.075000003
-15.528 5.546 0.066
-15.521 5.5320001 0.057999998
-15.527 5.5440001 0.048999999
-15.525 5.54 0.039999999
-15.525 5.5380001 0.032000002
-15.524 5.5370002 0.023
-15.52 5.527 0.015
-15.517 5.546 0.161
-15.519 5.5489998 0.152
-15.517 5.5450001 0.14300001
-15.517 5.546 0.13500001
-15.506 5.5219998 0.12800001
-15.524 5.5599999 0.116
-15.515 5.539 0.109
-15.511 5.5310001 0.101
-15.513 5.5359998 0.092
-15.514 5.5370002 0.083999999
-15.512 5.5320001 0.075000003
-15.515 5.5380001 0.066
-15.514 5.5359998 0.057999998
-15.516 5.54 0.048999999
-15.513 5.533 0.041000001
-15.514 5.5349998 0.032000002
-15.513 5.533 0.024
-15.516 5.54 0.015
-15.51 5.5500002 0.152
-15.506 5.5430002 0.14399999
-15.509 5.5469999 0.13500001
-15.507 5.5430002 0.127
-15.506 5.5419998 0.118
-15.502 5.533 0.11
-15.505 5.539 0.101
-15.504 5.5359998 0.093000002
-15.505 5.5370002 0.083999999
-15.496 5.52 0.077
-15.506 5.5409999 0.066
-15.503 5.533 0.057999998
-15.51 5.5479999 0.048999999
-15.504 5.5349998 0.041000001
-15.503 5.533 0.032000002
-15.5 5.526 0.024
-15.507 5.539 0.015
-15.492 5.5320001 0.13600001
-15.494 5.5359998 0.127
-15.496 5.5409999 0.118
-15.497 5.5409999 0.11
-15.494 5.5349998 0.101
-15.497 5.5409999 0.092
-15.495 5.5370002 0.083999999
-15.498 5.5440001 0.075000003
-15.495 5.5359998 0.067000002
-15.489 5.5229998 0.059
-15.494 5.533 0.050000001
-15.495 5.5359998 0.041000001
-15.487 5.5190001 0.033
-15.497 5.54 0.023
-15.493 5.5300002 0.015
-15.483 5.533 0.12800001
-15.478 5.5229998 0.12
-15.482 5.5310001 0.111
-15.482 5.5310001 0.102
-15.49 5.546 0.092
-15.478 5.5209999 0.085000001
-15.482 5.5289998 0.075999998
-15.484 5.5339999 0.067000002
-15.485 5.5359998 0.057999998
-15.483 5.5310001 0.050000001
-15.474 5.5120001 0.043000001
-15.481 5.527 0.033
-15.485 5.5339999 0.024
-15.478 5.5190001 0.016000001
-15.474 5.533 0.111
-15.471 5.5279999 0.102
-15.474 5.5339999 0.093000002
-15.473 5.5320001 0.085000001
-15.478 5.5419998 0.075000003
-15.478 5.5409999 0.067000002
-15.469 5.5229998 0.059
-15.473 5.5310001 0.050000001
-15.473 5.5300002 0.041999999
-15.473 5.5289998 0.033
-15.473 5.5300002 0.024
-15.471 5.5250001 0.016000001
-15.465 5.5370002 0.102
-15.467 5.54 0.093000002
-15.468 5.5409999 0.083999999
-15.46 5.5240002 0.077
-15.463 5.5320001 0.068000004
-15.459 5.5219998 0.059999999
-15.458 5.52 0.050999999
-15.463 5.5310001 0.041999999
-15.459 5.5209999 0.034000002
-15.463 5.5300002 0.025
-15.46 5.5219998 0.016000001
-15.463 5.5510001 0.092
-15.453 5.5300002 0.085000001
-15.453 5.5300002 0.077
-15.451 5.526 0.068000004
-15.451 5.526 0.059999999
-15.45 5.5240002 0.050999999
-15.444 5.5100002 0.043000001
-15.452 5.5279999 0.033
-15.45 5.5240002 0.025
-15.443 5.5079999 0.017000001
-15.44 5.5240002 0.077
-15.445 5.533 0.068000004
-15.447 5.5370002 0.059
-15.438 5.5190001 0.052000001
-15.445 5.533 0.041999999
-15.432 5.506 0.035
-15.436 5.513 0.026000001
-15.439 5.5190001 0.017000001
-15.43 5.5229998 0.059999999
-15.43 5.5219998 0.052000001
-15.424 5.5100002 0.044
-15.437 5.5349998 0.033
-15.429 5.52 0.026000001
-15.433 5.526 0.016000001
-15.423 5.5279999 0.050999999
-15.415 5.5120001 0.044
-15.413 5.5079999 0.035
-15.424 5.5300002 0.025
-15.42 5.5209999 0.017000001
-15.408 5.5170002 0.035
-15.407 5.5149999 0.026000001
-15.412 5.5250001 0.017000001
-15.393 5.506 0.027000001
-15.402 5.5240002 0.017000001
-16.365 6.5830002 2.977
-16.266001 6.5570002 2.9920001
-16.316 6.5549998 2.9690001
-16.391001 6.5510001 2.9489999
-16.281 6.5250001 2.9949999
-16.282 6.5250001 2.9630001
-16.309 6.5240002 2.9360001
-16.391001 6.52 2.9170001
-16.444 6.5180001 2.8940001
-16.283001 6.494 2.9960001
-16.277 6.494 2.9630001
-16.289 6.494 2.9330001
-16.323999 6.4920001 2.9059999
-16.395 6.4889998 2.8859999
-16.283001 6.4619999 2.9960001
-16.291 6.4619999 2.9649999
-16.280001 6.4619999 2.931
-16.288 6.4619999 2.901
-16.344999 6.4590001 2.878
-16.377001 6.4580002 2.8510001
-16.281 6.4310002 2.964
-16.277 6.4310002 2.931
-16.290001 6.4310002 2.901
-16.285 6.4310002 2.869
-16.330999 6.4289999 2.8440001
-16.393999 6.4250002 2.822
-16.391001 6.4260001 2.79
-16.292999 6.3990002 2.9660001
-16.288 6.3990002 2.9330001
-16.298 6.3979998 2.9030001
-16.285 6.3990002 2.869
-16.292 6.3990002 2.8380001
-16.343 6.3959999 2.8139999
-16.396 6.3930001 2.7909999
-16.299999 6.368 2.9679999
-16.301001 6.368 2.9360001
-16.292 6.368 2.902
-16.308001 6.368 2.8729999
-16.302999 6.368 2.8399999
-16.313999 6.3670001 2.8099999
-16.341999 6.3660002 2.783
-16.399 6.3629999 2.76
-16.316999 6.335 2.971
-16.299999 6.336 2.9360001
-16.309 6.336 2.9059999
-16.306 6.336 2.8729999
-16.297001 6.336 2.8399999
-16.306999 6.336 2.809
-16.312 6.335 2.7780001
-16.333 6.3340001 2.7490001
-16.391001 6.3309999 2.7260001
-16.323 6.3039999 2.9719999
-16.320999 6.3039999 2.9400001
-16.313999 6.3039999 2.9070001
-16.306 6.3049998 2.8729999
-16.311001 6.3039999 2.842
-16.299999 6.3049998 2.809
-16.322001 6.3039999 2.78
-16.308001 6.3039999 2.7460001
-16.459999 6.296 2.6730001
-16.334999 6.2709999 2.9749999
-16.329 6.2709999 2.9419999
-16.333 6.2709999 2.9100001
-16.312 6.2719998 2.875
-16.294001 6.2729998 2.8399999
-16.316999 6.2719998 2.812
-16.322001 6.2719998 2.78
-16.320999 6.2719998 2.7479999
-16.391001 6.2680001 2.6630001
-16.407 6.2670002 2.6340001
-16.372 6.2379999 2.9489999
-16.329 6.2399998 2.9100001
-16.33 6.2399998 2.878
-16.318001 6.2410002 2.8440001
-16.309 6.2410002 2.8110001
-16.319 6.2410002 2.78
-16.308001 6.2410002 2.747
-16.329 6.2399998 2.654
-16.392 6.2360001 2.632
-16.429001 6.2340002 2.605
-16.361 6.2080002 2.9159999
-16.341 6.2090001 2.8800001
-16.336 6.2090001 2.8469999
-16.320999 6.21 2.813
-16.323 6.21 2.7809999
-16.308001 6.211 2.747
-16.320999 6.21 2.6530001
-16.346001 6.2080002 2.625
-16.382 6.2059999 2.599
-16.433001 6.2020001 2.5739999
-16.362 6.1760001 2.8840001
-16.332001 6.178 2.8469999
-16.341999 6.178 2.8169999
-16.325001 6.1789999 2.7820001
-16.316 6.1789999 2.7490001
-16.325001 6.1789999 2.654
-16.315001 6.1789999 2.6210001
-16.358999 6.1760001 2.595
-16.417999 6.1729999 2.572
-16.419001 6.1719999 2.54
-16.354 6.1459999 2.8510001
-16.341999 6.1469998 2.8169999
-16.343 6.1459999 2.7850001
-16.339001 6.1469998 2.753
-16.32 6.1479998 2.654
-16.32 6.1479998 2.622
-16.311001 6.1479998 2.589
-16.35 6.1459999 2.563
-16.389999 6.1430001 2.5369999
-16.443001 6.1389999 2.5120001
-16.362 6.1139998 2.8210001
-16.34 6.1160002 2.7850001
-16.333 6.1160002 2.7520001
-16.323999 6.1170001 2.655
-16.320999 6.1170001 2.6229999
-16.325001 6.1170001 2.5910001
-16.329 6.1170001 2.5599999
-16.360001 6.1149998 2.5320001
-16.421 6.1100001 2.5090001
-16.459 6.1079998 2.483
-16.372999 6.0819998 2.7909999
-16.344 6.0840001 2.7539999
-16.332001 6.085 2.6570001
-16.333 6.085 2.625
-16.322001 6.086 2.5910001
-16.326 6.086 2.5599999
-16.348 6.0840001 2.5309999
-16.365999 6.0830002 2.5020001
-16.406 6.0799999 2.4760001
-16.448 6.0770001 2.4489999
-16.374001 6.0510001 2.7590001
-16.343 6.053 2.6589999
-16.344999 6.053 2.6270001
-16.344999 6.053 2.595
-16.333 6.0539999 2.5610001
-16.327999 6.0539999 2.529
-16.323999 6.0539999 2.4960001
-16.354 6.052 2.4690001
-16.426001 6.0469999 2.447
-16.459 6.0450001 2.4189999
-16.330999 6.0229998 2.6889999
-16.35 6.0209999 2.6600001
-16.363001 6.02 2.6300001
-16.334 6.0229998 2.5940001
-16.334 6.0229998 2.562
-16.334999 6.0219998 2.53
-16.33 6.0229998 2.497
-16.334 6.0219998 2.4660001
-16.368999 6.02 2.4389999
-16.424 6.0159998 2.415
-16.461 6.013 2.388
-16.374001 5.9879999 2.6960001
-16.356001 5.9899998 2.661
-16.358 5.9889998 2.6300001
-16.344999 5.9899998 2.596
-16.351 5.9899998 2.5650001
-16.34 5.9910002 2.5309999
-16.334999 5.9910002 2.4990001
-16.339001 5.9910002 2.467
-16.347 5.9899998 2.437
-16.351999 5.9899998 2.405
-16.417 5.9850001 2.382
-16.445999 5.9829998 2.3540001
-16.393999 5.9549999 2.668
-16.365 5.9580002 2.631
-16.358999 5.9580002 2.598
-16.365999 5.9569998 2.5669999
-16.341 5.9590001 2.5320001
-16.346001 5.9590001 2.5009999
-16.341999 5.9590001 2.4679999
-16.341 5.9590001 2.4360001
-16.349001 5.9590001 2.405
-16.363001 5.9580002 2.375
-16.422001 5.9530001 2.3510001
-16.471001 5.9489999 2.326
-16.395 5.9239998 2.6359999
-16.351999 5.927 2.598
-16.381001 5.9250002 2.5699999
-16.353001 5.927 2.5339999
-16.354 5.927 2.5020001
-16.344999 5.928 2.4690001
-16.357 5.927 2.4389999
-16.351999 5.927 2.4059999
-16.351999 5.927 2.3740001
-16.375 5.9250002 2.346
-16.424 5.921 2.3199999
-16.468 5.9180002 2.2939999
-17.186001 5.8579998 0.147
-17.209999 5.8559999 0.115
-17.247 5.8530002 0.082000002
-17.264 5.8520002 0.048999999
-17.264 5.8520002 0.016000001
-16.386999 5.8920002 2.6029999
-16.364 5.8940001 2.5680001
-16.360001 5.8940001 2.5350001
-16.354 5.895 2.503
-16.351999 5.895 2.47
-16.364 5.8940001 2.4400001
-16.347 5.895 2.4059999
-16.344999 5.8959999 2.3740001
-16.348 5.895 2.342
-16.372 5.8930001 2.3139999
-16.410999 5.8899999 2.2869999
-16.476999 5.8850002 2.2639999
-16.506001 5.882 2.2349999
-17.021999 5.8390002 0.373
-17.035999 5.8379998 0.34099999
-17.052 5.836 0.308
-17.089001 5.8330002 0.27700001
-17.096001 5.8330002 0.244
-17.086 5.8340001 0.211
-17.122 5.8309999 0.17900001
-17.122 5.8309999 0.147
-17.122 5.8309999 0.114
-17.132999 5.8299999 0.081
-17.142 5.829 0.048999999
-17.136999 5.829 0.016000001
-16.611 5.842 2.9619999
-16.629999 5.8410001 2.9330001
-16.565001 5.8460002 2.8889999
-16.566999 5.8460002 2.8570001
-16.386 5.8610001 2.54
-16.368999 5.862 2.5050001
-16.361 5.8629999 2.4719999
-16.364 5.8629999 2.441
-16.377001 5.862 2.4100001
-16.365999 5.862 2.3770001
-16.356001 5.8629999 2.3440001
-16.364 5.8629999 2.313
-16.372999 5.862 2.2820001
-16.424999 5.8569999 2.257
-16.451 5.855 2.2290001
-16.490999 5.8520002 2.2019999
-16.878 5.8179998 0.56300002
-16.906 5.816 0.53200001
-16.927 5.8140001 0.5
-16.934999 5.8140001 0.46799999
-16.931 5.8140001 0.43599999
-16.961 5.8109999 0.40400001
-16.966999 5.8109999 0.37200001
-16.968 5.8109999 0.33899999
-16.983 5.809 0.30700001
-16.993999 5.809 0.27500001
-17 5.8080001 0.243
-17.014999 5.8070002 0.211
-17.02 5.8060002 0.178
-17.031 5.8049998 0.146
-17.025999 5.8060002 0.113
-17.077999 5.802 0.081
-17.082001 5.8010001 0.048999999
-17.1 5.8000002 0.016000001
-16.525 5.8179998 2.9809999
-16.525 5.8179998 2.948
-16.52 5.8179998 2.915
-16.504 5.8200002 2.8800001
-16.452999 5.8239999 2.8399999
-16.521 5.8179998 2.8180001
-16.478001 5.822 2.714
-16.378 5.8299999 2.507
-16.382999 5.8299999 2.4760001
-16.379999 5.8299999 2.4430001
-16.355 5.8319998 2.408
-16.379 5.8299999 2.3789999
-16.354 5.8319998 2.3440001
-16.370001 5.8309999 2.3139999
-16.348 5.8330002 2.279
-16.374001 5.8299999 2.2509999
-16.41 5.8270001 2.224
-16.461 5.823 2.198
-16.500999 5.8200002 2.171
-16.481001 5.8210001 2.1370001
-16.702 5.8010001 0.74900001
-16.757999 5.796 0.72000003
-16.775 5.7950001 0.68800002
-16.782 5.7940001 0.65600002
-16.804001 5.7919998 0.625
-16.813999 5.7909999 0.59299999
-16.820999 5.7909999 0.56099999
-16.832001 5.79 0.52999997
-16.833 5.79 0.498
-16.843 5.789 0.46599999
-16.844 5.789 0.43399999
-16.860001 5.7870002 0.40200001
-16.875 5.7859998 0.37
-16.886 5.7849998 0.338
-16.881001 5.7859998 0.30500001
-16.926001 5.7820001 0.27399999
-16.940001 5.7810001 0.242
-16.971001 5.7779999 0.20999999
-17.006001 5.7750001 0.178
-16.997 5.776 0.146
-17.027 5.7729998 0.113
-17.075001 5.7690001 0.081
-17.073 5.7690001 0.048999999
-17.108 5.7659998 0.016000001
-16.346001 5.802 2.984
-16.384001 5.7989998 2.9579999
-16.402 5.7969999 2.9289999
-16.410999 5.796 2.898
-16.416 5.796 2.8659999
-16.357 5.8010001 2.825
-16.372 5.8000002 2.7950001
-16.410999 5.796 2.7049999
-16.396 5.7969999 2.6700001
-16.424999 5.7950001 2.642
-16.405001 5.796 2.6070001
-16.41 5.796 2.576
-16.414 5.796 2.5450001
-16.419001 5.7950001 2.513
-16.389999 5.7979999 2.477
-16.349001 5.8010001 2.4389999
-16.375999 5.7989998 2.411
-16.351999 5.8010001 2.3759999
-16.370001 5.7989998 2.3469999
-16.362 5.8000002 2.3139999
-16.358999 5.8000002 2.2809999
-16.370001 5.7989998 2.2509999
-16.377001 5.7989998 2.22
-16.415001 5.7950001 2.1930001
-16.459 5.7919998 2.1659999
-16.478001 5.79 2.1370001
-16.457001 5.7919998 2.102
-16.465 5.7909999 2.0710001
-16.475 5.79 2.0409999
-16.452999 5.7919998 2.006
-16.462999 5.7909999 1.975
-16.445 5.7930002 1.941
-16.466 5.7909999 1.9119999
-16.457001 5.7919998 1.8789999
-16.452 5.7919998 1.847
-16.464001 5.7909999 1.816
-16.461 5.7909999 1.784
-16.455999 5.7919998 1.752
-16.455 5.7919998 1.72
-16.448 5.7919998 1.687
-16.458 5.7909999 1.6569999
-16.570999 5.7800002 0.93400002
-16.605 5.777 0.90399998
-16.620001 5.776 0.87300003
-16.663 5.7719998 0.84399998
-16.653999 5.7729998 0.81099999
-16.666 5.7719998 0.77999997
-16.657 5.7729998 0.74800003
-16.688 5.77 0.71700001
-16.690001 5.77 0.685
-16.716 5.7680001 0.65399998
-16.726 5.7670002 0.62300003
-16.726 5.7670002 0.59100002
-16.733 5.7659998 0.55900002
-16.739 5.7659998 0.52700001
-16.75 5.7649999 0.495
-16.759001 5.7639999 0.463
-16.809 5.7600002 0.433
-16.802 5.7600002 0.40000001
-16.867001 5.7540002 0.37
-16.881001 5.7529998 0.338
-16.905001 5.7509999 0.30599999
-16.945999 5.7480001 0.27500001
-16.948 5.7470002 0.242
-16.968 5.7459998 0.20999999
-16.995001 5.743 0.178
-17.01 5.7420001 0.146
-17.040001 5.7389998 0.114
-17.065001 5.737 0.081
-17.094 5.7350001 0.048999999
-17.142 5.7309999 0.016000001
-16.285 5.776 2.974
-16.271 5.777 2.9389999
-16.281 5.776 2.9089999
-16.275999 5.777 2.8759999
-16.285999 5.776 2.846
-16.261999 5.7779999 2.8099999
-16.306 5.7740002 2.7850001
-16.306 5.7740002 2.6889999
-16.32 5.7729998 2.6589999
-16.32 5.7729998 2.6270001
-16.309999 5.7729998 2.5940001
-16.309 5.7729998 2.562
-16.329 5.7719998 2.533
-16.327999 5.7719998 2.5009999
-16.337999 5.7709999 2.47
-16.327 5.7719998 2.437
-16.336 5.7709999 2.4059999
-16.336 5.7709999 2.3740001
-16.344999 5.77 2.3440001
-16.333 5.7709999 2.3099999
-16.348 5.77 2.28
-16.357 5.7690001 2.25
-16.368999 5.7680001 2.2190001
-16.368999 5.7680001 2.188
-16.377001 5.7670002 2.1570001
-16.389999 5.7659998 2.1270001
-16.375999 5.7670002 2.0929999
-16.385 5.7659998 2.062
-16.389 5.7659998 2.0309999
-16.395 5.7649999 2
-16.414 5.7639999 1.97
-16.408001 5.7639999 1.938
-16.393 5.7659998 1.904
-16.400999 5.7649999 1.873
-16.405001 5.7649999 1.842
-16.408001 5.7639999 1.811
-16.431 5.7620001 1.781
-16.434 5.7610002 1.75
-16.437 5.7620001 1.7180001
-16.434999 5.7610002 1.686
-16.443001 5.7600002 1.655
-16.451 5.7600002 1.624
-16.448999 5.7600002 1.5930001
-16.452 5.7589998 1.561
-16.448 5.7600002 1.529
-16.452999 5.7589998 1.498
-16.471001 5.7579999 1.4680001
-16.445999 5.7600002 1.434
-16.437 5.7610002 1.401
-16.419001 5.7620001 1.368
-16.423 5.7620001 1.337
-16.450001 5.7589998 1.307
-16.455999 5.7589998 1.276
-16.438 5.7600002 1.243
-16.434 5.7610002 1.211
-16.438999 5.7600002 1.1799999
-16.438999 5.7600002 1.148
-16.451 5.7589998 1.118
-16.441999 5.7600002 1.085
-16.445999 5.7600002 1.054
-16.476999 5.757 1.024
-16.518 5.7529998 0.995
-16.52 5.7529998 0.96399999
-16.527 5.7519999 0.93199998
-16.513 5.7540002 0.89999998
-16.545 5.7509999 0.87
-16.555 5.75 0.838
-16.556999 5.75 0.80699998
-16.573 5.7480001 0.77600002
-16.565001 5.7490001 0.74400002
-16.606001 5.7449999 0.71399999
-16.591999 5.7470002 0.68099999
-16.608999 5.7449999 0.64999998
-16.639999 5.7420001 0.62
-16.660999 5.7399998 0.588
-16.705 5.737 0.55800003
-16.712 5.7360001 0.52600002
-16.740999 5.7329998 0.495
-16.753 5.7319999 0.463
-16.797001 5.7280002 0.433
-16.839001 5.7249999 0.40099999
-16.84 5.724 0.36899999
-16.861 5.723 0.338
-16.882 5.7210002 0.30599999
-16.915001 5.7179999 0.27399999
-16.945 5.7150002 0.242
-16.993 5.711 0.211
-17 5.71 0.178
-17.041 5.7069998 0.146
-17.075001 5.704 0.114
-17.094999 5.7020001 0.082000002
-17.108999 5.7010002 0.048999999
-17.141001 5.698 0.016000001
-16.176001 5.7540002 2.9879999
-16.181999 5.7540002 2.957
-16.174999 5.7550001 2.924
-16.221001 5.75 2.9000001
-16.229 5.75 2.869
-16.243 5.7480001 2.839
-16.275 5.7449999 2.813
-16.254 5.7470002 2.777
-16.280001 5.7449999 2.6860001
-16.282 5.7449999 2.654
-16.284 5.744 2.622
-16.268 5.7459998 2.5880001
-16.27 5.7459998 2.5569999
-16.281 5.7449999 2.526
-16.288 5.744 2.4949999
-16.295 5.743 2.4649999
-16.289 5.744 2.4319999
-16.285 5.744 2.4000001
-16.284 5.744 2.368
-16.287001 5.744 2.336
-16.268999 5.7459998 2.302
-16.278 5.7449999 2.2720001
-16.267 5.7459998 2.2390001
-16.267 5.7459998 2.207
-16.256001 5.7470002 2.174
-16.277 5.7449999 2.145
-16.278999 5.7449999 2.1129999
-16.298 5.743 2.0840001
-16.302 5.7420001 2.053
-16.287001 5.744 2.02
-16.271 5.7449999 1.9859999
-16.294001 5.743 1.957
-16.298 5.743 1.926
-16.309999 5.7420001 1.896
-16.294001 5.743 1.862
-16.313 5.7410002 1.8329999
-16.311001 5.7410002 1.801
-16.323 5.7399998 1.771
-16.326 5.7399998 1.739
-16.34 5.7389998 1.709
-16.318001 5.7410002 1.676
-16.341 5.7389998 1.646
-16.323999 5.7399998 1.613
-16.347 5.7379999 1.584
-16.34 5.7389998 1.551
-16.357 5.737 1.521
-16.349001 5.7379999 1.489
-16.348 5.7379999 1.457
-16.360001 5.737 1.427
-16.363001 5.737 1.396
-16.375 5.7350001 1.365
-16.382999 5.7350001 1.334
-16.4 5.7329998 1.304
-16.407 5.7319999 1.273
-16.389999 5.7340002 1.24
-16.402 5.7329998 1.209
-16.368999 5.7360001 1.176
-16.371 5.7360001 1.1440001
-16.398001 5.7329998 1.114
-16.408001 5.7319999 1.084
-16.407 5.7319999 1.052
-16.433001 5.73 1.022
-16.436001 5.7290001 0.991
-16.448 5.7280002 0.95999998
-16.464001 5.7259998 0.92900002
-16.468 5.7259998 0.898
-16.441 5.7280002 0.86500001
-16.443001 5.7280002 0.833
-16.438999 5.7290001 0.801
-16.441999 5.7280002 0.76999998
-16.427999 5.73 0.73799998
-16.434 5.7290001 0.70700002
-16.438999 5.7280002 0.67500001
-16.452 5.7270002 0.64399999
-16.464001 5.7259998 0.61299998
-16.475 5.7249999 0.58200002
-16.461 5.7259998 0.55000001
-16.469999 5.7259998 0.51899999
-16.462 5.7259998 0.48699999
-16.459 5.7270002 0.45500001
-16.466999 5.7259998 0.42399999
-16.483999 5.724 0.39300001
-16.493999 5.723 0.36199999
-16.5 5.723 0.33000001
-16.499001 5.723 0.29899999
-16.511999 5.7220001 0.26699999
-16.517 5.7210002 0.236
-17.006001 5.677 0.211
-17.009001 5.677 0.178
-17.055 5.6729999 0.146
-17.077999 5.671 0.114
-17.089001 5.6700001 0.082000002
-16.174999 5.724 2.9879999
-16.184999 5.723 2.9579999
-16.205 5.7210002 2.9289999
-16.219 5.7199998 2.9000001
-16.23 5.7189999 2.8699999
-16.243 5.7179999 2.8399999
-16.254999 5.717 2.8099999
-16.261 5.7160001 2.779
-16.27 5.7150002 2.7160001
-16.291 5.7129998 2.688
-16.278 5.7140002 2.654
-16.278999 5.7140002 2.622
-16.280001 5.7140002 2.5899999
-16.266001 5.7150002 2.556
-16.281 5.7129998 2.527
-16.275 5.7140002 2.494
-16.287001 5.7129998 2.464
-16.287001 5.7129998 2.4319999
-16.277 5.7140002 2.3989999
-16.264999 5.7150002 2.3659999
-16.264999 5.7150002 2.3340001
-16.271 5.7140002 2.303
-16.275999 5.7140002 2.2720001
-16.264 5.7150002 2.2390001
-16.285999 5.7129998 2.21
-16.277 5.7129998 2.177
-16.283001 5.7129998 2.1459999
-16.273001 5.7140002 2.1129999
-16.264999 5.7150002 2.0810001
-16.271999 5.7140002 2.05
-16.250999 5.7160001 2.016
-16.257999 5.7150002 1.985
-16.268999 5.7140002 1.955
-16.268999 5.7140002 1.923
-16.261 5.7150002 1.891
-16.267 5.7140002 1.86
-16.266001 5.7140002 1.8279999
-16.26 5.7150002 1.796
-16.257 5.7150002 1.7640001
-16.247 5.7160001 1.732
-16.271999 5.7140002 1.7029999
-16.253 5.7150002 1.67
-16.243999 5.7160001 1.637
-16.252001 5.7150002 1.607
-16.235001 5.717 1.574
-16.247999 5.7160001 1.543
-16.246 5.7160001 1.512
-16.271 5.7140002 1.483
-16.254 5.7150002 1.45
-16.247 5.7160001 1.418
-16.250999 5.7150002 1.387
-16.261999 5.7140002 1.357
-16.246 5.7160001 1.324
-16.268 5.7140002 1.294
-16.266001 5.7140002 1.263
-16.273001 5.7129998 1.232
-16.290001 5.7119999 1.202
-16.287001 5.7119999 1.17
-16.299 5.711 1.14
-16.306 5.71 1.109
-16.323 5.7090001 1.079
-16.326 5.7080002 1.0470001
-16.322001 5.7080002 1.016
-16.319 5.7080002 0.98400003
-16.315001 5.7080002 0.95300001
-16.332001 5.7069998 0.92199999
-16.344 5.7059999 0.89099997
-16.34 5.7059999 0.86000001
-16.357 5.7049999 0.829
-16.353001 5.7049999 0.79799998
-16.379999 5.7020001 0.76700002
-16.341 5.7059999 0.73400003
-16.382 5.7020001 0.70499998
-16.374001 5.7030001 0.67299998
-16.370001 5.7030001 0.64099997
-16.381001 5.7020001 0.61000001
-16.400999 5.6999998 0.57999998
-16.382999 5.7020001 0.54799998
-16.399 5.6999998 0.51700002
-16.415001 5.6989999 0.486
-16.410999 5.6989999 0.454
-16.406 5.6999998 0.42300001
-16.423 5.698 0.39199999
-16.413 5.6989999 0.36000001
-16.424 5.698 0.329
-16.42 5.698 0.29699999
-16.424999 5.698 0.266
-16.431 5.697 0.235
-16.431 5.697 0.20299999
-16.450001 5.6960001 0.17200001
-16.448 5.6960001 0.14
-16.438 5.697 0.109
-16.454 5.6950002 0.077
-16.464001 5.6939998 0.046
-16.459999 5.6950002 0.014
-16.160999 5.6939998 2.9860001
-16.183001 5.6919999 2.9579999
-16.202999 5.6900001 2.9300001
-16.212 5.6890001 2.8989999
-16.222 5.6880002 2.869
-16.247999 5.6849999 2.8410001
-16.267 5.684 2.812
-16.257999 5.684 2.779
-16.271999 5.6830001 2.717
-16.294001 5.6810002 2.6889999
-16.305 5.6799998 2.658
-16.281 5.6820002 2.6229999
-16.283001 5.6820002 2.5910001
-16.283001 5.6820002 2.559
-16.285999 5.6820002 2.5280001
-16.294001 5.6810002 2.497
-16.290001 5.6810002 2.4649999
-16.292 5.6810002 2.4330001
-16.287001 5.6810002 2.401
-16.292 5.6810002 2.3699999
-16.271 5.6830001 2.335
-16.294001 5.6810002 2.306
-16.284 5.6820002 2.273
-16.278999 5.6820002 2.2409999
-16.273001 5.6830001 2.2090001
-16.281 5.6820002 2.178
-16.267 5.6830001 2.145
-16.275 5.6820002 2.1140001
-16.267 5.6830001 2.0810001
-16.267 5.6830001 2.05
-16.274 5.6820002 2.0190001
-16.274 5.6820002 1.987
-16.266001 5.6830001 1.955
-16.274 5.6820002 1.924
-16.26 5.684 1.891
-16.256001 5.684 1.859
-16.268999 5.6830001 1.829
-16.267 5.6830001 1.7970001
-16.273001 5.6820002 1.766
-16.273001 5.6820002 1.735
-16.267 5.6830001 1.7029999
-16.266001 5.6830001 1.671
-16.261 5.6830001 1.6390001
-16.256001 5.6830001 1.607
-16.271 5.6820002 1.577
-16.257 5.6830001 1.545
-16.264 5.6820002 1.5140001
-16.259001 5.6830001 1.482
-16.249001 5.684 1.45
-16.268999 5.6820002 1.42
-16.25 5.6830001 1.387
-16.268999 5.6820002 1.357
-16.27 5.6820002 1.326
-16.274 5.6810002 1.295
-16.25 5.6830001 1.262
-16.239 5.684 1.23
-16.253 5.6830001 1.199
-16.25 5.6830001 1.168
-16.246 5.684 1.136
-16.252001 5.6830001 1.1059999
-16.221001 5.6859999 1.072
-16.209 5.6869998 1.04
-16.219 5.6859999 1.01
-16.197001 5.6880002 0.977
-16.214001 5.6869998 0.94700003
-16.221001 5.6859999 0.91600001
-16.212999 5.6869998 0.88499999
-16.219 5.6859999 0.85399997
-16.211 5.6869998 0.82200003
-16.233999 5.6849999 0.792
-16.246 5.6830001 0.76200002
-16.242001 5.684 0.73000002
-16.245001 5.6830001 0.699
-16.250999 5.6830001 0.66799998
-16.253 5.6830001 0.63700002
-16.254 5.6830001 0.60600001
-16.254999 5.6820002 0.57499999
-16.256001 5.6820002 0.54400003
-16.266001 5.6810002 0.51300001
-16.257999 5.6820002 0.48100001
-16.274 5.6810002 0.45100001
-16.26 5.6820002 0.419
-16.290001 5.6789999 0.389
-16.296 5.678 0.35699999
-16.306999 5.677 0.32600001
-16.292 5.6789999 0.29499999
-16.302999 5.678 0.264
-16.292999 5.6789999 0.23199999
-16.313999 5.677 0.20200001
-16.319 5.6760001 0.17
-16.33 5.6750002 0.139
-16.325001 5.6760001 0.108
-16.325001 5.6760001 0.077
-16.344999 5.6739998 0.045000002
-16.34 5.6739998 0.014
-16.181999 5.6609998 2.99
-16.184999 5.6599998 2.9590001
-16.212 5.658 2.9319999
-16.221001 5.6570001 2.901
-16.243999 5.6550002 2.8729999
-16.264 5.6529999 2.8440001
-16.264999 5.6529999 2.813
-16.296 5.6500001 2.7219999
-16.304001 5.6490002 2.691
-16.292999 5.6500001 2.6570001
-16.278999 5.651 2.6229999
-16.292 5.6500001 2.5929999
-16.302 5.6490002 2.563
-16.292 5.6500001 2.529
-16.277 5.651 2.4949999
-16.294001 5.6500001 2.4660001
-16.298 5.6490002 2.4349999
-16.285 5.6500001 2.401
-16.284 5.6500001 2.369
-16.282 5.651 2.3369999
-16.288 5.6500001 2.306
-16.281 5.651 2.2739999
-16.301001 5.6490002 2.244
-16.289 5.6500001 2.211
-16.295 5.6490002 2.1800001
-16.261999 5.652 2.1440001
-16.27 5.652 2.1140001
-16.274 5.651 2.0829999
-16.278999 5.651 2.0510001
-16.285999 5.6500001 2.0209999
-16.282 5.6500001 1.989
-16.256001 5.652 1.954
-16.266001 5.651 1.924
-16.264999 5.651 1.892
-16.250999 5.652 1.859
-16.268 5.651 1.829
-16.252001 5.652 1.796
-16.275 5.6500001 1.767
-16.264 5.651 1.734
-16.271 5.6500001 1.704
-16.254999 5.652 1.671
-16.278 5.6500001 1.641
-16.27 5.6500001 1.609
-16.247 5.6529999 1.576
-16.280001 5.6490002 1.5470001
-16.257 5.652 1.5140001
-16.263 5.651 1.483
-16.268999 5.6500001 1.452
-16.247999 5.652 1.419
-16.278999 5.6490002 1.39
-16.278 5.6490002 1.358
-16.280001 5.6490002 1.327
-16.264 5.651 1.295
-16.280001 5.6490002 1.2640001
-16.27 5.6500001 1.232
-16.257999 5.651 1.2
-16.259001 5.651 1.169
-16.252001 5.652 1.137
-16.240999 5.6529999 1.105
-16.218 5.6550002 1.072
-16.195999 5.6570001 1.04
-16.167999 5.6599998 1.007
-16.16 5.6599998 0.97500002
-16.127001 5.664 0.94199997
-16.108999 5.665 0.91000003
-16.120001 5.664 0.88
-16.112 5.665 0.84899998
-16.108 5.665 0.81800002
-16.110001 5.665 0.787
-16.115999 5.665 0.75599998
-16.118 5.664 0.72500002
-16.158001 5.6609998 0.69599998
-16.17 5.6589999 0.66500002
-16.254 5.651 0.63700002
-16.252001 5.651 0.60600001
-16.239 5.6529999 0.574
-16.257 5.651 0.54400003
-16.264999 5.6500001 0.51300001
-16.254 5.651 0.48100001
-16.254999 5.651 0.44999999
-16.246 5.652 0.419
-16.245001 5.652 0.38800001
-16.264999 5.6500001 0.35699999
-16.252001 5.651 0.32499999
-16.249001 5.652 0.294
-16.257 5.651 0.26300001
-16.250999 5.651 0.23199999
-16.253 5.651 0.20100001
-16.246 5.652 0.17
-16.245001 5.652 0.138
-16.245001 5.651 0.107
-16.247 5.651 0.075999998
-16.247 5.651 0.045000002
-16.237 5.652 0.014
-16.159 5.632 2.987
-16.219999 5.6259999 2.9660001
-16.231001 5.625 2.9349999
-16.275 5.6199999 2.911
-16.292999 5.619 2.882
-16.312 5.6170001 2.8529999
-16.32 5.6160002 2.822
-16.295 5.618 2.7219999
-16.305 5.6170001 2.691
-16.306999 5.6170001 2.6600001
-16.304001 5.6170001 2.6270001
-16.299 5.618 2.595
-16.296 5.618 2.562
-16.308001 5.6160002 2.5320001
-16.282 5.619 2.497
-16.289 5.618 2.4660001
-16.282 5.619 2.4330001
-16.289 5.618 2.402
-16.297001 5.6170001 2.3710001
-16.306 5.6160002 2.3410001
-16.284 5.618 2.306
-16.299 5.6170001 2.276
-16.284 5.618 2.243
-16.277 5.619 2.21
-16.277 5.619 2.178
-16.283001 5.618 2.1470001
-16.294001 5.6170001 2.1170001
-16.277 5.619 2.0829999
-16.290001 5.6170001 2.053
-16.285999 5.618 2.0209999
-16.278 5.619 1.989
-16.278 5.619 1.957
-16.281 5.618 1.926
-16.27 5.619 1.893
-16.271 5.619 1.862
-16.275999 5.619 1.831
-16.283001 5.618 1.8
-16.281 5.618 1.768
-16.289 5.6170001 1.737
-16.290001 5.6170001 1.706
-16.27 5.619 1.6720001
-16.252001 5.6209998 1.6390001
-16.27 5.619 1.609
-16.26 5.6199999 1.577
-16.254 5.6209998 1.545
-16.257 5.6199999 1.5140001
-16.259001 5.6199999 1.483
-16.261999 5.6199999 1.452
-16.268999 5.619 1.421
-16.261999 5.6199999 1.3890001
-16.268999 5.619 1.358
-16.271999 5.619 1.327
-16.274 5.618 1.296
-16.266001 5.619 1.2640001
-16.283001 5.618 1.234
-16.26 5.6199999 1.201
-16.26 5.6199999 1.169
-16.254999 5.6199999 1.138
-16.259001 5.6199999 1.107
-16.225 5.6230001 1.073
-16.198 5.6259999 1.04
-16.174999 5.6269999 1.008
-16.142 5.6300001 0.97500002
-16.108999 5.6339998 0.94199997
-16.106001 5.6339998 0.91100001
-16.058001 5.638 0.87699997
-16.045 5.6399999 0.84600002
-16.032 5.6409998 0.81400001
-16.018 5.6420002 0.78299999
-16.01 5.6430001 0.75099999
-16.016001 5.6420002 0.72100002
-16.027 5.6409998 0.69099998
-16.034 5.6409998 0.66000003
-16.025 5.6409998 0.62900001
-16.016001 5.6420002 0.59799999
-16.044001 5.6399999 0.56800002
-16.044001 5.6399999 0.537
-16.243 5.6199999 0.51200002
-16.252001 5.619 0.48199999
-16.261999 5.618 0.45100001
-16.263 5.618 0.419
-16.267 5.618 0.38800001
-16.249001 5.619 0.35699999
-16.254999 5.619 0.32600001
-16.256001 5.619 0.29499999
-16.261999 5.618 0.26300001
-16.261999 5.618 0.23199999
-16.252001 5.619 0.20100001
-16.231001 5.6209998 0.17
-16.256001 5.619 0.139
-16.257999 5.618 0.108
-16.247 5.6199999 0.075999998
-16.247 5.6199999 0.045000002
-16.257 5.619 0.014
-16.315001 5.585 2.9820001
-16.327999 5.5830002 2.9519999
-16.315001 5.5840001 2.918
-16.311001 5.585 2.885
-16.305 5.585 2.852
-16.313 5.585 2.8210001
-16.302 5.586 2.724
-16.306 5.585 2.6919999
-16.306 5.585 2.6600001
-16.312 5.5840001 2.6289999
-16.294001 5.586 2.595
-16.299 5.586 2.563
-16.309999 5.585 2.533
-16.309999 5.585 2.5009999
-16.309 5.585 2.4690001
-16.316999 5.5840001 2.438
-16.313999 5.5840001 2.4059999
-16.313 5.5840001 2.3740001
-16.299999 5.585 2.3399999
-16.285999 5.5869999 2.3069999
-16.299 5.585 2.277
-16.305 5.585 2.2460001
-16.301001 5.585 2.214
-16.292999 5.586 2.181
-16.298 5.585 2.1500001
-16.312 5.5840001 2.1199999
-16.289 5.586 2.085
-16.296 5.586 2.0539999
-16.294001 5.586 2.0220001
-16.299 5.585 1.9910001
-16.27 5.5879998 1.957
-16.295 5.586 1.928
-16.27 5.5879998 1.893
-16.283001 5.5869999 1.863
-16.278999 5.5869999 1.831
-16.289 5.586 1.801
-16.285999 5.586 1.7690001
-16.291 5.586 1.738
-16.292999 5.586 1.706
-16.257 5.5890002 1.671
-16.275999 5.5869999 1.642
-16.278 5.5869999 1.61
-16.271999 5.5869999 1.5779999
-16.273001 5.5869999 1.5470001
-16.261999 5.5879998 1.515
-16.271 5.5869999 1.484
-16.268 5.5869999 1.452
-16.275 5.586 1.4220001
-16.268999 5.5869999 1.39
-16.268999 5.5869999 1.358
-16.278 5.586 1.3279999
-16.268 5.5869999 1.296
-16.261 5.5879998 1.2640001
-16.273001 5.586 1.233
-16.289 5.585 1.2029999
-16.275 5.586 1.171
-16.278999 5.586 1.1390001
-16.287001 5.585 1.109
-16.246 5.5890002 1.075
-16.205 5.5929999 1.041
-16.187 5.5949998 1.0089999
-16.139 5.5999999 0.97500002
-16.115999 5.6020002 0.94199997
-16.098 5.6040001 0.91000003
-16.059 5.6069999 0.87699997
-16.052 5.6079998 0.84600002
-16.024 5.6110001 0.81400001
-15.995 5.6139998 0.78200001
-15.972 5.6160002 0.75
-15.949 5.618 0.71799999
-15.93 5.6199999 0.68699998
-15.907 5.6220002 0.65499997
-15.904 5.6230001 0.62400001
-15.915 5.6209998 0.59399998
-15.92 5.6209998 0.56400001
-15.917 5.6209998 0.53299999
-15.922 5.6209998 0.50300002
-15.933 5.6199999 0.472
-15.905 5.6220002 0.44100001
-15.903 5.6230001 0.41
-15.91 5.6220002 0.38
-16.257999 5.5869999 0.35699999
-16.257999 5.5869999 0.32600001
-16.266001 5.586 0.29499999
-16.264 5.5869999 0.264
-16.252001 5.5879998 0.23199999
-16.267 5.586 0.20100001
-16.25 5.5879998 0.17
-16.25 5.5879998 0.139
-16.246 5.5879998 0.108
-16.264999 5.586 0.077
-16.261 5.5869999 0.045000002
-16.256001 5.5869999 0.014
-16.330999 5.5510001 2.697
-16.32 5.552 2.6630001
-16.316999 5.553 2.6300001
-16.320999 5.552 2.599
-16.322001 5.552 2.5669999
-16.308001 5.553 2.533
-16.302 5.5539999 2.5
-16.315001 5.552 2.47
-16.32 5.5510001 2.4389999
-16.304001 5.553 2.405
-16.304001 5.553 2.3729999
-16.306 5.553 2.342
-16.298 5.553 2.309
-16.285999 5.5549998 2.276
-16.290001 5.5539999 2.244
-16.302999 5.553 2.214
-16.289 5.5539999 2.181
-16.292 5.5539999 2.1489999
-16.298 5.553 2.118
-16.299 5.553 2.0869999
-16.283001 5.5549998 2.053
-16.287001 5.5539999 2.0220001
-16.288 5.5539999 1.9910001
-16.289 5.5539999 1.959
-16.289 5.5539999 1.927
-16.299999 5.553 1.897
-16.292 5.5539999 1.865
-16.287001 5.5539999 1.832
-16.274 5.5549998 1.8
-16.289 5.5539999 1.77
-16.308001 5.552 1.74
-16.283001 5.5539999 1.706
-16.302 5.552 1.676
-16.296 5.553 1.6440001
-16.305 5.552 1.613
-16.275999 5.5549998 1.579
-16.275999 5.5549998 1.548
-16.283001 5.5539999 1.517
-16.297001 5.553 1.487
-16.278 5.5549998 1.454
-16.291 5.553 1.423
-16.271999 5.5549998 1.39
-16.282 5.5539999 1.36
-16.290001 5.553 1.329
-16.271 5.5549998 1.296
-16.294001 5.553 1.266
-16.275 5.5549998 1.234
-16.287001 5.5539999 1.2029999
-16.271 5.5549998 1.171
-16.267 5.5560002 1.1390001
-16.283001 5.5539999 1.109
-16.271 5.5549998 1.077
-16.24 5.5580001 1.043
-16.184 5.5640001 1.0089999
-16.156 5.5669999 0.97600001
-16.136999 5.5679998 0.94400001
-16.113001 5.5710001 0.91100001
-16.061001 5.5760002 0.87800002
-16.054001 5.5770001 0.84600002
-16.046 5.5780001 0.815
-15.997 5.5819998 0.78200001
-15.974 5.585 0.75
-15.955 5.5869999 0.71899998
-15.903 5.592 0.68599999
-15.894 5.5929999 0.65499997
-15.866 5.5960002 0.62300003
-15.862 5.5960002 0.59200001
-15.833 5.599 0.56099999
-15.829 5.598 0.52999997
-15.825 5.5999999 0.5
-15.811 5.5999999 0.46900001
-15.817 5.5999999 0.43900001
-15.823 5.599 0.40799999
-15.839 5.5970001 0.37799999
-15.824 5.599 0.347
-15.824 5.599 0.317
-15.842 5.5970001 0.287
-15.846 5.5970001 0.257
-16.275999 5.553 0.233
-16.261999 5.5549998 0.20100001
-16.261999 5.5549998 0.17
-16.247999 5.5560002 0.139
-16.285999 5.552 0.108
-16.254999 5.5549998 0.077
-16.254999 5.5549998 0.045000002
-16.250999 5.5560002 0.014
-16.523001 5.4990001 2.5650001
-16.436001 5.5079999 2.52
-16.396 5.5110002 2.483
-16.398001 5.5110002 2.451
-16.398001 5.5110002 2.4189999
-16.416 5.5089998 2.3889999
-16.398001 5.5110002 2.355
-16.403999 5.5100002 2.323
-16.391001 5.5120001 2.29
-16.372999 5.5139999 2.256
-16.309 5.52 1.899
-16.311001 5.52 1.867
-16.304001 5.52 1.835
-16.304001 5.52 1.803
-16.298 5.5209999 1.771
-16.291 5.5209999 1.739
-16.278999 5.5229998 1.706
-16.306999 5.52 1.677
-16.299999 5.52 1.645
-16.295 5.5209999 1.613
-16.283001 5.5219998 1.58
-16.291 5.5209999 1.55
-16.290001 5.5209999 1.518
-16.282 5.5219998 1.4859999
-16.299 5.52 1.456
-16.284 5.5219998 1.423
-16.296 5.5209999 1.393
-16.290001 5.5209999 1.3609999
-16.292 5.5209999 1.329
-16.280001 5.5219998 1.2970001
-16.271999 5.5229998 1.265
-16.283001 5.5219998 1.235
-16.296 5.52 1.204
-16.264 5.5240002 1.17
-16.290001 5.5209999 1.141
-16.277 5.5219998 1.109
-16.283001 5.5219998 1.0779999
-16.266001 5.5240002 1.045
-16.259001 5.5240002 1.0140001
-16.226 5.5279999 0.98000002
-16.179001 5.5320001 0.94599998
-16.141001 5.5349998 0.91299999
-16.083 5.5409999 0.87900001
-16.055 5.5440001 0.847
-16.037001 5.546 0.815
-16.014 5.5479999 0.78299999
-15.981 5.552 0.75099999
-15.946 5.5549998 0.71799999
-15.924 5.5580001 0.68699998
-15.906 5.559 0.65499997
-15.887 5.5609999 0.62400001
-15.844 5.566 0.59200001
-15.83 5.5669999 0.56099999
-15.796 5.5710001 0.52899998
-15.772 5.573 0.498
-15.754 5.5749998 0.46700001
-15.745 5.5760002 0.43700001
-15.721 5.5780001 0.40599999
-15.727 5.5780001 0.37599999
-15.718 5.5780001 0.345
-15.718 5.5780001 0.315
-15.719 5.5780001 0.285
-15.73 5.5770001 0.255
-15.73 5.5770001 0.22400001
-15.716 5.579 0.19400001
-15.749 5.5749998 0.164
-15.745 5.5749998 0.134
-16.26 5.5229998 0.108
-16.26 5.5229998 0.077
-16.264999 5.5219998 0.046
-16.26 5.5229998 0.014
-16.539 5.4650002 2.5999999
-16.419001 5.4780002 2.55
-16.412001 5.4780002 2.517
-16.415001 5.4780002 2.4860001
-16.412001 5.4780002 2.4530001
-16.419001 5.4770002 2.4219999
-16.415001 5.4780002 2.3889999
-16.408001 5.4780002 2.3570001
-16.412001 5.4780002 2.325
-16.414 5.4780002 2.293
-16.292999 5.4889998 1.2359999
-16.292999 5.4889998 1.204
-16.309999 5.487 1.174
-16.313 5.4860001 1.143
-16.313999 5.4860001 1.1109999
-16.313999 5.4860001 1.08
-16.326 5.4850001 1.049
-16.290001 5.4889998 1.016
-16.277 5.4899998 0.98400003
-16.302 5.4879999 0.954
-16.284 5.4889998 0.921
-16.183001 5.5 0.88499999
-16.106001 5.5079999 0.85000002
-16.063 5.5120001 0.81599998
-16.051001 5.5139999 0.78500003
-15.992 5.52 0.75099999
-15.969 5.5219998 0.72000003
-15.935 5.526 0.68699998
-15.907 5.5289998 0.65600002
-15.894 5.5300002 0.625
-15.861 5.533 0.59299999
-15.837 5.5359998 0.56099999
-15.803 5.539 0.52999997
-15.779 5.5419998 0.49900001
-15.751 5.5450001 0.46700001
-15.732 5.5469999 0.43700001
-15.688 5.5510001 0.405
-15.669 5.553 0.37400001
-15.65 5.5549998 0.34400001
-15.626 5.5580001 0.31299999
-15.621 5.5580001 0.28299999
-15.617 5.5580001 0.25299999
-15.603 5.5599999 0.223
-15.613 5.559 0.193
-15.628 5.5570002 0.163
-15.624 5.5580001 0.133
-15.634 5.5570002 0.103
-15.619 5.5570002 0.071999997
-15.623 5.5570002 0.041999999
-15.619 5.5570002 0.012
-16.523001 5.4349999 2.631
-16.396 5.448 2.5799999
-16.427 5.4450002 2.552
-16.414 5.4460001 2.5179999
-16.412001 5.447 2.4860001
-16.400999 5.448 2.4519999
-16.41 5.447 2.421
-16.415001 5.4460001 2.3900001
-16.422001 5.4450002 2.359
-16.436001 5.4439998 2.329
-16.077 5.48 0.78600001
-16.023001 5.4860001 0.75300002
-15.998 5.4879999 0.72100002
-15.967 5.4910002 0.68900001
-15.924 5.4959998 0.65700001
-15.9 5.4980001 0.625
-15.872 5.5009999 0.59299999
-15.838 5.5050001 0.56199998
-15.82 5.507 0.53100002
-15.776 5.5120001 0.49900001
-15.757 5.5139999 0.46799999
-15.739 5.5149999 0.43700001
-15.715 5.5180001 0.40599999
-15.676 5.5219998 0.375
-15.637 5.526 0.34400001
-15.633 5.527 0.31299999
-15.603 5.5300002 0.28299999
-15.57 5.533 0.252
-15.566 5.5339999 0.222
-15.536 5.5370002 0.192
-15.517 5.539 0.162
-15.542 5.5359998 0.132
-15.547 5.5349998 0.102
-15.523 5.5380001 0.071999997
-15.528 5.5380001 0.041999999
-15.533 5.5370002 0.012
-16.500999 5.4060001 2.6600001
-16.393 5.4169998 2.612
-16.415001 5.415 2.5829999
-16.431 5.4130001 2.553
-16.429001 5.4130001 2.5209999
-16.431 5.4130001 2.4890001
-16.424999 5.414 2.4560001
-16.424 5.414 2.424
-16.417999 5.414 2.391
-16.441 5.4120002 2.362
-15.992 5.4580002 0.66000003
-15.946 5.4629998 0.62699997
-15.893 5.4679999 0.59399998
-15.86 5.4720001 0.56300002
-15.821 5.4759998 0.53100002
-15.793 5.4790001 0.49900001
-15.769 5.4819999 0.46799999
-15.746 5.4840002 0.43700001
-15.697 5.4889998 0.40599999
-15.683 5.4910002 0.375
-15.654 5.494 0.34400001
-15.639 5.4959998 0.31400001
-15.595 5.5 0.28299999
-15.587 5.5009999 0.25299999
-15.562 5.5040002 0.222
-15.538 5.506 0.192
-15.512 5.5089998 0.162
-15.479 5.513 0.131
-15.46 5.5149999 0.101
-15.445 5.5159998 0.071000002
-15.44 5.5170002 0.041999999
-15.436 5.5170002 0.012
-16.497 5.375 2.6930001
-16.408001 5.3850002 2.6470001
-16.424 5.3829999 2.6170001
-16.431999 5.382 2.586
-16.445999 5.3800001 2.556
-16.423 5.3829999 2.5209999
-16.42 5.3829999 2.4879999
-16.427 5.382 2.457
-16.440001 5.3800001 2.427
-16.434 5.381 2.3940001
-15.886 5.4390001 0.53299999
-15.844 5.4439998 0.50099999
-15.8 5.4489999 0.46900001
-15.766 5.4520001 0.43799999
-15.738 5.4549999 0.40700001
-15.699 5.4590001 0.37599999
-15.675 5.4619999 0.345
-15.641 5.4650002 0.31400001
-15.612 5.4679999 0.28299999
-15.584 5.4710002 0.25299999
-15.549 5.4749999 0.222
-15.535 5.4770002 0.192
-15.518 5.4780002 0.162
-15.476 5.4829998 0.131
-15.471 5.4840002 0.102
-15.442 5.487 0.071999997
-15.408 5.4899998 0.041999999
-15.398 5.4910002 0.012
-16.51 5.342 2.76
-16.479 5.3449998 2.723
-16.421 5.3520002 2.6819999
-16.440001 5.3499999 2.652
-16.444 5.349 2.6210001
-16.434 5.3499999 2.5869999
-16.437 5.3499999 2.5550001
-16.426001 5.3509998 2.5220001
-16.438 5.3499999 2.4909999
-16.427 5.3509998 2.457
-15.919 5.4050002 0.442
-15.777 5.4200001 0.40799999
-15.736 5.4250002 0.377
-15.692 5.4289999 0.345
-15.653 5.434 0.31400001
-15.623 5.4369998 0.28400001
-15.594 5.4400001 0.25299999
-15.566 5.4429998 0.223
-15.551 5.4450002 0.192
-15.522 5.448 0.162
-15.488 5.4520001 0.132
-15.473 5.4530001 0.102
-15.453 5.4549999 0.071999997
-15.413 5.46 0.041999999
-15.395 5.4619999 0.012
-16.562 5.3039999 2.8010001
-16.476 5.3140001 2.7550001
-16.422001 5.3200002 2.7149999
-16.447001 5.3169999 2.6860001
-16.462 5.3150001 2.6559999
-16.441 5.3179998 2.6210001
-16.445999 5.3169999 2.589
-16.448999 5.3169999 2.5580001
-16.440001 5.3179998 2.5239999
-16.434999 5.3179998 2.4909999
-15.706 5.3969998 0.31600001
-15.683 5.4000001 0.285
-15.636 5.4050002 0.25400001
-15.605 5.408 0.223
-15.561 5.4130001 0.193
-15.52 5.4180002 0.162
-15.494 5.421 0.132
-15.485 5.4219999 0.102
-15.455 5.4250002 0.071999997
-15.426 5.428 0.041999999
-15.412 5.4299998 0.012
-16.462999 5.2839999 2.786
-16.441999 5.2859998 2.7509999
-16.452 5.2849998 2.72
-16.445999 5.2859998 2.687
-16.466999 5.283 2.658
-16.465 5.283 2.625
-16.452 5.2849998 2.5910001
-16.452999 5.2849998 2.559
-16.461 5.2839999 2.5280001
-15.631 5.3759999 0.19400001
-15.592 5.3800001 0.163
-15.546 5.3860002 0.133
-15.501 5.3909998 0.102
-15.457 5.3959999 0.071999997
-15.432 5.3990002 0.041999999
-15.398 5.402 0.012
-16.441 5.2550001 2.7839999
-16.445999 5.2540002 2.7520001
-16.461 5.2519999 2.7219999
-16.455 5.2529998 2.6889999
-16.455999 5.2529998 2.6570001
-16.452 5.2529998 2.6240001
-16.455999 5.2529998 2.592
-16.478001 5.25 2.563
-15.535 5.3569999 0.072999999
-15.467 5.3639998 0.041999999
-15.429 5.369 0.012
-16.558001 5.2090001 2.9000001
-16.459 5.2210002 2.7869999
-16.445 5.2220001 2.753
-16.450001 5.2220001 2.721
-16.451 5.2220001 2.6889999
-16.457001 5.2210002 2.658
-16.459999 5.2199998 2.6259999
-16.483 5.2179999 2.5969999
-16.539 5.1799998 2.931
-16.451 5.1900001 2.8840001
-16.465 5.1880002 2.789
-16.465 5.1880002 2.756
-16.469999 5.1880002 2.7249999
-16.472 5.1869998 2.6930001
-16.469 5.1880002 2.6600001
-16.479 5.1859999 2.6289999
-16.476 5.1550002 2.8889999
-16.476999 5.1550002 2.7909999
-16.476999 5.1550002 2.7590001
-16.472 5.1560001 2.7260001
-16.485001 5.1539998 2.6949999
-16.493 5.1529999 2.664
-16.479 5.1220002 2.7920001
-16.48 5.1220002 2.76
-16.485001 5.1209998 2.7290001
-16.488001 5.0890002 2.7950001
-16.464001 5.092 2.7579999
-17.006001 5.8249998 0.412
-17.052 5.8210001 0.34299999
-17.049999 5.8200002 0.27399999
-17.077 5.8169999 0.204
