ply
format ascii 1.0
comment PCL generated
element vertex 668
property float x
property float y
property float z
element camera 1
property float view_px
property float view_py
property float view_pz
property float x_axisx
property float x_axisy
property float x_axisz
property float y_axisx
property float y_axisy
property float y_axisz
property float z_axisx
property float z_axisy
property float z_axisz
property float focal
property float scalex
property float scaley
property float centerx
property float centery
property int viewportx
property int viewporty
property float k1
property float k2
end_header
-5.3119998 10.995 0.090999998
-5.2398214 10.985553 0.051288888
-5.1446028 10.966398 0.053068973
-5.0630689 10.963534 0.033741381
-5.8197145 11.097143 0.051000003
-5.7446661 11.090777 0.042037036
-5.3101001 11.036201 0.089400001
-5.2583742 11.042559 0.044722218
-5.111167 11.036834 0.068333328
-5.0537329 11.045881 0.050074641
-4.9984999 11.059 0.0060000001
-6.7096 11.174601 0.0070000002
-6.6493969 11.162743 0.046246581
-6.5476823 11.151533 0.049242426
-6.446631 11.152882 0.051013164
-6.3883753 11.169625 0.088375002
-6.1130476 11.171524 0.051428568
-6.0581532 11.165849 0.050138887
-5.9481635 11.138896 0.04792539
-5.8523173 11.115852 0.047700007
-5.735465 11.136836 0.049631588
-5.6950002 11.199 0.050999999
-5.2543001 11.1136 0.063100003
-5.1723571 11.111714 0.049928572
-6.7093005 11.2578 0.0059999996
-6.6640925 11.246812 0.054578122
-6.5009999 11.294 0.079000004
-6.4350758 11.250512 0.040923089
-6.3867774 11.249 0.082666673
-6.1050529 11.244843 0.04689474
-6.0919681 11.254534 0.048031252
-5.8164001 11.2918 0.040599998
-5.731854 11.251912 0.045911767
-6.7076674 11.317667 0
-6.6471992 11.316626 0.045424998
-6.5470867 11.313131 0.044391308
-6.4650002 11.308523 0.056000005
-6.1022496 11.315749 0.078749999
-6.0743408 11.346092 0.049295455
-5.9550004 11.349167 0.048111111
-5.8586669 11.311667 0.079000004
-5.7259998 11.339 0.094999999
-5.3100004 10.996334 0.15900001
-5.2377501 10.986876 0.15160418
-5.1550665 10.977846 0.13524446
-5.8117504 11.098 0.13349999
-5.7342401 11.09396 0.15140001
-5.6810002 11.097 0.111
-5.4060001 11.056999 0.1955
-5.3451509 11.039589 0.15303749
-5.2787495 11.01225 0.14500001
-5.1436419 11.048926 0.15389554
-5.0862002 11.0782 0.12360001
-6.61485 11.164351 0.11754999
-6.5536332 11.155428 0.15136586
-6.4518504 11.139688 0.14895003
-6.3524575 11.149163 0.15217724
-6.2913337 11.146999 0.18633334
-6.10885 11.173949 0.15260001
-6.0562358 11.165582 0.14794545
-5.9464588 11.14126 0.14722949
-5.8521576 11.119236 0.15025494
-5.7397971 11.137265 0.1483936
-5.6950002 11.102 0.107
-5.3387151 11.122713 0.15803574
-5.2601428 11.126072 0.14628573
-5.1633339 11.109934 0.15513335
-6.6132851 11.245715 0.11733334
-6.5724993 11.252482 0.16271996
-6.4165001 11.296875 0.15800001
-6.3494124 11.249825 0.14417392
-6.2962503 11.2335 0.19125001
-6.1059999 11.244358 0.14828572
-6.0931869 11.254375 0.14703125
-5.8179998 11.297 0.13925001
-5.7381845 11.270075 0.14959259
-6.6201997 11.3058 0.10700001
-6.5554371 11.308689 0.14740625
-6.4663525 11.306235 0.14935294
-6.3790002 11.3 0.17200001
-6.1030002 11.314 0.1435
-6.0745449 11.347291 0.15019999
-5.9623752 11.351188 0.14912501
-5.8612857 11.316572 0.15757142
-5.7302504 11.346251 0.15000001
-5.3199997 10.997667 0.24033335
-5.2533693 10.989264 0.2276842
-5.1929998 10.991 0.205
-5.7415004 11.0955 0.23700002
-5.4375854 11.051132 0.25358495
-5.3535104 11.01885 0.2504468
-5.2478738 11.03752 0.25464779
-5.1887698 11.053845 0.21230771
-6.5204411 11.161147 0.22335294
-6.4546957 11.143737 0.25201273
-6.3521271 11.132127 0.24952383
-6.2597141 11.144235 0.25936368
-6.1270633 11.182187 0.2460625
-6.0499063 11.165509 0.24574605
-5.9445391 11.142659 0.24552
-5.8524995 11.123126 0.24995165
-5.7438593 11.129511 0.24951081
-5.4296446 11.131516 0.25906456
-5.3585501 11.14005 0.23589997
-5.2461047 11.11979 0.25884208
-5.1883335 11.105001 0.22133335
-6.5242052 11.252359 0.2227692
-6.4743958 11.256938 0.26437503
-6.3502917 11.291499 0.25254166
-6.2591014 11.239635 0.24953339
-6.1093845 11.247115 0.25538459
-6.0915656 11.25122 0.24330436
-5.7346888 11.266275 0.25148273
-6.5179996 11.304 0.22175001
-6.4490719 11.302572 0.24378574
-6.1057501 11.3115 0.25075001
-6.0762658 11.351633 0.24685711
-5.9674006 11.356267 0.25126666
-5.852077 11.315078 0.2507692
-5.7179999 11.322001 0.21599999
-5.7182002 11.092 0.34
-5.5260305 11.067407 0.36440626
-5.4536376 11.044501 0.34775856
-5.3469748 11.036826 0.34834999
-5.287909 11.062182 0.3167727
-6.4256611 11.155801 0.33200005
-6.3578486 11.133834 0.35836995
-6.2523441 11.121036 0.34358186
-6.1668038 11.14059 0.3601819
-6.0468841 11.166425 0.34855771
-5.9499593 11.147717 0.34914291
-5.850132 11.12455 0.3479
-5.7432075 11.123304 0.35125613
-5.6939998 11.13 0.39199999
-5.5299096 11.149682 0.36481819
-5.4630008 11.162577 0.33569235
-5.3365669 11.133867 0.35769996
-5.2808003 11.1174 0.32080001
-6.4300013 11.254363 0.33076361
-6.3662558 11.268278 0.36206979
-6.2436671 11.279278 0.35566667
-6.1316667 11.247517 0.34496972
-6.0959229 11.263077 0.34900004
-5.7372088 11.266501 0.35095835
-5.6989999 11.284 0.38100001
-6.3585 11.3055 0.31449997
-6.2820001 11.305 0.38999999
-6.1025 11.32325 0.34575
-6.0745583 11.355269 0.34984627
-5.9615002 11.35693 0.34900004
-5.8443084 11.31577 0.35238463
-5.7296667 11.317667 0.34133333
-6.2470002 11.097 0.48824999
-6.1397996 11.096133 0.4580667
-6.0650001 11.0958 0.4844
-5.7230005 11.097667 0.45366666
-5.617909 11.087273 0.47063634
-5.5501895 11.069536 0.45093104
-5.4464869 11.048571 0.4505271
-5.3818698 11.058653 0.41978255
-6.3343277 11.146297 0.43746278
-6.2575827 11.119164 0.45471644
-6.1388459 11.119596 0.44180766
-6.0527453 11.153176 0.45515868
-5.9481678 11.153167 0.44885191
-5.8498302 11.133389 0.4477967
-5.7476807 11.12509 0.44792309
-5.6399374 11.125627 0.46899998
-5.5541873 11.175187 0.43699998
-5.4401293 11.151161 0.46754828
-5.380424 11.135884 0.42792308
-6.3349347 11.24649 0.4390679
-6.2640629 11.268593 0.464625
-6.1419325 11.271566 0.45049998
-6.0970006 11.276 0.43757144
-5.727479 11.262783 0.44578257
-5.6950002 11.276 0.42399999
-5.5684996 11.2005 0.46200001
-5.4190001 11.214 0.46200001
-6.103334 11.323668 0.46033332
-6.0743265 11.358705 0.44648269
-5.9569998 11.357937 0.44999999
-5.8358335 11.313499 0.45166665
-5.7686667 11.306167 0.43833333
-6.2267141 11.097286 0.55314291
-6.1423502 11.0934 0.55080003
-6.042799 11.09236 0.55707997
-5.9835 11.092199 0.5808
-5.6352816 11.086102 0.55369234
-5.5472164 11.070054 0.55012161
-5.4776669 11.072001 0.5181905
-6.2435122 11.140903 0.54627526
-6.1530795 11.114104 0.55205268
-6.0386972 11.125566 0.53673905
-5.9518824 11.144118 0.55458814
-5.8523903 11.137594 0.55135596
-5.7534347 11.126168 0.54647893
-5.6692395 11.116599 0.54271996
-5.5222397 11.151679 0.57336003
-5.471622 11.142756 0.53427017
-6.2432899 11.241909 0.54750913
-6.1486759 11.269356 0.55594116
-6.09725 11.275249 0.53100002
-5.7338753 11.282624 0.53862506
-5.678 11.263 0.59399998
-5.5481672 11.209666 0.5468334
-6.1044998 11.311875 0.54799998
-6.0750284 11.354805 0.54769439
-5.9605837 11.365168 0.54825002
-5.8410678 11.318066 0.55273336
-5.7695718 11.307429 0.56657147
-6.2060003 11.097 0.61250001
-6.1380796 11.090878 0.64028001
-6.0541229 11.090487 0.65143901
-5.9551191 11.087951 0.65847629
-5.8862858 11.084858 0.68200004
-5.7142005 11.0964 0.65170002
-5.642313 11.085814 0.64683336
-5.5750952 11.081239 0.62195235
-6.2083335 11.174667 0.602
-6.1534991 11.138743 0.64914095
-6.0389524 11.107095 0.64376187
-5.9416728 11.130308 0.64373082
-5.8496914 11.142145 0.64489084
-5.7533989 11.123624 0.64784437
-5.6501307 11.117435 0.65573907
-5.5696602 11.149447 0.64297867
-6.1375003 11.247934 0.64893317
-6.0872498 11.282125 0.65912497
-5.9224997 11.211 0.68050003
-5.7231669 11.280334 0.66883337
-5.6713333 11.259111 0.65988898
-5.5549998 11.204666 0.61700004
-6.1057777 11.341557 0.65555555
-6.074451 11.356125 0.64885914
-5.9579344 11.365802 0.65186661
-5.8377337 11.323999 0.65386665
-5.7597499 11.308584 0.648
-6.1195002 11.095 0.71850002
-6.0455999 11.088598 0.74611998
-5.9472346 11.084249 0.75107807
-5.8624277 11.080918 0.75365299
-5.7527003 11.087999 0.73999995
-5.6712503 11.092052 0.71759999
-6.109591 11.159 0.72877288
-6.0595713 11.14198 0.75630605
-5.9480834 11.125418 0.74058336
-5.832572 11.125607 0.74292862
-5.756824 11.117549 0.75214994
-5.6575618 11.144632 0.73415786
-6.1093941 11.250103 0.74957895
-6.0932899 11.250837 0.75074196
-5.8829999 11.209 0.713
-5.7146926 11.261771 0.75300008
-5.6747141 11.231288 0.74307138
-6.106308 11.330539 0.74807698
-6.0757098 11.361063 0.74891138
-5.9550009 11.367923 0.75215387
-5.834857 11.325429 0.7536428
-5.7475233 11.314095 0.7323333
-6.0148005 11.0864 0.82079995
-5.9411469 11.082539 0.84829253
-5.8533015 11.080284 0.85567915
-6.1138339 11.187834 0.85000008
-6.0519609 11.169118 0.84958839
-5.9496679 11.139584 0.85749996
-5.831531 11.12172 0.85399997
-5.7365899 11.144467 0.85173345
-5.6880002 11.171 0.82300001
-6.1101847 11.245368 0.85189468
-6.0933342 11.259696 0.84493941
-5.7159238 11.250175 0.84855777
-5.6977143 11.258429 0.84285718
-6.1060004 11.3399 0.8538
-6.0782108 11.359543 0.84853947
-5.9518676 11.365602 0.85300004
-5.8397341 11.329933 0.85266662
-5.7402177 11.308867 0.84626073
-5.9283996 11.0816 0.91340011
-5.8500009 11.077417 0.94238168
-6.1133809 11.183907 0.95128578
-6.0527115 11.182262 0.95289481
-5.9486318 11.154053 0.95207906
-5.8473477 11.135956 0.95467395
-5.7390323 11.144618 0.9510873
-5.698 11.143 0.93800002
-6.1082635 11.241684 0.95031565
-6.087625 11.25505 0.94932508
-5.7167816 11.250546 0.95038182
-5.6923332 11.238001 0.93650001
-6.1048188 11.345 0.95509088
-6.0738764 11.36132 0.94870365
-5.9591994 11.370199 0.95309991
-5.8560672 11.335069 0.94786674
-5.7460003 11.311876 0.94970822
-5.6919999 11.301 0.93199998
-6.0865002 11.400499 0.97500002
-5.8298006 11.086801 1.0031999
-6.1140771 11.181232 1.0482694
-6.0530519 11.1821 1.0492587
-5.953042 11.160418 1.0512291
-5.8481507 11.135453 1.05065
-5.7361712 11.147025 1.0497127
-6.1093469 11.246058 1.0517501
-6.0922594 11.262444 1.0482591
-5.716846 11.255328 1.0482692
-5.6948895 11.237333 1.0433334
-6.1058006 11.334535 1.0558667
-6.0772929 11.363968 1.0481693
-5.9669166 11.372001 1.0515
-5.8560839 11.334499 1.0506667
-5.7552099 11.311579 1.0538422
-5.6950002 11.303 1.006
-6.0864005 11.401 1.0608
-6.1145239 11.186334 1.1520953
-6.0555387 11.182748 1.1466924
-5.9476795 11.159849 1.1467735
-5.8556948 11.138838 1.1507905
-5.7418113 11.144644 1.1485471
-5.6989999 11.19 1.1440001
-6.1111026 11.243121 1.1524895
-6.0953593 11.269759 1.1518002
-5.7161717 11.250481 1.1505861
-5.6953998 11.280801 1.1672
-6.1075554 11.334333 1.1398889
-6.0792356 11.364634 1.155838
-5.9682665 11.375001 1.1435335
-5.8378344 11.326416 1.1500833
-5.7491112 11.311444 1.145611
-5.6946669 11.301001 1.152
-6.0565 11.400499 1.148
-6.1156673 11.189335 1.2507085
-6.0511789 11.183821 1.24888
-5.9522223 11.16339 1.2490555
-5.851944 11.137546 1.2472181
-5.7427888 11.143003 1.2500708
-5.6976671 11.160666 1.2066667
-6.1135917 11.240735 1.2511427
-6.0895562 11.253037 1.2534815
-5.7164917 11.253246 1.2526492
-5.6955004 11.271833 1.2713333
-6.1069999 11.33395 1.2536
-6.0804477 11.361895 1.2498953
-5.9595342 11.375333 1.2470002
-5.8250003 11.321917 1.2492499
-5.7476678 11.311734 1.2380668
-5.6970005 11.301001 1.251
-6.0811667 11.401335 1.2403334
-6.1129088 11.190272 1.3516817
-6.0473351 11.185743 1.3489608
-5.9482327 11.165323 1.3503394
-5.8521085 11.139601 1.3493637
-5.7408199 11.142675 1.3459262
-6.1137009 11.24865 1.349088
-6.0819135 11.243565 1.3455217
-5.9460001 11.203 1.347
-5.7165375 11.252517 1.3535773
-5.6984997 11.2365 1.316
-6.1071429 11.335667 1.3490477
-6.0774188 11.362336 1.3479192
-5.9571543 11.378153 1.346923
-5.8262501 11.321875 1.3399999
-5.7477007 11.310349 1.3508
-5.6995001 11.3015 1.3510001
-6.082818 11.402547 1.3436365
-6.1168418 11.192422 1.4453158
-6.0440221 11.185399 1.4479111
-5.9492593 11.170053 1.4500184
-5.8528771 11.142918 1.4479591
-5.7430005 11.141907 1.450179
-5.6939998 11.168 1.419
-6.113328 11.245372 1.4474331
-6.0797729 11.227818 1.4407272
-5.948 11.204 1.444
-5.7199111 11.256392 1.4463573
-5.6915002 11.26775 1.45775
-6.1094785 11.336957 1.4503045
-6.077661 11.360129 1.4471288
-5.9522734 11.378636 1.4458181
-5.8307142 11.32243 1.4511428
-5.7468576 11.309573 1.4478571
-6.1080008 11.403 1.4646667
-6.0820003 11.404715 1.4525001
-6.1130009 11.192533 1.5396
-6.0483575 11.188214 1.5536904
-5.9500012 11.173904 1.5485623
-5.8482132 11.139803 1.5456229
-5.746665 11.140871 1.5485481
-6.1155086 11.245999 1.5466141
-6.0728936 11.225787 1.5440361
-5.9685001 11.202499 1.5244999
-5.7223067 11.251098 1.5483229
-5.6972499 11.2775 1.56725
-6.1080718 11.333251 1.545036
-6.0815263 11.360847 1.5519831
-5.9701252 11.384251 1.5508749
-5.8528328 11.335083 1.5519168
-5.7427058 11.307707 1.5485295
-6.105 11.405 1.5549999
-6.0738745 11.404061 1.5500624
-6.1178184 11.194364 1.6454544
-6.0520439 11.190937 1.6470217
-5.9560461 11.177661 1.6491693
-5.8554835 11.1408 1.6478333
-5.7468123 11.142407 1.6478873
-6.1109996 11.252925 1.6500496
-6.0733547 11.222901 1.6428387
-5.7230139 11.257699 1.6494285
-5.6954999 11.296 1.6619999
-6.1086469 11.339088 1.6523234
-6.084733 11.357511 1.6458
-5.969583 11.382 1.65
-5.8464441 11.333778 1.6432222
-5.7461996 11.305735 1.6504
-6.1009998 11.406 1.651
-6.078227 11.405455 1.6564999
-5.7449999 11.091 1.799
-6.1136255 11.190876 1.7435
-6.0441556 11.188955 1.7485557
-5.9495287 11.178982 1.7495093
-5.8515553 11.137506 1.7454603
-5.7467875 11.139194 1.7464757
-6.1103239 11.238973 1.7498378
-6.065167 11.217601 1.754867
-5.9245 11.203 1.766
-5.7197051 11.253376 1.7487704
-5.6870003 11.2905 1.7425001
-6.1068635 11.349545 1.7447273
-6.0854006 11.360351 1.7486
-5.9712858 11.385858 1.7477144
-5.8404999 11.325335 1.7528334
-5.7456665 11.30538 1.743238
-6.1020002 11.405 1.7130001
-6.0800004 11.406428 1.7506191
-6.1059999 11.1965 1.85
-6.0384727 11.189029 1.85025
-5.9447012 11.177043 1.84834
-5.8504453 11.140501 1.849315
-5.7425275 11.135274 1.8528774
-5.6963339 11.175667 1.8813334
-6.1133895 11.241472 1.8535279
-6.066514 11.217057 1.8474287
-5.947 11.205833 1.8605001
-5.9000001 11.206 1.885
-5.7212534 11.255193 1.8545077
-5.6949997 11.288 1.8256668
-6.1046247 11.335375 1.851125
-6.085844 11.363593 1.8430002
-5.9654617 11.386001 1.8440002
-5.8203335 11.316 1.8576667
-5.7506161 11.304539 1.8451539
-6.1034999 11.4165 1.8345001
-6.0660458 11.407954 1.8454547
-5.9959998 11.4 1.883
-5.9337897 11.065579 1.9736581
-5.8504186 11.055343 1.9748003
-5.7858005 11.091 1.9458001
-6.1082001 11.1966 1.9497999
-6.0367193 11.190188 1.9510002
-5.945807 11.174228 1.9372257
-5.8516769 11.132467 1.9432578
-5.740736 11.142982 1.9497122
-6.1125832 11.247946 1.9499441
-6.0678444 11.209875 1.9503438
-5.9419999 11.2085 1.9398751
-5.8844004 11.246401 1.9802001
-5.7225261 11.252375 1.9495083
-5.6962004 11.276001 1.9566001
-6.104445 11.336445 1.9540001
-6.0884452 11.362186 1.9436666
-5.9601669 11.382334 1.9236667
-5.8062496 11.310249 1.9449999
-5.7444625 11.303155 1.9475386
-6.0869999 11.415301 1.9483999
-6.039 10.996 2.072
-5.9487453 10.973199 2.0710545
-5.8529577 10.967861 2.0673749
-6.0120001 11.07 2.0209999
-5.9604058 11.036567 2.0395942
-5.8413196 11.035013 2.0442235
-5.7210002 11.095 2.043
-6.1073337 11.196667 2.0560002
-6.0256925 11.181309 2.0437694
-5.9562502 11.150469 2.0568125
-5.8501315 11.130921 2.0386577
-5.7382555 11.142746 2.0469842
-6.1135144 11.245457 2.0447996
-6.0697818 11.217062 2.0465002
-5.968667 11.210001 2.0413332
-5.8864284 11.247571 2.0281429
-5.6960001 11.2745 2.0700002
-6.1064625 11.339617 2.052
-6.0928802 11.362201 2.04848
-5.961 11.378 2.0380001
-5.7476249 11.3045 2.0506251
-6.1046672 11.41 2.0446668
-6.0956664 11.413666 2.0568333
-6.0099998 10.875334 2.1903334
-5.9488792 10.874721 2.1754999
-5.8636003 10.872244 2.1703339
-6.0040002 10.946429 2.1700001
-5.963727 10.938936 2.134037
-5.8480368 10.943462 2.1398308
-5.79075 10.983624 2.14575
-6.0096664 11.072668 2.1696668
-5.9874163 11.052918 2.1478057
-5.8361769 11.03647 2.1419806
-5.7596979 11.071698 2.1585755
-6.032917 11.186916 2.1416669
-5.9552855 11.152477 2.152333
-5.8587813 11.136 2.1440315
-5.738893 11.143914 2.1416628
-6.1130009 11.245724 2.1515284
-6.0574765 11.214523 2.1512382
-5.9216003 11.231 2.1554
-5.8870001 11.27 2.1359999
-5.7252736 11.244725 2.1467099
-6.1083684 11.332001 2.1430001
-6.0928001 11.371551 2.1564996
-5.9449997 11.362 2.1470001
-5.8179998 11.309 2.105
-5.7546668 11.309668 2.1533334
-6.1009998 11.41 2.1110001
-6.0111113 10.788112 2.2783334
-5.9467807 10.779625 2.2788124
-5.8718758 10.775594 2.2759376
-6.0088124 10.849324 2.2574058
-5.9538999 10.831868 2.231034
-5.8619757 10.843629 2.2455311
-6.0060906 10.949046 2.2551823
-5.9886312 10.960316 2.2455261
-5.8487906 10.947389 2.2471776
-6.0048003 11.038199 2.2217999
-5.9889336 11.043067 2.2479334
-5.8466763 11.033059 2.2451472
-5.7588749 11.095124 2.2518749
-5.9557495 11.147277 2.2539723
-5.8460364 11.114481 2.256
-5.7439847 11.140068 2.2481573
-6.1137366 11.248474 2.2519996
-6.0692992 11.217799 2.2505
-5.9601669 11.212833 2.2593334
-6.1062355 11.33953 2.2574706
-6.0910716 11.367214 2.2355001
-5.9405003 11.355499 2.24
-6.1020002 11.411 2.2265
-6.0185719 10.686001 2.3898573
-5.9469647 10.685538 2.3789644
-5.8825202 10.679319 2.3780794
-6.1139998 10.738 2.388
-6.0195441 10.747066 2.3537176
-5.9513984 10.733607 2.3328731
-5.8725514 10.747475 2.3445137
-6.0162578 10.848314 2.3477428
-5.9716673 10.878668 2.3629999
-5.860013 10.846731 2.3467908
-6.0061998 10.9224 2.3383
-5.9887266 10.95791 2.3388183
-5.857513 10.942366 2.3419266
-5.9836669 11.015667 2.3076668
-5.8547144 11.052286 2.3344285
-6.0273333 11.191584 2.3483334
-5.9460006 11.141401 2.3533499
-5.8531427 11.112165 2.3499522
-6.1166401 11.252443 2.3512223
-6.0611906 11.210143 2.3532858
-5.9604001 11.2068 2.3458002
-6.0960712 11.367357 2.3383572
-6.088222 11.412889 2.3464444
-6.0299997 10.585999 2.4836252
-5.9450712 10.586643 2.4828572
-5.884429 10.578572 2.4837146
-6.0287495 10.649645 2.4498756
-5.9509273 10.637386 2.4356709
-5.8815131 10.650661 2.4506621
-6.0242782 10.754836 2.45
-5.9083328 10.735334 2.4773335
-5.869782 10.748726 2.4481444
-6.0150957 10.832952 2.4373333
-5.9824996 10.872 2.4402502
-5.8654566 10.84024 2.4400871
-5.9686661 10.912001 2.4240003
-5.8692865 10.919572 2.4205716
-5.9428658 11.136374 2.4486117
-6.0567584 11.220827 2.4523106
-5.9836254 11.203501 2.4438751
-6.0217147 10.491714 2.5925713
-5.9371257 10.487125 2.5847082
-5.8977499 10.482 2.5855
-6.0367584 10.548985 2.5504358
-5.9441233 10.54107 2.5454051
-5.8891535 10.554018 2.5537939
-6.0391212 10.65017 2.5467319
-5.9122 10.6384 2.5606
-5.8803725 10.651027 2.5548847
-6.0266433 10.742573 2.539928
-5.9261246 10.746875 2.573875
-5.8765426 10.73837 2.547087
-6.0089998 10.8195 2.5075002
-5.9320002 10.828667 2.5556669
-5.8831668 10.818001 2.5255001
-5.8969998 10.902 2.5009999
-6.0303335 10.392 2.6943336
-5.9465294 10.390647 2.6882942
-6.0436711 10.4539 2.6556814
-5.936317 10.445374 2.6490469
-5.8931508 10.46391 2.651243
-6.0532498 10.542674 2.6497111
-5.9085002 10.545201 2.6545999
-5.8913522 10.553791 2.6458309
-6.0403094 10.638448 2.6410344
-5.9263639 10.660001 2.6477273
-5.8857522 10.645554 2.6420145
-6.0223331 10.717001 2.6110001
-5.9360003 10.730715 2.6412859
-5.8918581 10.719858 2.6198573
-6.1069999 10.246 2.7950001
-6.0526004 10.2778 2.7880001
-5.9417496 10.290875 2.7901247
-6.1149998 10.3405 2.779
-6.0503922 10.36084 2.7545426
-5.941071 10.349437 2.7536552
-5.8973331 10.377167 2.7510002
-6.0633707 10.452441 2.7506716
-5.9155674 10.448072 2.7503576
-5.8953328 10.446279 2.7390556
-6.0530009 10.544018 2.7456725
-5.9121232 10.544017 2.7469828
-5.8940015 10.553201 2.7402999
-6.0290003 10.618334 2.7106667
-5.9159174 10.629834 2.7198331
-5.8899999 10.6204 2.7118001
-5.9549999 10.712 2.7049999
-5.96875 10.19425 2.8877501
-6.114501 10.262834 2.8663335
-6.0529909 10.26093 2.8558526
-5.9459839 10.256138 2.8555925
-5.8926673 10.273666 2.8503332
-6.1030002 10.3165 2.8235002
-6.0739312 10.347986 2.8456113
-5.9255242 10.349139 2.8479319
-5.8929996 10.339 2.8600001
-6.0595331 10.449032 2.8470833
-5.9208436 10.450613 2.8476868
-5.8947501 10.43725 2.8464999
-6.0396667 10.516666 2.8148334
-5.9355206 10.530039 2.8301599
-5.9000001 10.531 2.8039999
-5.9619999 10.604 2.802
-6.0396667 11.098 2.8203335
-5.9537387 11.094435 2.8303916
-6.027 10.094 2.9935
-6.1046667 10.1675 2.9871669
-6.0545769 10.164318 2.9577301
-5.9539475 10.160429 2.9566433
-5.895 10.175 2.9300001
-6.1103339 10.235167 2.9506664
-6.0811186 10.247736 2.9423418
-5.9348397 10.249102 2.9501202
-5.8850002 10.223 2.9320002
-6.0724006 10.350183 2.9455664
-5.931149 10.348135 2.9479654
-5.8979998 10.393 2.9260001
-6.0380836 10.429501 2.9216669
-5.9458814 10.430503 2.9310884
-5.8709998 10.426 2.921
-5.5813274 11.073384 2.962923
-6.0489359 11.124729 2.9460006
0 0 0 1 0 0 0 1 0 0 0 1 0 0 0 0 0 668 1 0 0
