ply
format ascii 1.0
comment PCL generated
element vertex 1001
property float x
property float y
property float z
element camera 1
property float view_px
property float view_py
property float view_pz
property float x_axisx
property float x_axisy
property float x_axisz
property float y_axisx
property float y_axisy
property float y_axisz
property float z_axisx
property float z_axisy
property float z_axisz
property float focal
property float scalex
property float scaley
property float centerx
property float centery
property int viewportx
property int viewporty
property float k1
property float k2
end_header
-3.5261862 3.0647218 0.032860458
-3.4497743 3.0639906 0.046173919
-3.3552978 3.0759568 0.045468364
-3.2807686 3.0876958 0.048840571
-3.5224373 3.141 0.057718758
-3.4712002 3.1045997 0.074200004
-3.3538749 3.1058748 0.053999998
-3.2617054 3.1472256 0.051951688
-2.6296031 3.1536705 0.066852249
-2.5481462 3.1545811 0.05014642
-2.4463372 3.1610472 0.050630115
-2.3749804 3.1712747 0.027568623
-4.1153336 3.2965 0.068833336
-4.0819998 3.2963333 0.085000001
-3.520767 3.2524333 0.046466675
-3.4959998 3.2735 0.034499999
-3.2469571 3.2503498 0.048799038
-2.6420503 3.2569497 0.051450003
-2.5925 3.2150002 0.012
-2.4156945 3.24775 0.083986111
-2.3707561 3.2520316 0.034500003
-4.3244767 3.3575239 0.02452381
-4.2518234 3.333529 0.053338241
-4.1406655 3.3174756 0.0400238
-4.0609651 3.3511593 0.057791665
-3.5109739 3.3495266 0.051421057
-3.4540591 3.3778524 0.069823548
-3.3431814 3.3504469 0.048308522
-3.2550652 3.3132989 0.051337671
-2.7090001 3.3263335 0.095333338
-2.6425478 3.3342252 0.058397852
-2.5484765 3.3360667 0.050371449
-2.4464173 3.3313167 0.053750012
-2.3755438 3.3183525 0.034691181
-4.3294377 3.4470625 0.0408125
-4.2497001 3.4786503 0.053800005
-4.151906 3.4829373 0.048453137
-4.0495067 3.4408815 0.050965283
-3.9881999 3.4375999 0.094400004
-3.5085835 3.4217501 0.025833335
-3.4540279 3.4205558 0.02388889
-3.3586187 3.4144759 0.015952382
-4.3218579 3.5251908 0.020952381
-4.2558613 3.5140412 0.051750004
-4.1719999 3.503 0.073333338
-3.5090001 3.0969999 0.191
-3.4448988 3.0902517 0.1482828
-3.3528862 3.0867898 0.15033872
-3.2822092 3.088742 0.14524195
-3.5215435 3.1305437 0.15113044
-3.4710002 3.1052101 0.15421052
-3.3477144 3.1055713 0.14385715
-3.2638061 3.1500151 0.14984079
-2.720433 3.1615677 0.17237836
-2.6487205 3.1544733 0.15065788
-2.5483446 3.1620367 0.15015417
-2.4709752 3.1723173 0.13158338
-4.1059999 3.2953334 0.13233334
-4.0510011 3.2912061 0.15344447
-3.9846878 3.287375 0.17874999
-3.5216873 3.249094 0.14881249
-3.2443509 3.2540674 0.14863965
-2.7401333 3.2480669 0.16573334
-2.6903334 3.245667 0.11416667
-2.5111039 3.2527499 0.18735418
-2.4635904 3.2487702 0.13906024
-4.2317367 3.3463678 0.14352635
-4.1564469 3.3153579 0.15182145
-4.0274925 3.3285708 0.12322225
-3.9687519 3.3542316 0.16170247
-3.5140293 3.3361471 0.14417648
-3.4577367 3.3475921 0.14965785
-3.3503973 3.327507 0.14543836
-3.2564793 3.312192 0.14589041
-2.7349463 3.3373728 0.15662664
-2.652842 3.3367126 0.15106477
-2.5466719 3.3331325 0.15455469
-2.4696708 3.3202002 0.13655294
-4.2386518 3.452522 0.14152172
-4.153017 3.4863787 0.14781034
-4.0473542 3.4620621 0.14700001
-3.9622412 3.4317672 0.15292926
-4.2282505 3.5131073 0.13074999
-4.1773162 3.5074737 0.16073684
-3.5140669 3.0920665 0.25340003
-3.4514434 3.0918777 0.24652535
-3.3462543 3.0883687 0.24620485
-3.2830567 3.0918117 0.2482453
-3.5269129 3.1304567 0.24486957
-3.4500003 3.1059332 0.26039997
-3.3527498 3.1030834 0.26741666
-3.264838 3.148648 0.24803802
-2.8186207 3.1681724 0.2741724
-2.7476246 3.1596789 0.25191066
-2.6497133 3.1626081 0.25203899
-2.5677369 3.1730657 0.23522638
-4.0401669 3.2891665 0.24529169
-3.9488816 3.278559 0.25109681
-3.8893123 3.2843122 0.28525001
-3.5158272 3.2551723 0.25006896
-3.2478197 3.2492635 0.24864511
-2.8282309 3.258846 0.26199999
-2.7846668 3.2379999 0.21966666
-2.6094546 3.2411819 0.29177275
-2.5586927 3.2494748 0.24385482
-4.2179999 3.3800001 0.21600001
-4.1424632 3.3305373 0.24542597
-4.0825715 3.3065717 0.26435715
-3.9236698 3.3405125 0.22393182
-3.8778777 3.3502355 0.2717528
-3.5101426 3.3403573 0.25239289
-3.4579742 3.3417101 0.24797367
-3.3476448 3.3258061 0.24627422
-3.2547047 3.313863 0.25102273
-2.8320749 3.3445003 0.26352501
-2.7513127 3.3398843 0.24744797
-2.6492708 3.338788 0.25389832
-2.5640085 3.3225791 0.24197371
-4.1382232 3.4726849 0.24429625
-4.0517006 3.4746287 0.25144288
-3.9434574 3.4409394 0.24399997
-3.8726799 3.4214001 0.26688001
-4.1412144 3.5083573 0.2379286
-4.092 3.507 0.29800001
-3.5064549 3.0941818 0.35090911
-3.4496274 3.0931599 0.34749332
-3.3516304 3.0922098 0.34915003
-3.28565 3.0917251 0.34497505
-3.5224738 3.1376052 0.34868419
-3.454906 3.1062639 0.34688672
-3.340806 3.1046383 0.35072222
-3.2664123 3.1476696 0.34957904
-2.9160831 3.1714168 0.37983334
-2.8456819 3.1608446 0.35524678
-2.7502456 3.164026 0.35066319
-2.6642349 3.1737309 0.33856377
-4.0374246 3.2941818 0.34193936
-3.9517386 3.275784 0.34790775
-3.8530002 3.2717035 0.35381356
-3.7930002 3.2804286 0.3941429
-3.5166667 3.2514288 0.34871429
-3.4949999 3.2639999 0.39500001
-3.2513442 3.2509744 0.34982046
-2.9177999 3.2479999 0.36300001
-2.8792999 3.2379997 0.32260004
-2.7049999 3.22525 0.391
-2.6528206 3.2517159 0.34919506
-2.5999999 3.2969999 0.31799999
-4.1133337 3.3521667 0.317
-4.0699687 3.3249378 0.34968755
-3.8314221 3.3355229 0.33854446
-3.7863998 3.34764 0.38383999
-3.510576 3.3422728 0.35230303
-3.4558086 3.3407059 0.34942648
-3.345762 3.3291593 0.34728572
-3.2521818 3.313323 0.34734359
-2.9180434 3.3496523 0.36413044
-2.8493829 3.3457665 0.34865746
-2.7468104 3.3432939 0.34863153
-2.6619923 3.3270645 0.34723377
-4.1170001 3.4260001 0.315
-4.0436416 3.4697032 0.34679684
-3.9512069 3.4581895 0.34613794
-3.8510828 3.4287639 0.35456938
-3.7768891 3.4128888 0.37977779
-4.0255003 3.5035 0.36649999
-3.5074286 3.0952859 0.43414289
-3.4487967 3.0947287 0.44730505
-3.3513005 3.0926335 0.44575557
-3.2914 3.0922 0.44480002
-3.5185273 3.132416 0.45186111
-3.4540997 3.1063716 0.44839999
-3.3410001 3.1055653 0.45208696
-3.2711909 3.1476531 0.44842991
-3.0110002 3.1666667 0.49633336
-2.9430606 3.1659846 0.4534696
-2.8514004 3.1643932 0.45061824
-2.7622082 3.1745284 0.43960369
-2.6989999 3.1919999 0.40099999
-4.0120001 3.29425 0.41150001
-3.9396253 3.2789643 0.44428569
-3.8417468 3.2584558 0.44616455
-3.7626772 3.268419 0.45738095
-3.608 3.2249999 0.49000001
-3.5178638 3.2478185 0.4585
-3.497 3.227 0.479
-3.3010001 3.2030001 0.493
-3.2535 3.2492929 0.44944668
-3.0230002 3.2329998 0.48500001
-2.9535 3.22475 0.41575003
-2.8109999 3.223 0.49150002
-2.745615 3.2488632 0.4520275
-2.6963334 3.2556667 0.403
-4.0269289 3.3465714 0.42035717
-3.9823577 3.3393571 0.46628574
-3.7412379 3.3460321 0.44360313
-3.6930003 3.371182 0.48990911
-3.5081668 3.3516006 0.4507333
-3.4517813 3.3451877 0.44973442
-3.3488853 3.3313932 0.44655737
-3.2524948 3.3158402 0.45130843
-3.0209231 3.3374617 0.47376925
-2.9449279 3.3494346 0.45343477
-2.8488955 3.3472688 0.44855213
-2.7485454 3.328758 0.44697729
-2.6941252 3.3306248 0.40812501
-4.0142221 3.4434445 0.42077777
-3.950485 3.4623129 0.44318748
-3.8512836 3.4400442 0.44946265
-3.7572966 3.4119074 0.45679638
-3.681 3.404 0.48199999
-3.971 3.506 0.42300001
-3.4459999 3.0963159 0.53386843
-3.3475556 3.094873 0.54769838
-3.2925556 3.0943334 0.54044443
-3.523026 3.1379488 0.5451538
-3.454042 3.1073725 0.55404258
-3.3462427 3.1070132 0.54981089
-3.2742317 3.1474679 0.54719508
-3.1184444 3.1823335 0.56866676
-3.0409513 3.1690001 0.55778641
-2.9485826 3.1700828 0.55054772
-2.8549552 3.1750584 0.54081416
-2.7950001 3.1900001 0.50366664
-3.9153848 3.2811542 0.52015382
-3.8502946 3.2645731 0.55109835
-3.7429805 3.245265 0.54175496
-3.6730213 3.2534375 0.56916672
-3.5222142 3.2337861 0.54671431
-3.4990001 3.2520001 0.56099999
-3.2550635 3.2486122 0.54814196
-3.174 3.2278001 0.58820003
-3.062 3.2019999 0.52200001
-2.8379676 3.2495713 0.55438304
-2.7920911 3.2551365 0.5085001
-3.9310498 3.3428502 0.53839993
-3.8846002 3.3593998 0.58579999
-3.7158747 3.3826249 0.53587502
-3.6570804 3.3607841 0.55298871
-3.520263 3.3565266 0.54694736
-3.4500794 3.3469527 0.55004758
-3.3490334 3.33465 0.54893339
-3.2572157 3.3182042 0.5480817
-3.1239998 3.3387499 0.58450001
-3.0436447 3.3481452 0.55370963
-2.9512427 3.3503997 0.55035698
-2.8476441 3.3326452 0.54888433
-2.7893338 3.326333 0.51233339
-3.9151816 3.4503186 0.52218175
-3.8528554 3.4447684 0.54776824
-3.7557232 3.4216461 0.55193841
-3.6815555 3.4064443 0.56622225
-3.4414003 3.0974 0.64490002
-3.3420389 3.0953462 0.65009618
-3.2877998 3.0962 0.65679997
-3.5254292 3.1433811 0.65050006
-3.4515607 3.1092408 0.64838779
-3.3478663 3.1083789 0.64947772
-3.2765908 3.1512828 0.64949048
-3.1351712 3.1731858 0.66272873
-3.0509403 3.1718998 0.64821988
-2.9561989 3.1770642 0.64347512
-2.8944445 3.182889 0.61033332
-3.829185 3.2701116 0.63896298
-3.7501271 3.2455499 0.64709842
-3.6580539 3.2346351 0.6482566
-3.544534 3.2286665 0.64420009
-3.2553391 3.2421646 0.64142597
-3.1748333 3.2111669 0.62891668
-2.9311855 3.246716 0.66149634
-2.8896086 3.2505438 0.6112175
-3.8370955 3.3477621 0.65004766
-3.7957499 3.37375 0.69700003
-3.6311519 3.3800869 0.64028263
-3.5618923 3.3553233 0.65346152
-3.4496393 3.3505073 0.65268838
-3.349318 3.3379679 0.6489048
-3.2599301 3.3243163 0.64871931
-3.1408443 3.3512669 0.65295553
-3.0475967 3.3492746 0.65106446
-2.9418437 3.3320549 0.65197235
-2.8857741 3.3205807 0.61683863
-3.8222816 3.4365001 0.63018739
-3.755115 3.4290001 0.64891326
-3.6685712 3.4106576 0.65940005
-3.4478002 3.0977998 0.73040003
-3.3428111 3.0950816 0.74740535
-3.2936666 3.0948331 0.74933332
-3.5263782 3.1450443 0.75104451
-3.4523337 3.1108418 0.75017512
-3.3478618 3.1093369 0.74680185
-3.2626944 3.1529276 0.75159049
-3.1503828 3.1732352 0.74913239
-3.0504363 3.177954 0.73444533
-2.9753153 3.1909468 0.72926319
-3.8010001 3.289 0.69999999
-3.7421999 3.2552998 0.73956001
-3.6585691 3.2307076 0.75327706
-3.5632 3.2140999 0.74949998
-3.2617335 3.2190669 0.7167334
-3.120923 3.214 0.7887693
-3.0340371 3.2120943 0.77230191
-2.9516389 3.2408671 0.7488783
-3.7528694 3.3559999 0.75326091
-3.6212146 3.3934283 0.73700005
-3.5470414 3.375397 0.74821913
-3.4522107 3.3552809 0.75210524
-3.3537281 3.3424234 0.74769491
-3.2443047 3.3537612 0.75167394
-3.1480675 3.3549833 0.74966675
-3.0489852 3.3482542 0.74892068
-2.9533584 3.3241148 0.75043488
-3.7277858 3.4264762 0.73780942
-3.6612282 3.4125793 0.75205261
-3.5922499 3.4017501 0.78750002
-3.457 3.0929999 0.81
-3.3382223 3.0968335 0.83861107
-3.2937498 3.09725 0.82225001
-3.519875 3.1347747 0.85220003
-3.4524212 3.1128042 0.84960926
-3.3479834 3.1091349 0.84948736
-3.2616093 3.154778 0.84981614
-3.1560628 3.1775312 0.84834373
-3.0380001 3.1975 0.80599999
-2.96525 3.1974998 0.84074998
-3.7070003 3.2718573 0.82414287
-3.6528444 3.2420669 0.8430444
-3.5559287 3.2156432 0.8540715
-3.1224084 3.2143273 0.8512857
-3.051471 3.2129998 0.84955871
-2.9541199 3.2406895 0.85002315
-3.7142859 3.3467145 0.81057143
-3.6492431 3.363919 0.86237842
-3.5464513 3.3855004 0.84720963
-3.4544592 3.3600006 0.8523612
-3.3470912 3.3571362 0.84904546
-3.2509832 3.3595176 0.84905177
-3.1536105 3.3509319 0.84833908
-3.0505176 3.3505182 0.84842861
-2.9536951 3.3285384 0.85046864
-3.6461277 3.4148507 0.83882976
-3.584625 3.4047499 0.85237503
-3.484 3.4059999 0.898
-3.3282497 3.09675 0.96237499
-3.299 3.099 0.93800002
-2.8150001 3.099 0.96799999
-3.5208185 3.1318336 0.95087886
-3.449564 3.1163163 0.94921368
-3.3458052 3.1127224 0.94859415
-3.2613919 3.1590941 0.94817835
-3.1798341 3.1826 0.92326671
-3.0420001 3.1960001 0.93800002
-2.9559999 3.1950002 0.977
-2.8438275 3.1409309 0.98075867
-2.7490892 3.1320889 0.9378888
-2.6813531 3.1309412 0.90847051
-3.6199999 3.2560554 0.93099999
-3.5602105 3.2288947 0.95405251
-3.2183895 3.249634 0.98158538
-3.153543 3.2325549 0.94356781
-3.0486839 3.2158167 0.94793385
-2.9539018 3.2416954 0.94856942
-2.872 3.204 0.99299997
-3.6102502 3.3462501 0.9248333
-3.549907 3.3780923 0.95644444
-3.4509168 3.3699498 0.95263332
-3.3525233 3.3666136 0.9490909
-3.2513702 3.3553424 0.95146555
-3.1640685 3.3408866 0.93877268
-3.0482321 3.3531253 0.94878584
-2.9511764 3.3297575 0.9496544
-3.6103334 3.4116669 0.90399998
-3.573 3.4074118 0.93823528
-3.4761431 3.4084289 0.91828573
-3.276 3.4099998 0.94566667
-3.3169999 3.0940001 1.039
-3.5218062 3.136564 1.0521773
-3.4499316 3.1201022 1.051077
-3.3464885 3.1148539 1.048351
-3.2799079 3.1547024 1.0459576
-3.0329671 3.1424999 1.0753334
-2.9509428 3.1451433 1.0358572
-2.8794 3.1374002 1.0048001
-3.5314288 3.2508574 1.0488095
-3.4889998 3.2639999 1.0785
-3.2571869 3.2547555 1.0532126
-3.1261275 3.2296164 1.0482341
-3.0482848 3.2180414 1.0437586
-2.9546416 3.2426319 1.0514183
-2.8080001 3.2219999 1.026
-3.518625 3.3629749 1.0518502
-3.4541831 3.3745332 1.0488666
-3.3510854 3.3603733 1.0510508
-3.2593749 3.3287013 1.0503559
-3.106143 3.3537145 1.0445715
-3.0471971 3.3551962 1.0486227
-2.9528737 3.3300865 1.0533308
-3.5080001 3.4062002 1.0404
-3.494 3.4000001 1.048
-3.3080001 3.096 1.104
-3.5258067 3.1400754 1.1486715
-3.4497113 3.1230419 1.1520679
-3.345588 3.1190288 1.1465074
-3.2792206 3.154912 1.1531175
-3.1594737 3.1513162 1.1400526
-3.0727146 3.1400001 1.1062858
-3.5314705 3.2468822 1.1555295
-3.4916666 3.2686667 1.1610001
-3.2632995 3.2501159 1.1462517
-3.1264751 3.2336004 1.1463498
-3.0469642 3.220109 1.1479499
-2.955771 3.2449939 1.1500676
-3.5136096 3.3633168 1.1539267
-3.4549341 3.3704917 1.1469016
-3.3539395 3.351712 1.1482726
-3.2620409 3.3239391 1.1500808
-3.1343577 3.3380716 1.157143
-3.0483816 3.357655 1.1462908
-2.951638 3.3316572 1.1496776
-3.50875 3.4044998 1.16175
-3.4729002 3.9614003 1.1900001
-3.4664781 4.0484781 1.1726087
-3.4535832 4.1634998 1.1468337
-3.5050001 4.2119999 1.151
-3.4438522 4.2518148 1.129926
-3.5292182 3.1389873 1.2503977
-3.449475 3.1265354 1.2497582
-3.3438344 3.123986 1.2493788
-3.2842212 3.1589606 1.2486826
-2.9660001 3.197 1.251
-3.5303931 3.2440717 1.2476786
-3.4974999 3.2725 1.2435
-3.2667317 3.2530611 1.2504755
-3.1179738 3.2280266 1.248421
-3.0492153 3.2227626 1.2499205
-2.9573138 3.2443261 1.2491413
-3.5139356 3.3625805 1.2465159
-3.4535601 3.3743491 1.248924
-3.3493042 3.3545072 1.2485652
-3.2586958 3.3249042 1.2505218
-3.1320004 3.3425333 1.2428
-3.0479832 3.3610332 1.2488998
-2.952352 3.3340447 1.2502117
-3.517539 3.4320002 1.2668463
-3.4972501 3.4075003 1.2639999
-3.5146923 3.5571539 1.2804615
-3.5 3.503 1.298
-3.515286 3.6425719 1.2578572
-3.4984999 3.65975 1.25875
-3.5075002 3.7308338 1.2445
-3.4925554 3.7464442 1.2375556
-3.517 3.8410001 1.2079999
-3.4854209 3.8567369 1.2132632
-3.4816666 3.9245002 1.2056668
-3.5273659 3.1425073 1.3493096
-3.4509232 3.1290166 1.3483965
-3.345608 3.125155 1.3508599
-3.2856548 3.1619275 1.3469453
-3.5349283 3.2475715 1.3464644
-3.4946001 3.2792001 1.3484
-3.2687864 3.2510126 1.3506516
-3.1187692 3.2317944 1.3526154
-3.0492713 3.2252479 1.3494575
-2.9581568 3.2474627 1.3507429
-3.5196252 3.3631673 1.3439373
-3.453939 3.3769383 1.3489848
-3.3485854 3.3550863 1.3505142
-3.2616971 3.3234453 1.349849
-3.1368573 3.3418572 1.3557143
-3.0478981 3.3626947 1.3477798
-2.9514604 3.3361177 1.3509563
-3.5241997 3.4158006 1.33595
-3.5304344 3.1474605 1.4493023
-3.4530444 3.1336222 1.4491081
-3.345937 3.1267033 1.4511408
-3.2857828 3.1616898 1.4478865
-3.5349615 3.2501156 1.4460385
-3.4945002 3.286 1.4630001
-3.313 3.2409999 1.439
-3.2677047 3.2527173 1.4505088
-3.1187503 3.2317502 1.4492954
-3.0487955 3.2284994 1.4500607
-2.9584823 3.2494495 1.4483817
-3.5200632 3.3626173 1.4486381
-3.4475305 3.3813932 1.4476516
-3.3500626 3.3580155 1.4489688
-3.263382 3.3272917 1.4493338
-3.1162727 3.3624547 1.4472729
-3.0511806 3.3633771 1.448885
-2.9520888 3.3396544 1.4496977
-3.5146315 3.4086838 1.4532629
-3.4879999 3.4021668 1.4563334
-3.5269837 3.1474841 1.5495158
-3.4523671 3.1352293 1.550404
-3.3450296 3.1295068 1.5512499
-3.2867186 3.166059 1.5476893
-3.5373528 3.2469707 1.5537944
-3.3169999 3.2460001 1.53
-3.2688336 3.2537487 1.5510198
-3.1215119 3.2448044 1.5519509
-3.0510702 3.2429054 1.5523044
-2.9602582 3.2571764 1.5476043
-3.520108 3.3539188 1.55
-3.4519248 3.3842983 1.5479552
-3.3518257 3.361237 1.5494497
-3.2641282 3.3278291 1.5511538
-3.1357336 3.3414004 1.5568001
-3.0539138 3.3562589 1.5507414
-2.9549227 3.3360195 1.5497396
-3.5143752 3.4087501 1.5470001
-3.4875712 3.4085715 1.5597144
-3.5239301 3.1477368 1.6468776
-3.4539239 3.1401799 1.6502736
-3.3441551 3.1349225 1.6492341
-3.2886007 3.1695879 1.6510502
-3.5386469 3.247853 1.6536475
-3.3179998 3.227 1.6435001
-3.2686586 3.2545652 1.6499316
-3.1194887 3.2438836 1.6471165
-3.0511625 3.2384143 1.6473169
-2.9600756 3.2561269 1.6501864
-3.5185149 3.3553431 1.6501433
-3.4466608 3.3851013 1.6476781
-3.3518798 3.3641467 1.6489733
-3.2640934 3.3316798 1.6501406
-3.1285884 3.3524706 1.6501765
-3.0489504 3.3646171 1.6480837
-2.9540901 3.3398323 1.6509422
-3.515125 3.4093125 1.661
-3.4888005 3.4085333 1.6475334
-3.5232689 3.1539464 1.7483213
-3.4515634 3.1438158 1.7483691
-3.3446743 3.1396532 1.7499374
-3.2878094 3.1693823 1.7449411
-3.5385666 3.2482998 1.7490336
-3.302 3.2030001 1.711
-3.2703691 3.2511339 1.7491996
-3.1215003 3.2436664 1.7509168
-3.048481 3.2348862 1.7493773
-2.9607487 3.25527 1.7492702
-3.5232747 3.34375 1.7505499
-3.4491229 3.3857369 1.7458419
-3.3518164 3.3669999 1.7487761
-3.2629793 3.3327262 1.7494602
-3.1159999 3.3638334 1.7562501
-3.048517 3.3708842 1.7494501
-2.9550512 3.34323 1.7501154
-3.5106192 3.4117622 1.7560952
-3.4784286 3.408 1.7552856
-3.5245838 3.1573675 1.8504832
-3.4500182 3.1469538 1.8487688
-3.3444226 3.1416917 1.8479382
-3.2883632 3.1689622 1.8476378
-3.5410647 3.2500644 1.8459998
-3.3110001 3.2278001 1.8372002
-3.2719307 3.2532518 1.8501047
-3.1203613 3.2444999 1.8469998
-3.0504014 3.2379684 1.8504122
-2.962461 3.2568955 1.8491311
-3.5271699 3.3505955 1.8497658
-3.4411225 3.3876944 1.8456736
-3.3513598 3.3711066 1.8484269
-3.2641239 3.335752 1.8482264
-3.1345925 3.3547778 1.8500744
-3.0507302 3.3766737 1.8474233
-2.9560356 3.3461366 1.8496034
-3.5142307 3.4121153 1.8526925
-3.4762671 3.4079666 1.8531002
-3.524298 3.1567888 1.9486138
-3.4501541 3.1498272 1.9492999
-3.3463862 3.1457019 1.9499193
-3.2895298 3.170573 1.9480441
-3.5387876 3.2484851 1.9505454
-3.3115001 3.214 1.96
-3.2727096 3.2535756 1.9488584
-3.1245682 3.2493184 1.9485683
-3.0504999 3.2409384 1.949908
-2.961458 3.2592878 1.9476597
-3.5258672 3.3526664 1.9518893
-3.4369488 3.3911796 1.9453591
-3.3539336 3.3746805 1.9495866
-3.2640879 3.3384411 1.9505658
-3.131263 3.3616838 1.9539211
-3.0517797 3.3778648 1.9508812
-2.9562659 3.3469641 1.9479331
-3.5178502 3.4141004 1.94865
-3.471308 3.4085131 1.9488461
-3.5308011 3.1634147 2.0483999
-3.4500751 3.1542621 2.0523458
-3.3447208 3.1476536 2.0494907
-3.2886717 3.1720324 2.0488524
-3.5399356 3.2472579 2.0517416
-3.3130002 3.2326667 2.0426669
-3.2735436 3.25385 2.050323
-3.1274884 3.2545774 2.0536222
-3.0497289 3.2442508 2.0501959
-2.9625297 3.2616644 2.0493555
-3.5330224 3.3540657 2.0490446
-3.4323595 3.3935597 2.0439601
-3.349026 3.3800001 2.0478029
-3.2632592 3.3400764 2.049587
-3.1297495 3.3666947 2.0521667
-3.0505564 3.3819513 2.0502126
-2.9575827 3.3495657 2.0481603
-3.5170002 3.4113572 2.0581071
-3.4634182 3.4079537 2.0469534
-3.036 3.402 2.017
-2.9590001 3.401 2.082
-3.5363913 3.0885651 2.1887391
-3.4522817 3.0881565 2.18625
-3.5370011 3.1379905 2.1456096
-3.4447145 3.1291277 2.1438725
-3.3514078 3.147903 2.150826
-3.2886667 3.1715183 2.1504998
-3.5448148 3.2518146 2.1452224
-3.3080001 3.2243335 2.1536667
-3.2740853 3.2536337 2.1485
-3.1198609 3.2536945 2.1474168
-3.0508003 3.2478333 2.1515443
-2.9640493 3.2636149 2.1495502
-3.5385368 3.3475363 2.1506341
-3.4380002 3.3917501 2.1077499
-3.3427312 3.384239 2.1489105
-3.2643235 3.3395069 2.1500003
-3.1247563 3.3696215 2.1494594
-3.0502687 3.3840592 2.1500745
-2.9570053 3.3508384 2.1500983
-3.5288055 3.4432731 2.1497402
-3.4482586 3.4424157 2.152596
-3.3836861 3.4328284 2.1643715
-3.299 3.404 2.175
-3.0715001 3.4054999 2.1465001
-2.9755001 3.401 2.154
-3.5236001 3.51 2.1889999
-3.5373333 2.9963336 2.2923334
-3.4585001 2.991375 2.2948751
-3.5426025 3.0474131 2.2513633
-3.4407721 3.0481536 2.2492893
-3.3942504 3.0718751 2.2663748
-3.5552056 3.1537938 2.2478826
-3.4085 3.1201999 2.2380998
-3.3598862 3.1434119 2.2476203
-3.2885742 3.1720743 2.249963
-3.5446301 3.2499633 2.2463331
-3.497 3.293 2.299
-3.3069999 3.2260001 2.299
-3.2748899 3.2545934 2.2491326
-3.1223335 3.2616365 2.2472727
-3.0500829 3.2509048 2.2482145
-2.9635489 3.2663791 2.2500722
-3.5293415 3.3439996 2.2495365
-3.404 3.3889999 2.244
-3.3434711 3.3868825 2.2484314
-3.267283 3.3421915 2.251451
-3.1197305 3.3771927 2.2477305
-3.0511494 3.3877666 2.2491505
-2.956965 3.3521934 2.2500057
-3.5303192 3.4507658 2.2461278
-3.4264619 3.4732308 2.2246926
-3.3759389 3.4473336 2.2500908
-3.2966669 3.4013336 2.2643335
-3.1010001 3.402 2.277
-3.0374999 3.4027503 2.2597501
-2.9702499 3.4170001 2.2514999
-3.5266035 3.5396621 2.2531178
-3.4502015 3.5433936 2.2516739
-3.3819306 3.5323489 2.2670469
-3.6029999 2.948 2.3970001
-3.5476332 2.9603658 2.3561072
-3.4527431 2.9636505 2.3573885
-3.3987498 2.9887502 2.3525
-3.618 3.0250001 2.3404999
-3.5626338 3.0368044 2.3401463
-3.4147742 3.0353096 2.3453333
-3.3956103 3.0625851 2.3536098
-3.5553637 3.1496665 2.3535755
-3.4098098 3.1324766 2.3538575
-3.3595166 3.1488843 2.3476553
-3.2902439 3.1766005 2.347867
-3.5384445 3.2455928 2.350889
-3.4890001 3.2985001 2.3759999
-3.3193336 3.2460001 2.3600001
-3.2752526 3.2536659 2.3515038
-3.1215715 3.2642376 2.348619
-3.0529153 3.2538717 2.347883
-2.964823 3.2661951 2.3493388
-3.5313025 3.3521857 2.3477204
-3.4909999 3.385 2.3410001
-3.3399785 3.3898721 2.3484044
-3.2677088 3.3453312 2.3505831
-3.1217086 3.3752089 2.3510003
-3.0479996 3.3903775 2.34817
-2.9565315 3.3513067 2.3487108
-3.5244615 3.4517181 2.3503592
-3.4287498 3.41925 2.3422499
-3.3733146 3.4513562 2.3474932
-3.2969999 3.4015 2.3615
-3.1045001 3.4089999 2.349
-3.0507143 3.4028573 2.3488574
-2.974364 3.4186363 2.350909
-3.5240004 3.552381 2.3509288
-3.4272351 3.5812354 2.3172944
-3.3764126 3.5486197 2.3486354
-3.5186152 3.6411924 2.3574812
-3.4510956 3.6437118 2.3539362
-3.3768003 3.6312888 2.3618445
-3.6170001 2.8815 2.494
-3.5476334 2.8716137 2.4616036
-3.4594219 2.8731749 2.4651747
-3.608 2.9319999 2.424
-3.5593441 2.9370658 2.430918
-3.428756 2.9413288 2.4442041
-3.3970001 2.9949999 2.4419999
-3.5657411 3.0542591 2.446667
-3.4120488 3.0363545 2.4494677
-3.3960001 3.0505219 2.4327826
-3.5493178 3.1408637 2.4486818
-3.4306724 3.1555307 2.4546123
-3.345118 3.1619139 2.4509459
-3.2913537 3.1824999 2.4476471
-3.5405421 3.2494588 2.4501252
-3.301667 3.2206666 2.4546666
-3.2786222 3.2542622 2.4504051
-3.1199169 3.2640834 2.4431252
-3.0483663 3.2569113 2.451689
-2.9643862 3.2660189 2.446424
-3.5312071 3.3454826 2.4457934
-3.4889998 3.3010001 2.4189999
-3.3352051 3.3920257 2.4490259
-3.2657394 3.346035 2.4500561
-3.1267691 3.3770771 2.4466927
-3.0501997 3.3934906 2.4473088
-2.9558218 3.3509395 2.4499583
-3.5194817 3.430778 2.4404445
-3.431231 3.4246156 2.4602308
-3.374234 3.4381068 2.4408298
-3.2896001 3.4174001 2.4675999
-3.1025 3.4075 2.4545002
-3.0475004 3.40975 2.4524169
-2.9741173 3.4158232 2.4491179
-3.5171936 3.55529 2.4449034
-3.4416001 3.5432 2.4646001
-3.370743 3.5509005 2.4462707
-3.608 3.6500001 2.4430001
-3.5158427 3.6502364 2.4491053
-3.4554119 3.6811762 2.417706
-3.3686352 3.6531217 2.4439328
-3.5161815 3.7338183 2.4501214
-3.4543719 3.7395213 2.4538934
-3.3699446 3.7336292 2.4643147
-3.484 3.813 2.4990001
-3.60625 2.78475 2.58425
-3.5513859 2.7763999 2.5741005
-3.46872 2.7790003 2.5735435
-3.6085629 2.8330626 2.5501873
-3.5608628 2.8325264 2.5332637
-3.4440122 2.8424938 2.546001
-3.5786765 2.9471762 2.5503531
-3.4173706 2.9479198 2.5474691
-3.398 2.9695001 2.5100002
-3.5610688 3.0359313 2.5441382
-3.4286854 3.038914 2.5404003
-3.522526 3.1801052 2.5624738
-3.4524004 3.1724133 2.5506401
-3.3443036 3.1691623 2.5492728
-3.2943332 3.1842778 2.5549998
-3.5463703 3.2474816 2.5473332
-3.3085001 3.25825 2.5480001
-3.2795436 3.2529402 2.5469396
-3.1140003 3.2647057 2.5438237
-3.0509157 3.2607465 2.5489292
-2.9656751 3.2694874 2.5462565
-3.5340285 3.3452003 2.5516856
-3.4990001 3.3080001 2.5780001
-3.3254073 3.3918886 2.550148
-3.2680359 3.3485389 2.5495889
-3.1419232 3.3693078 2.566154
-3.0494444 3.3934169 2.5500276
-2.9559779 3.3558762 2.5493035
-3.5204737 3.4238427 2.5505788
-3.4434032 3.4241295 2.5525002
-3.367161 3.407645 2.5498705
-3.2880001 3.4128749 2.542625
-3.1085 3.4025002 2.54
-3.0612779 3.4035559 2.5362225
-2.9750004 3.4242351 2.5408235
-3.5124002 3.5848 2.5126002
-3.4333999 3.5644002 2.5371997
-3.3669288 3.5748572 2.5252144
-3.5113103 3.6569653 2.5448279
-3.4823332 3.638 2.5578337
-3.3608909 3.6477194 2.5454843
-3.5123749 3.7524066 2.5382502
-3.4692566 3.7710776 2.5324612
-3.358382 3.75337 2.5453088
-3.5105002 3.8199999 2.5557859
-3.4575763 3.834435 2.5590234
-3.3679445 3.8298335 2.5690002
-3.6086669 2.6896667 2.6873336
-3.5490382 2.6854718 2.6802268
-3.4755187 2.6854813 2.6820004
-3.6142859 2.7468932 2.6563215
-3.5580845 2.732811 2.6361508
-3.4574726 2.7483697 2.6497502
-3.6045554 2.8255556 2.6413333
-3.5921431 2.8494287 2.6542287
-3.4298646 2.8437624 2.6487799
-3.5766945 2.9392776 2.647639
-3.4306841 2.9432104 2.6399117
-3.553 3.01 2.615
-3.4530907 3.0207274 2.6280911
-3.5266976 3.1835759 2.6496968
-3.4542899 3.1796842 2.6502502
-3.3458903 3.1751094 2.6492529
-3.295619 3.1855237 2.6435714
-3.605 3.233 2.6989999
-3.5470717 3.2494643 2.6472144
-3.312 3.2442498 2.6537502
-3.2826567 3.2538829 2.6492262
-3.1222146 3.2820005 2.6507499
-3.051733 3.2766476 2.6483805
-2.9669375 3.2772605 2.6508749
-3.5358648 3.3541892 2.6506486
-3.4663334 3.3413334 2.6503334
-3.3183181 3.3944089 2.6452272
-3.2686391 3.3493528 2.647023
-3.1249998 3.3756502 2.6501999
-3.0455885 3.386893 2.6473033
-2.9570937 3.3513787 2.6503832
-3.5207741 3.4274189 2.6521285
-3.4506826 3.4242384 2.6498413
-3.3581634 3.4100819 2.6540604
-3.284889 3.4118888 2.6555555
-3.0295 3.4015002 2.6364999
-2.9695833 3.4247499 2.6495001
-3.51125 3.6802502 2.615
-3.4505 3.6624999 2.6298752
-3.3620002 3.6735001 2.6274376
-3.5051341 3.7424004 2.6367335
-3.4922178 3.7597394 2.6543045
-3.3527017 3.7518947 2.6513863
-3.5049999 3.8431995 2.6386001
-3.46595 3.8688829 2.6352501
-3.3473036 3.857625 2.6465983
-3.5086668 3.9176669 2.6559999
-3.4494882 3.937716 2.6619027
-3.3549049 3.9287264 2.6705205
-3.6135001 2.5970001 2.789
-3.5392003 2.5902002 2.7922001
-3.4879999 2.5898333 2.7956667
-3.6156671 2.6511428 2.7564764
-3.5524969 2.6378541 2.7446871
-3.4671047 2.6559303 2.7544968
-3.6113007 2.7417006 2.7480004
-3.5952225 2.7616665 2.7521112
-3.4411638 2.7497711 2.748517
-3.6076665 2.823 2.7568336
-3.580972 2.8541391 2.7462497
-3.4384334 2.8359518 2.7453969
-3.6010001 2.927 2.704
-3.5627499 2.9097502 2.7194998
-3.4575236 2.9308569 2.7279046
-3.5232811 3.1883752 2.748281
-3.453707 3.1852937 2.7503867
-3.3434074 3.1794188 2.7483056
-3.2966001 3.187 2.7518003
-3.5439355 3.2471609 2.7454836
-3.3079233 3.2293849 2.7597692
-3.2835314 3.2568848 2.7485313
-3.1136668 3.2744286 2.7472856
-3.0505362 3.269563 2.7449644
-2.9687088 3.2729523 2.7491074
-3.5341589 3.3520222 2.7455001
-3.408 3.3940001 2.776
-3.3472104 3.3939996 2.7616842
-3.2695119 3.3496039 2.7497268
-3.1493003 3.3499501 2.7438002
-3.0430553 3.3861666 2.7181113
-2.9562593 3.3541172 2.7493298
-3.5252049 3.4324317 2.7467957
-3.4471741 3.4256661 2.7500298
-3.3501816 3.4079084 2.7485003
-3.28775 3.411875 2.7532501
-3.1108332 3.4033334 2.7585001
-3.0534356 3.4044099 2.7579486
-2.9740689 3.4123104 2.751931
-3.5009999 3.7985001 2.7154999
-3.4852998 3.7646 2.7243001
-3.3555384 3.7658458 2.731962
-3.5050001 3.8499999 2.72
-3.4822106 3.8544211 2.7494209
-3.3401756 3.859921 2.7489903
-3.5346 3.9678001 2.7381999
-3.4683225 3.9613867 2.7379675
-3.3370073 3.9521353 2.7467597
-3.5115998 4.0162001 2.7625999
-3.4474611 4.0358577 2.7637691
-3.3507659 4.0262604 2.7678707
-3.5320003 2.4956665 2.8950002
-3.6195183 2.5552776 2.8589444
-3.5481565 2.5461693 2.8518257
-3.4778175 2.5669477 2.8588085
-3.6187956 2.6457505 2.8423862
-3.5646667 2.6633334 2.8530002
-3.4560449 2.6464686 2.8478138
-3.6085997 2.7509201 2.8492
-3.5838697 2.7565656 2.8497391
-3.4485981 2.7438428 2.8452208
-3.602 2.8055 2.8150001
-3.5760002 2.8275001 2.8194168
-3.4633217 2.8263574 2.8394289
-3.4790001 2.908 2.803
-3.5222917 3.191792 2.846417
-3.4523916 3.1874728 2.8475268
-3.3410237 3.1793976 2.8486362
-3.2969999 3.194 2.849
-3.54725 3.245111 2.8485279
-3.48 3.2014999 2.8864999
-3.309474 3.2186847 2.8526316
-3.2865734 3.2529583 2.8513131
-3.1186662 3.2800956 2.8515236
-3.0501456 3.2703784 2.8479512
-2.9692869 3.2751591 2.8485532
-3.5395558 3.350472 2.8476117
-3.3316314 3.3936315 2.8373687
-3.271317 3.3477912 2.8515532
-3.1458335 3.3647773 2.8477778
-3.016 3.3969998 2.8474998
-2.9553471 3.3534334 2.8491693
-3.527632 3.4305513 2.8552449
-3.4481013 3.4331155 2.8516815
-3.360518 3.4102402 2.8520555
-3.2891364 3.4150457 2.8481364
-3.1157777 3.4077778 2.8481112
-3.0487502 3.4085002 2.8505957
-2.9730544 3.4143786 2.8517029
-3.378 3.783 2.803
-3.4635623 3.8679376 2.8296871
-3.3394885 3.8743725 2.8315585
-3.4720001 3.9534061 2.8510001
-3.3310006 3.9504495 2.8495421
-3.5201669 4.0726671 2.8404999
-3.4605372 4.0626869 2.8406565
-3.3302944 4.0523739 2.845726
-3.5150001 4.1203337 2.8900001
-3.4406028 4.1351466 2.8653679
-3.3464882 4.1267147 2.8711431
-3.299 4.1160002 2.882
-3.572 2.395 2.9820001
-3.6257539 2.4650459 2.9626462
-3.547112 2.4613369 2.95595
-3.4853337 2.4781008 2.9673333
-3.6272118 2.5450575 2.9431932
-3.5383999 2.5066502 2.9115
-3.4703531 2.5467482 2.9472575
-3.6128821 2.6499999 2.9538827
-3.5374548 2.6883636 2.9772727
-3.459408 2.6455202 2.9454572
-3.6109169 2.7250001 2.9300833
-3.5428572 2.7305 2.9344287
-3.4689152 2.7330632 2.930021
-3.4909999 2.806 2.9330001
-3.5180397 3.1939201 2.9440002
-3.4490435 3.1899266 2.9486473
-3.3431458 3.1834497 2.9514043
-3.2983336 3.1913335 2.9570003
-3.605 3.244 2.9990001
-3.5400643 3.2367742 2.9499679
-3.4805 3.2017498 2.95825
-3.3080478 3.2155714 2.9585717
-3.2791474 3.2621467 2.9524806
-3.1215 3.283875 2.9499998
-3.05002 3.2738011 2.9493794
-2.969413 3.2759423 2.9504826
-3.6066666 3.3733335 2.9793334
-3.5628402 3.3419201 2.9457202
-3.303 3.398 2.9300001
-3.2543199 3.351836 2.9500608
-3.1446006 3.3549671 2.9475334
-3.026 3.3970001 2.9750001
-2.9548788 3.3510201 2.949487
-3.6187501 3.4328752 2.9755003
-3.5519598 3.4517376 2.9504209
-3.4530759 3.4425907 2.948667
-3.3509092 3.4183254 2.9480524
-3.2757223 3.4116669 2.95225
-3.118 3.4094169 2.9529169
-3.0503919 3.4095294 2.9540985
-2.9745347 3.4201391 2.9518373
-3.4412355 3.972059 2.9371765
-3.3355002 3.9696901 2.9325686
-3.5539999 4.0949998 2.9000001
-3.4607046 4.0472269 2.9504776
-3.3192556 4.0511212 2.9487965
-3.5172501 4.1715002 2.9482498
-3.4546828 4.1614494 2.9373341
-3.3224616 4.1540837 2.944134
-3.299125 4.1665001 2.9748752
-3.4376392 4.2324758 2.9669831
-3.3480124 4.225657 2.9694426
-3.2925 4.21875 2.9907501
0 0 0 1 0 0 0 1 0 0 0 1 0 0 0 0 0 1001 1 0 0
