ply
format ascii 1.0
comment PCL generated
element vertex 652
property float x
property float y
property float z
element camera 1
property float view_px
property float view_py
property float view_pz
property float x_axisx
property float x_axisy
property float x_axisz
property float y_axisx
property float y_axisy
property float y_axisz
property float z_axisx
property float z_axisy
property float z_axisz
property float focal
property float scalex
property float scaley
property float centerx
property float centery
property int viewportx
property int viewporty
property float k1
property float k2
end_header
5.6949997 -4.9215002 0.0255
5.7424426 -4.9221158 0.023790695
5.8485866 -4.9246898 0.02810345
5.7250533 -4.8510156 0.050657552
5.8592858 -4.8629761 0.063928589
5.7271395 -4.749537 0.048888065
5.8835006 -4.7551999 0.054950006
5.9039998 -4.7480001 0.021
5.7371087 -4.650095 0.051739156
5.8903847 -4.6587696 0.054538462
5.9057999 -4.6552 0.065800004
4.7512593 -4.5078359 0.048027404
4.8296103 -4.5114388 0.062024392
5.7540913 -4.5506434 0.048181817
5.8351431 -4.5645714 0.052714285
5.9778891 -4.5527411 0.053629633
6.0030003 -4.5170002 0.0955
4.7367854 -4.4975715 0.053714287
4.8460002 -4.4982004 0.075200006
5.7541599 -4.4505339 0.04855727
5.816 -4.4260001 0.044249997
5.9822593 -4.453259 0.049037043
6.0064001 -4.4282002 0.065000005
4.6412325 -4.3568759 0.050595872
4.7483692 -4.3460135 0.047657542
4.8405085 -4.3532705 0.056796614
4.9014997 -4.3520002 0.090499997
5.7567225 -4.3509159 0.052112784
5.8150001 -4.3685718 0.017642858
5.9310012 -4.3476672 0.052285712
5.7608585 -4.2531185 0.04846666
5.9362864 -4.2675228 0.046809524
5.7681804 -4.1533775 0.045034196
5.8570576 -4.1309719 0.058399998
5.9253645 -4.139637 0.05431819
5.7815003 -4.0885997 0.013100001
5.8415713 -4.0877147 0.010142857
5.91325 -4.0917501 0.01225
5.7439008 -4.8242197 0.12666
5.848773 -4.8326149 0.13038637
5.7317033 -4.752131 0.1492153
5.8634162 -4.7735553 0.15927777
5.9050002 -4.7179999 0.177
5.7330294 -4.6508141 0.15283583
5.8879228 -4.6602311 0.14592309
5.9000001 -4.6350002 0.175
4.691 -4.5062499 0.117
4.7587376 -4.5054531 0.14502379
4.8541369 -4.5065355 0.1490517
4.9223914 -4.5114789 0.17273913
5.7436118 -4.5503545 0.1513878
5.8804998 -4.5895 0.148
5.9709044 -4.5515242 0.14904761
6.0279999 -4.5040002 0.16
4.6840134 -4.4541535 0.12449999
4.7309041 -4.4607024 0.16794537
4.8424768 -4.497715 0.16176192
4.9406252 -4.4933748 0.155875
5.7523327 -4.4511757 0.15018442
5.8035002 -4.4089999 0.1145
5.9817338 -4.4555001 0.15693332
6.0083332 -4.4256668 0.14500001
6.7874999 -4.4520502 0.1858
4.6834416 -4.3653026 0.11760464
4.7394533 -4.3564582 0.15704839
4.8456416 -4.3470664 0.15145335
4.9320354 -4.3492861 0.16278571
5.0110002 -4.349 0.192
5.7515941 -4.3511572 0.15016544
5.9314094 -4.3503189 0.15240909
6.8330002 -4.3969998 0.156
6.9294996 -4.3985 0.148
5.761126 -4.2511654 0.14885417
5.8522 -4.2206507 0.17910001
5.925808 -4.2499614 0.15334614
5.7744007 -4.1794672 0.12203335
5.8461089 -4.1802149 0.12810715
5.9204288 -4.180572 0.12285714
5.6774998 -4.7224998 0.23999999
5.7448015 -4.728869 0.22675408
5.8475528 -4.7371483 0.23259574
5.9000001 -4.743 0.204
5.697 -4.6869998 0.27900001
5.7360783 -4.6538067 0.24933816
5.8658662 -4.671567 0.26510009
5.9023337 -4.6353335 0.21000001
4.7848577 -4.5040002 0.22771427
4.8611083 -4.5058384 0.24716218
4.9530005 -4.5070677 0.25100002
5.0257773 -4.5079446 0.27755558
5.6950002 -4.5539999 0.23800001
5.7378135 -4.5505962 0.25191781
5.889667 -4.5770001 0.226
5.9759002 -4.5506501 0.24464999
6.0004997 -4.5334997 0.25600001
6.6866665 -4.5156665 0.28666669
6.8526855 -4.5539207 0.24631581
4.7742138 -4.4546413 0.22992234
4.8290081 -4.4679461 0.26600909
4.945312 -4.4987502 0.25893748
5.0142498 -4.4977503 0.28075001
5.6799288 -4.4160004 0.26792857
5.7404637 -4.4521666 0.25007254
5.9766917 -4.4474106 0.24989742
6.0057502 -4.4242501 0.27700001
6.6886005 -4.4435196 0.2902
6.7443042 -4.4431863 0.24380504
6.8439565 -4.4100447 0.24035557
6.9548521 -4.4295082 0.24244258
4.7779369 -4.3652811 0.22518747
4.8368487 -4.3530545 0.25892919
4.9517546 -4.3457751 0.24685715
5.0314584 -4.3485003 0.26404166
5.67875 -4.3942499 0.26725
5.7483039 -4.3492808 0.24971841
5.8614292 -4.3212857 0.28357145
5.9280739 -4.3417411 0.25511113
6.006 -4.3969998 0.222
6.697 -4.3959999 0.29350001
6.7581177 -4.3955884 0.26582351
6.8449998 -4.3943686 0.25652632
6.9399996 -4.3967652 0.24652942
5.7594533 -4.2759223 0.23557812
5.8415504 -4.2697997 0.24464996
5.9175296 -4.2724118 0.2364706
5.7486534 -4.6298881 0.33043212
5.8482037 -4.6406527 0.33640814
5.9349999 -4.6055002 0.35549998
4.8703337 -4.5043335 0.31100002
4.9544482 -4.5039992 0.33868963
5.0486407 -4.5064998 0.34917998
5.1170001 -4.5064998 0.37900001
5.7412739 -4.5500221 0.35100719
5.8556366 -4.5910912 0.377
5.9639997 -4.5663133 0.36315623
6.5949998 -4.5158 0.38750002
6.6510139 -4.5267229 0.34763896
6.7470236 -4.5478182 0.34575
6.848804 -4.5479779 0.34728253
6.9068003 -4.5338001 0.31200001
4.8673921 -4.4549789 0.33634251
4.9307065 -4.4729338 0.37123919
5.0406523 -4.4966526 0.35582608
5.1281819 -4.4682732 0.37181821
5.7411561 -4.450119 0.34948146
5.8934999 -4.4175 0.347
5.9763937 -4.450273 0.34445453
6.0033336 -4.4173336 0.34666666
6.5933752 -4.4514999 0.39024997
6.6410608 -4.4466176 0.34759998
6.7446389 -4.4097996 0.34959999
6.8484797 -4.4307046 0.34881818
6.9104996 -4.4418001 0.31140003
4.8715892 -4.3628945 0.33105266
4.9356666 -4.3473573 0.36153081
5.045085 -4.3437448 0.34951058
5.1221581 -4.3561583 0.36226314
5.7545304 -4.3610878 0.34142154
5.8518934 -4.3474479 0.3468298
5.9463639 -4.3784237 0.35418183
6.0053339 -4.3959999 0.36600003
6.6592283 -4.3930283 0.36425719
6.7448368 -4.3918381 0.35351354
6.8392124 -4.3931518 0.34460613
6.9000001 -4.3959999 0.30399999
4.9708333 -4.5051665 0.43483338
5.0558925 -4.5036778 0.439143
5.1423993 -4.5074754 0.45014998
5.2136669 -4.5056667 0.48183331
5.7510295 -4.5473695 0.44681194
5.8508697 -4.5773335 0.45085183
5.9580874 -4.5705147 0.44710299
6.0105 -4.5770001 0.44150001
6.5574617 -4.5248413 0.454016
6.6491551 -4.5413995 0.4485333
6.7462859 -4.5413332 0.44759524
6.8128338 -4.5293336 0.40516669
4.9622574 -4.4559054 0.44403943
5.0383534 -4.4862413 0.46138701
5.1516838 -4.4825263 0.44894731
5.2260003 -4.4623332 0.47911114
5.7465606 -4.4505663 0.44836032
5.8835001 -4.4105 0.44150001
5.9718976 -4.4426155 0.44392309
6.0040002 -4.4169998 0.458
6.4949999 -4.414 0.491
6.5499482 -4.4476533 0.44981527
6.6406822 -4.4111366 0.45268187
6.7550535 -4.4294863 0.45527032
6.8139997 -4.4393334 0.41733333
4.9647279 -4.3632526 0.44075724
5.0336294 -4.3426776 0.45956448
5.1482248 -4.3474827 0.45220691
5.2247777 -4.3618884 0.47255558
5.7585001 -4.3804703 0.4511666
5.8500204 -4.3794165 0.44852084
5.949955 -4.3852735 0.44602275
6.0025001 -4.3928752 0.45000002
6.5565624 -4.3925633 0.46090624
6.6520629 -4.3875217 0.44835421
6.7375393 -4.3887315 0.44465387
6.8056002 -4.3922 0.41000006
5.0767999 -4.5032001 0.53220004
5.154839 -4.5046124 0.54706448
5.241652 -4.5072832 0.55095655
5.3094997 -4.5057502 0.58649999
5.7516513 -4.547606 0.55047292
5.8516355 -4.5735574 0.54840386
5.9506459 -4.5701699 0.5491845
6.465354 -4.5230837 0.56077087
6.5479989 -4.5324402 0.54299998
6.6502628 -4.5359755 0.5503571
6.7088332 -4.539 0.50650007
4.9980001 -4.48 0.50099999
5.0537529 -4.4558964 0.54785132
5.1421027 -4.4962816 0.5537948
5.2513332 -4.4843812 0.55542856
5.3147998 -4.4660006 0.5844
5.7450924 -4.4529057 0.55000013
5.9793878 -4.4454832 0.54580647
6.0025001 -4.4359999 0.5715
6.4614964 -4.4494872 0.55279827
6.531065 -4.4313869 0.53161287
6.6551247 -4.4319377 0.55250001
6.7155337 -4.4456668 0.51613337
4.9984999 -4.3859997 0.50150001
5.0558624 -4.3598709 0.54578042
5.1575871 -4.3412228 0.55015868
5.2477169 -4.3484998 0.54949999
5.3177142 -4.3592863 0.58042854
5.7567577 -4.3791776 0.55227411
5.8470964 -4.3750491 0.5449999
5.9483733 -4.3838429 0.54994112
6.0029998 -4.3940001 0.514
6.4678497 -4.3923502 0.56995004
6.5455961 -4.3887658 0.55076587
6.6409769 -4.3881593 0.54859096
6.70925 -4.38975 0.51525003
5.1340003 -4.5013995 0.62220001
5.2636967 -4.5051513 0.63793945
5.3431892 -4.5095673 0.65486479
5.4025002 -4.5039997 0.69149995
5.7497935 -4.5448155 0.65034401
5.8534484 -4.5695181 0.64976805
5.953186 -4.5656276 0.65199995
6 -4.5640001 0.676
6.3652287 -4.5146275 0.66265714
6.4437594 -4.5250926 0.64512968
6.5492868 -4.5329766 0.65157133
6.6220531 -4.5314736 0.62742102
5.0931253 -4.43325 0.60637498
5.1446872 -4.4578629 0.64912426
5.2398572 -4.4958334 0.65614283
5.3444705 -4.4833536 0.6591177
5.7415843 -4.4515843 0.64826399
5.9778271 -4.4513469 0.65160877
6.0019999 -4.441 0.64099997
6.3635406 -4.4509525 0.66026604
6.4133887 -4.4412785 0.61650002
6.5656929 -4.4164615 0.66661543
6.6204081 -4.4444451 0.64307404
5.0956249 -4.36975 0.60325003
5.1501083 -4.357255 0.6479069
5.2476711 -4.3425093 0.65032786
5.3409824 -4.3504486 0.65317243
5.4134998 -4.3667498 0.68425
5.7570419 -4.3768878 0.65100002
5.8567953 -4.3724618 0.6476922
5.9461217 -4.3780966 0.64978045
6.0019999 -4.3944998 0.64674997
6.36448 -4.3864803 0.67088002
6.4445829 -4.3845 0.64979178
6.5464869 -4.3877807 0.64834142
6.6177273 -4.3901367 0.64109093
5.1960001 -4.5040002 0.69999999
5.2778335 -4.5021667 0.74366665
5.3647585 -4.5049648 0.73358625
5.4345155 -4.5085459 0.76300007
5.5 -4.507 0.79299998
5.7499499 -4.5425601 0.7486828
5.8519583 -4.5662088 0.75154173
5.9510379 -4.5593395 0.74916995
6.0299997 -4.5450001 0.7155
6.2691855 -4.5101848 0.77077776
6.3454518 -4.5173135 0.74474525
6.4522448 -4.5250812 0.75091821
6.5384769 -4.526762 0.72614282
5.1887174 -4.4486303 0.71295667
5.239481 -4.4621792 0.7577104
5.3437142 -4.4960232 0.7578572
5.4311996 -4.4983001 0.75410002
5.7401915 -4.4503093 0.74712491
5.9795451 -4.4513187 0.75695455
6.2690454 -4.4512849 0.76303309
6.317975 -4.4433842 0.71764112
6.4720001 -4.4351668 0.76233333
6.5407238 -4.4467583 0.74206901
5.1912003 -4.3667998 0.71064991
5.2429495 -4.3562212 0.75472647
5.3490915 -4.3411636 0.75030905
5.4384551 -4.346303 0.75721222
5.5 -4.3779998 0.77999997
5.7545142 -4.3751292 0.75108564
5.8532567 -4.36941 0.75243586
5.9532251 -4.3743672 0.74779594
6 -4.3839998 0.708
6.274591 -4.3835001 0.77109104
6.3468437 -4.3814478 0.74439645
6.451633 -4.3820972 0.75036579
6.5372505 -4.3872008 0.73229998
5.3713336 -4.5046668 0.84466666
5.4594879 -4.5063901 0.84365851
5.5236001 -4.5067334 0.86593342
5.7451811 -4.5399704 0.84827012
5.8469625 -4.5635657 0.84573591
5.948307 -4.5580616 0.84777558
6.1803336 -4.5059171 0.8777501
6.2477345 -4.5110612 0.84885722
6.3473182 -4.5185108 0.84923398
6.4282312 -4.5203471 0.83523089
5.2813492 -4.4538841 0.82125014
5.3350458 -4.4666605 0.85903764
5.4394517 -4.4960003 0.8580001
5.5605001 -4.4862499 0.86500001
5.6160002 -4.4759998 0.89700001
5.7388482 -4.4500999 0.84841663
5.9760919 -4.4620004 0.85045451
6.0384998 -4.4204998 0.8955
6.1705236 -4.4590158 0.86373752
6.2205477 -4.457191 0.82021415
6.3969998 -4.4794998 0.89349997
6.444037 -4.4471788 0.84889293
5.2831831 -4.3668423 0.81944734
5.3420963 -4.3512201 0.85765731
5.4538846 -4.339674 0.85081393
5.5426087 -4.3525658 0.85608691
5.7530851 -4.3740578 0.84611434
5.8525429 -4.3651714 0.85102874
5.9463248 -4.3714252 0.84619999
6.0139999 -4.3860002 0.85140002
6.1761913 -4.3780956 0.87052381
6.2410769 -4.3735671 0.846434
6.3471584 -4.3775096 0.84941179
6.4389639 -4.385107 0.84371436
5.4678235 -4.5045881 0.94017649
5.5495257 -4.5053253 0.94884998
5.6186247 -4.5098753 0.97737503
5.7452278 -4.5404429 0.94935238
5.8500748 -4.5588861 0.94896239
5.9448647 -4.5518408 0.94550008
6.0488005 -4.5213003 0.97049999
6.1586838 -4.5052099 0.95349997
6.2510414 -4.5109587 0.94945836
6.3323331 -4.5168896 0.93655545
5.3733668 -4.4510107 0.92578876
5.4325333 -4.4691648 0.96519399
5.5456438 -4.4975004 0.94878584
5.6468887 -4.4854445 0.96555561
5.7360549 -4.4497585 0.93943244
5.9803753 -4.4613752 0.93000001
6.0729284 -4.4261432 0.95707148
6.124084 -4.4590836 0.92508334
6.3443208 -4.4497147 0.95246434
6.402 -4.4029999 0.91399997
5.3787556 -4.3665514 0.92624485
5.4356236 -4.348454 0.95984399
5.5440693 -4.3401866 0.94823253
5.6254377 -4.3524995 0.96162498
5.7514911 -4.3673215 0.94832081
5.8535342 -4.3603716 0.9481861
5.9398069 -4.367774 0.95122582
6.0594082 -4.3741479 0.96581483
6.149374 -4.3677502 0.94397926
6.2465334 -4.3689556 0.94928896
6.333333 -4.3783946 0.94354546
5.4803333 -4.5030003 1.0143334
5.5569201 -4.5043197 1.0406399
5.6502948 -4.5062351 1.0527059
5.747314 -4.5382209 1.0517442
5.8484888 -4.5555921 1.0481633
5.9413581 -4.5468092 1.0495476
6.054687 -4.5158124 1.0506876
6.1585455 -4.5071816 1.0544544
6.2375998 -4.5107002 1.0323334
5.4678569 -4.4566593 1.033505
5.5280871 -4.4689989 1.0695797
5.6366673 -4.4979339 1.0506667
5.7318897 -4.4887781 1.0323333
5.9900002 -4.4847498 1.046
6.0945001 -4.4980001 1.0655
6.1354003 -4.4971004 1.0447999
6.2530456 -4.4511819 1.0489546
6.3039999 -4.4219999 1.0105
5.4711461 -4.3650317 1.0306292
5.5359011 -4.3474789 1.0616761
5.6463513 -4.3416758 1.0511351
5.7519999 -4.3548226 1.0471778
5.8577695 -4.3603082 1.0500512
5.9528904 -4.3642163 1.0512975
6.0519028 -4.3614326 1.0453923
6.1490631 -4.3594065 1.0465001
6.2394753 -4.3723497 1.044525
6.3130002 -4.3699999 1
5.5723333 -4.5020003 1.1293334
5.6579585 -4.503583 1.1420416
5.7491231 -4.5348315 1.1491797
5.8545094 -4.5527353 1.1504906
5.9427824 -4.5486298 1.1515217
6.0591998 -4.5071998 1.1539
6.1399636 -4.5069995 1.136889
5.5615926 -4.4526443 1.1418304
5.6274004 -4.4832439 1.1663333
5.722929 -4.4972863 1.1622858
5.9860001 -4.4825001 1.125
6.071455 -4.4959092 1.1557273
6.1497831 -4.4640265 1.1487027
6.2076001 -4.461 1.101
5.5671287 -4.365829 1.1409572
5.6413145 -4.3433528 1.1560982
5.7537513 -4.3456941 1.1509167
5.8525939 -4.3560815 1.1486486
5.9450374 -4.3514905 1.1489246
6.0517311 -4.3542433 1.1488535
6.1447496 -4.3642778 1.1454998
6.2139997 -4.3702497 1.10825
5.6603332 -4.5053339 1.2406667
5.7511969 -4.5332894 1.2502105
5.8469238 -4.5475383 1.2522691
5.9467626 -4.5468297 1.248966
6.0440001 -4.5100002 1.234
5.598 -4.4679999 1.2
5.6556392 -4.4522719 1.2465001
5.7221932 -4.4899611 1.2572308
6.0568266 -4.461565 1.253261
6.1079998 -4.4443336 1.2103333
5.6603427 -4.3649764 1.2440121
5.749639 -4.3359151 1.2532978
5.8516183 -4.3422055 1.2462353
5.9432769 -4.3401699 1.2475957
6.0493708 -4.3610859 1.2500572
6.1209998 -4.3699999 1.2108001
5.9390001 -4.2980003 1.209
5.8467402 -4.5427213 1.3494815
5.9484034 -4.5416665 1.3503338
5.6957498 -4.4475002 1.3035001
5.7306161 -4.4513202 1.3512659
5.9798698 -4.455565 1.3593478
6.0137496 -4.4305 1.313
5.697 -4.3629999 1.3
5.7425952 -4.361939 1.3531009
5.8433104 -4.339262 1.3483809
5.9567509 -4.3536043 1.3531876
6.018858 -4.3727145 1.325
5.9452548 -4.5394545 1.4471275
5.7329302 -4.451756 1.4490739
5.9768629 -4.4540453 1.4510455
5.7459559 -4.3630433 1.4496088
5.8470912 -4.3434849 1.4500607
5.9565263 -4.3545637 1.4488362
5.7438593 -4.360817 1.5493497
5.8462982 -4.338757 1.5505946
5.9583459 -4.3520579 1.5493075
6.006 -4.3575001 1.568
5.9600573 -4.3522692 1.6507307
6.0029998 -4.342 1.661
5.7400274 -4.3438892 2.1496027
5.8435655 -4.3173075 2.1520002
6.007 -4.3410001 2.181
5.7518077 -4.5087123 2.2483079
5.8508668 -4.5113335 2.2467558
5.9348459 -4.5161033 2.2490001
5.697 -4.4840002 2.2179999
5.7239447 -4.4515395 2.2490227
5.8249998 -4.5 2.299
5.9685922 -4.4477406 2.2567406
5.740953 -4.346067 2.2491264
5.8479176 -4.3157344 2.2503676
5.9542732 -4.3348184 2.2510722
5.7659998 -4.3000002 2.2709999
5.750906 -4.5069046 2.342643
5.85251 -4.5078444 2.3487055
5.9360552 -4.514945 2.3488336
5.7218819 -4.4510155 2.3522186
5.8036666 -4.4993334 2.378
5.9661202 -4.4464803 2.3473599
5.698 -4.3379998 2.381
5.7318048 -4.3464975 2.3481531
5.8536043 -4.3119774 2.3446279
5.9544473 -4.3303967 2.3529308
5.7551174 -4.2943525 2.372
5.8255997 -4.2853003 2.3857
5.697 -4.5250001 2.487
5.7487621 -4.5167465 2.4564776
5.8458514 -4.5127659 2.4529998
5.9340997 -4.5118008 2.4470997
5.6960773 -4.435308 2.4730771
5.7154765 -4.4527092 2.446594
5.8432498 -4.4980001 2.4402499
5.9661078 -4.4528575 2.4442508
5.6665945 -4.3249063 2.4667814
5.7186046 -4.3513422 2.4469302
5.8769999 -4.3091998 2.4382
5.9572501 -4.3344793 2.4432292
5.6726665 -4.2813334 2.4679999
5.7391295 -4.2541528 2.4501762
5.846036 -4.2419114 2.4491603
5.9060001 -4.2719998 2.451
5.7563338 -4.1847339 2.4892669
5.8326149 -4.1880774 2.481077
5.693666 -4.5288095 2.5742381
5.7306814 -4.5487237 2.5515773
5.8351474 -4.5581303 2.5561669
5.93328 -4.5133595 2.5387197
5.6881771 -4.4636664 2.5588431
5.7116885 -4.4465804 2.5410106
5.8509998 -4.5 2.5769999
5.963655 -4.4510002 2.5477693
5.6896667 -4.357667 2.5266666
5.7258596 -4.3511486 2.5501819
5.8893332 -4.3026667 2.5463333
5.9655881 -4.3451767 2.550559
5.6950002 -4.2820001 2.507
5.7255273 -4.2515454 2.5495045
5.8792386 -4.2362385 2.5425713
5.967 -4.2950001 2.5940001
5.7406216 -4.1559548 2.5507278
5.8532505 -4.1445999 2.5435166
5.757319 -4.0842395 2.5859597
5.8464704 -4.0865293 2.5828824
5.6916671 -4.6100836 2.6750832
5.741334 -4.6231437 2.6645875
5.8291669 -4.6231427 2.657095
5.6907792 -4.5456915 2.6549509
5.7178082 -4.5644994 2.6378534
5.8386788 -4.5682502 2.6388576
5.954 -4.5009999 2.6689999
5.6942554 -4.4615817 2.6516912
5.7118683 -4.4440923 2.6449873
5.8505001 -4.4990005 2.6442499
5.9594378 -4.4572811 2.6514683
5.7266092 -4.3509474 2.6489851
5.8705001 -4.3032498 2.6507499
5.9715366 -4.349143 2.6563575
5.7339907 -4.250967 2.6450582
5.8671365 -4.2384553 2.6480453
5.902 -4.2255001 2.6430001
5.7289433 -4.152658 2.6484468
5.8839545 -4.1552262 2.6491821
5.9060001 -4.158 2.6040001
5.7378721 -4.053144 2.6525917
5.8562713 -4.0429568 2.6395996
5.9004998 -4.0764999 2.66925
5.7510843 -3.9796665 2.6815
5.8391905 -3.9832852 2.6814282
5.7390003 -4.7033339 2.7920003
5.688457 -4.639205 2.7608972
5.739378 -4.6650944 2.7453368
5.8305926 -4.6541018 2.7519798
5.6870141 -4.5526471 2.7522616
5.7075262 -4.5550528 2.7360525
5.8450804 -4.5603604 2.7544799
5.6894999 -4.484375 2.7345002
5.7192845 -4.4430842 2.7509439
5.8379998 -4.4935002 2.7537501
5.9546208 -4.4582067 2.7454138
5.723105 -4.3502173 2.7501056
5.8636665 -4.3023334 2.7533336
5.9688215 -4.3505721 2.7529645
5.7562647 -4.2723022 2.742151
5.8270783 -4.2780004 2.7663078
5.9380002 -4.2979999 2.789
5.7371349 -4.1482286 2.7445836
5.8661747 -4.1543913 2.7490871
5.9000001 -4.1259999 2.7409999
5.7318006 -4.0524263 2.7472665
5.8884673 -4.0521679 2.7523332
5.9029999 -4.098 2.7950001
5.7411795 -3.9533305 2.748677
5.862813 -3.943136 2.7395592
5.9095001 -3.957 2.766
5.7535834 -3.8833749 2.7782085
5.8471107 -3.8825183 2.7805932
5.6844997 -4.7188058 2.8647499
5.740541 -4.7287364 2.8521049
5.8215594 -4.7252941 2.8584416
5.6845956 -4.6503868 2.8487327
5.7240005 -4.6717691 2.8250768
5.8348293 -4.6537709 2.8490858
5.6822996 -4.5635915 2.8457627
5.7297244 -4.5355172 2.8561039
5.8412218 -4.5659442 2.8524446
5.7210679 -4.4484658 2.8501618
5.822 -4.4873333 2.8506668
5.9558287 -4.4586291 2.8448005
5.7231798 -4.3508449 2.8508267
5.8730001 -4.303 2.8970001
5.9695797 -4.3514481 2.8473163
5.7498603 -4.2898993 2.8531799
5.8507881 -4.2916365 2.8515759
5.9240007 -4.2928333 2.8800001
5.7532501 -4.1155005 2.8246667
5.8241668 -4.1196671 2.8145003
5.741631 -4.0427504 2.8435979
5.8747497 -4.045301 2.8483999
5.9059997 -4.0163336 2.8510003
5.7391343 -3.9495358 2.8475261
5.8919997 -3.9513338 2.8455834
5.9054003 -3.9408002 2.8428004
5.7484884 -3.851042 2.8482466
5.8588939 -3.838429 2.8372147
5.9134297 -3.8452141 2.8634291
5.7632508 -3.7771568 2.8774061
5.8483915 -3.7810438 2.8796959
5.9086666 -3.7806668 2.8926668
5.6960001 -4.803 2.9920001
5.7445722 -4.8082862 2.9864287
5.8140006 -4.8101435 2.9862857
5.6795812 -4.7433639 2.9573913
5.7429113 -4.7753572 2.9379253
5.8224459 -4.7537451 2.9480433
5.6765032 -4.6533384 2.9485018
5.7202001 -4.6302004 2.9403999
5.8323331 -4.6435928 2.9532964
5.6805835 -4.58325 2.9339168
5.7393336 -4.57025 2.9472778
5.828846 -4.5785384 2.9363844
5.9169998 -4.513 2.9630001
5.7274857 -4.4533219 2.9500349
5.8122501 -4.4832497 2.95525
5.9548278 -4.4530344 2.9526894
5.7222314 -4.3482327 2.9501812
5.8990002 -4.309 2.984
5.9656672 -4.3424225 2.9463336
6.0360003 -4.3334999 2.9914999
5.7468343 -4.285315 2.9520185
5.8521395 -4.2865 2.9540555
5.936286 -4.2937613 2.9518571
5.7645001 -4.0228753 2.91325
5.8313332 -4.0223331 2.9226665
5.9029999 -4.0029998 2.908
5.7500982 -3.9410729 2.9419394
5.8709998 -3.9516363 2.9519546
5.9077497 -3.9236248 2.9307499
5.7451859 -3.8500626 2.949893
5.8941112 -3.8590004 2.9401109
5.90975 -3.8546872 2.9578123
5.7543163 -3.7522581 2.9484084
5.8580427 -3.7342391 2.9323266
5.9112144 -3.7534645 2.9556437
5.7659006 -3.6777003 2.9752009
5.8459692 -3.6739378 2.9782188
5.9110003 -3.6733336 2.9866667
0 0 0 1 0 0 0 1 0 0 0 1 0 0 0 0 0 652 1 0 0
