ply
format ascii 1.0
comment PCL generated
element vertex 2050
property float x
property float y
property float z
element camera 0
property float view_px
property float view_py
property float view_pz
property float x_axisx
property float x_axisy
property float x_axisz
property float y_axisx
property float y_axisy
property float y_axisz
property float z_axisx
property float z_axisy
property float z_axisz
property float focal
property float scalex
property float scaley
property float centerx
property float centery
property int viewportx
property int viewporty
property float k1
property float k2
end_header
-15.566 12.062 2.5250001
-15.565 11.998 2.661
-15.578 11.998 2.595
-15.577 11.934 2.7309999
-15.587 11.933 2.664
-15.576 11.867 2.8
-15.595 11.868 2.734
-15.603 11.805 2.8710001
-15.598 11.802 2.803
-15.582 11.736 2.9389999
-15.626 11.739 2.8740001
-15.618 11.672 2.9430001
-15.521 12.409 2.3759999
-15.494 12.396 2.3039999
-15.498 12.394 2.234
-15.523 12.336 2.448
-15.519 12.332 2.3770001
-15.496 12.32 2.306
-15.495 12.317 2.2360001
-15.61 12.357 2.171
-15.521 12.264 2.5190001
-15.525 12.262 2.4489999
-15.521 12.257 2.3789999
-15.53 12.258 2.309
-15.651 12.3 2.2449999
-15.521 12.19 2.5910001
-15.532 12.191 2.5209999
-15.527 12.186 2.451
-15.527 12.183 2.381
-15.666 12.232 2.3180001
-15.534 12.122 2.6630001
-15.538 12.12 2.5929999
-15.538 12.117 2.523
-15.543 12.116 2.454
-15.682 12.164 2.391
-15.566 12.062 2.737
-15.555 12.055 2.6659999
-15.553 12.051 2.596
-15.553 12.048 2.526
-15.643 12.078 2.461
-15.562 11.989 2.8080001
-15.567 11.988 2.7379999
-15.562 11.983 2.668
-15.586 11.989 2.599
-15.678 12.019 2.5350001
-15.562 11.917 2.8800001
-15.576 11.92 2.8110001
-15.586 11.92 2.7409999
-15.586 11.917 2.671
-15.576 11.851 2.9519999
-15.59 11.853 2.8829999
-15.587 11.849 2.813
-15.619 11.858 2.7449999
-15.595 11.784 2.9549999
-15.596 11.781 2.885
-15.628 11.79 2.8169999
-15.605 11.713 2.957
-15.656 11.729 2.8900001
-14.704 12.642 0.109
-14.684 12.58 0.075000003
-15.293 12.821 2.845
-15.375 12.889 2.825
-15.378 12.892 2.79
-15.358 12.875 2.7509999
-15.378 12.892 2.7179999
-15.372 12.887 2.6819999
-15.379 12.893 2.6470001
-15.354 12.872 2.6070001
-15.367 12.883 2.5739999
-15.366 12.883 2.539
-15.367 12.883 2.503
-15.373 12.888 2.4690001
-15.366 12.883 2.4319999
-15.381 12.895 2.3989999
-15.326 12.849 2.355
-15.344 12.864 2.322
-15.335 12.857 2.286
-15.321 12.844 2.2479999
-15.342 12.863 2.2160001
-15.252 12.74 2.7980001
-15.25 12.738 2.7620001
-15.274 12.758 2.7309999
-15.326 12.801 2.7049999
-15.347 12.819 2.6730001
-15.348 12.82 2.638
-15.348 12.821 2.6029999
-15.348 12.82 2.5669999
-15.352 12.824 2.5320001
-15.343 12.817 2.4960001
-15.35 12.822 2.461
-15.348 12.82 2.425
-15.358 12.829 2.392
-15.34 12.814 2.3540001
-15.332 12.808 2.3169999
-15.345 12.818 2.2839999
-15.324 12.801 2.2449999
-15.35 12.823 2.214
-15.33 12.806 2.1760001
-15.34 12.815 2.142
-15.342 12.817 2.1070001
-15.271 12.711 2.7620001
-15.277 12.715 2.7279999
-15.301 12.735 2.697
-15.314 12.747 2.664
-15.325 12.755 2.6300001
-15.342 12.77 2.598
-15.344 12.771 2.563
-15.347 12.774 2.5280001
-15.359 12.784 2.494
-15.358 12.784 2.4590001
-15.341 12.769 2.421
-15.358 12.784 2.388
-15.33 12.76 2.349
-15.359 12.785 2.3180001
-15.366 12.791 2.2839999
-15.347 12.775 2.2449999
-15.342 12.771 2.21
-15.355 12.781 2.1760001
-15.334 12.765 2.138
-15.344 12.773 2.1040001
-15.348 12.777 2.0699999
-15.352 12.78 2.0350001
-15.296 12.686 2.727
-15.297 12.687 2.6919999
-15.333 12.717 2.6630001
-15.35 12.731 2.631
-15.359 12.739 2.5969999
-15.372 12.75 2.5639999
-15.363 12.742 2.527
-15.36 12.74 2.4909999
-15.371 12.749 2.457
-15.368 12.746 2.4219999
-15.35 12.731 2.3829999
-15.354 12.735 2.349
-15.371 12.749 2.316
-15.361 12.741 2.279
-15.364 12.744 2.2449999
-15.359 12.74 2.2090001
-15.348 12.731 2.1719999
-15.354 12.736 2.138
-15.356 12.738 2.1029999
-15.349 12.732 2.0669999
-15.364 12.745 2.0339999
-15.355 12.737 1.997
-15.361 12.742 1.9630001
-15.353 12.736 1.927
-15.318 12.658 2.6919999
-15.335 12.673 2.6600001
-15.342 12.678 2.6259999
-15.359 12.693 2.5929999
-15.372 12.703 2.5599999
-15.352 12.687 2.5209999
-15.373 12.705 2.49
-15.371 12.703 2.454
-15.371 12.703 2.4189999
-15.368 12.701 2.3829999
-15.366 12.699 2.3469999
-15.367 12.7 2.312
-15.369 12.701 2.277
-15.365 12.699 2.2420001
-15.368 12.701 2.207
-15.369 12.702 2.1719999
-15.367 12.7 2.1359999
-15.364 12.698 2.1010001
-15.36 12.694 2.0650001
-15.359 12.694 2.03
-15.36 12.695 1.995
-15.381 12.712 1.962
-15.367 12.701 1.926
-15.355 12.691 1.8890001
-15.36 12.695 1.855
-15.358 12.646 2.6949999
-15.353 12.641 2.6589999
-15.352 12.641 2.6229999
-15.356 12.644 2.589
-15.381 12.664 2.5580001
-15.379 12.663 2.5220001
-15.371 12.657 2.4860001
-15.375 12.66 2.451
-15.376 12.661 2.4159999
-15.379 12.663 2.381
-15.375 12.66 2.345
-15.374 12.659 2.3099999
-15.378 12.663 2.2750001
-15.371 12.657 2.2390001
-15.367 12.654 2.2030001
-15.383 12.667 2.171
-15.361 12.649 2.132
-15.368 12.655 2.098
-15.373 12.659 2.0639999
-15.367 12.654 2.0280001
-15.353 12.643 1.9910001
-15.375 12.661 1.959
-15.367 12.655 1.923
-15.359 12.649 1.887
-15.363 12.651 1.852
-15.358 12.648 1.817
-15.363 12.652 1.7819999
-15.359 12.649 1.747
-15.395 12.631 2.6619999
-15.415 12.647 2.6300001
-15.409 12.642 2.5940001
-15.408 12.642 2.559
-15.404 12.638 2.523
-15.429 12.659 2.4909999
-15.439 12.667 2.4579999
-15.428 12.658 2.4200001
-15.439 12.667 2.3870001
-15.427 12.658 2.3499999
-15.423 12.654 2.3139999
-15.419 12.651 2.2780001
-15.421 12.653 2.243
-15.432 12.662 2.2090001
-15.419 12.652 2.1719999
-15.423 12.655 2.138
-15.426 12.657 2.1029999
-15.432 12.663 2.069
-15.426 12.658 2.033
-15.41 12.645 1.9960001
-15.425 12.657 1.962
-15.41 12.645 1.925
-15.417 12.651 1.891
-15.424 12.657 1.857
-15.4 12.637 1.819
-15.401 12.638 1.784
-15.404 12.641 1.749
-15.41 12.645 1.715
-15.409 12.645 1.6799999
-15.492 12.666 2.6400001
-15.483 12.658 2.6029999
-15.476 12.652 2.566
-15.494 12.667 2.5339999
-15.489 12.663 2.497
-15.486 12.661 2.461
-15.481 12.657 2.425
-15.477 12.653 2.3889999
-15.502 12.674 2.358
-15.498 12.671 2.322
-15.5 12.673 2.2869999
-15.496 12.67 2.2509999
-15.504 12.676 2.217
-15.491 12.666 2.1800001
-15.498 12.671 2.145
-15.489 12.664 2.109
-15.449 12.631 2.0680001
-15.441 12.625 2.0320001
-15.464 12.644 2
-15.462 12.642 1.964
-15.478 12.656 1.931
-15.463 12.643 1.8940001
-15.476 12.654 1.8609999
-15.488 12.664 1.827
-15.497 12.672 1.793
-15.488 12.664 1.756
-15.504 12.678 1.723
-15.496 12.671 1.687
-15.496 12.671 1.652
-15.485 12.662 1.6160001
-15.487 12.664 1.581
-15.554 12.672 2.6110001
-15.55 12.669 2.575
-15.553 12.671 2.54
-15.55 12.669 2.5039999
-15.555 12.673 2.4690001
-15.571 12.686 2.4360001
-15.575 12.689 2.401
-15.567 12.683 2.3640001
-15.568 12.684 2.329
-15.562 12.68 2.293
-15.568 12.684 2.2579999
-15.571 12.687 2.223
-15.568 12.685 2.187
-15.466 12.602 2.138
-15.446 12.585 2.0999999
-15.467 12.603 2.0680001
-15.466 12.602 2.0320001
-15.46 12.597 1.9960001
-15.467 12.603 1.962
-15.463 12.6 1.927
-15.477 12.611 1.893
-15.494 12.625 1.86
-15.533 12.656 1.829
-15.568 12.686 1.798
-15.57 12.687 1.763
-15.558 12.678 1.727
-15.571 12.688 1.693
-15.567 12.685 1.6569999
-15.559 12.679 1.6210001
-15.565 12.684 1.587
-15.561 12.681 1.551
-15.569 12.687 1.516
-15.614 12.675 2.582
-15.614 12.676 2.546
-15.447 12.541 2.1670001
-15.455 12.548 2.1329999
-15.469 12.559 2.0999999
-15.483 12.571 2.0669999
-15.472 12.562 2.03
-15.465 12.556 1.994
-15.473 12.562 1.96
-15.492 12.578 1.927
-15.517 12.599 1.895
-15.567 12.639 1.8660001
-15.579 12.649 1.832
-15.575 12.646 1.7970001
-15.467 12.513 2.237
-15.481 12.524 2.204
-15.476 12.52 2.168
-15.485 12.527 2.1340001
-15.473 12.517 2.098
-15.483 12.525 2.0639999
-15.482 12.525 2.029
-15.49 12.532 1.995
-15.504 12.543 1.961
-15.53 12.564 1.929
-15.593 12.615 1.902
-15.587 12.611 1.8660001
-15.473 12.473 2.27
-15.482 12.48 2.2360001
-15.477 12.476 2.2
-15.485 12.483 2.1659999
-15.48 12.479 2.131
-15.475 12.474 2.095
-15.485 12.483 2.0610001
-15.506 12.499 2.029
-15.523 12.514 1.9960001
-15.568 12.55 1.967
-15.598 12.574 1.9349999
-15.468 12.424 2.336
-15.475 12.43 2.302
-15.494 12.445 2.27
-15.492 12.443 2.234
-15.494 12.445 2.2
-15.493 12.444 2.164
-15.49 12.442 2.1289999
-15.485 12.438 2.0929999
-15.522 12.468 2.063
-15.545 12.487 2.0309999
-15.583 12.517 2.0009999
-15.494 12.4 2.372
-15.502 12.407 2.3380001
-15.507 12.411 2.3039999
-15.495 12.401 2.267
-15.499 12.405 2.2320001
-15.492 12.399 2.1960001
-15.502 12.407 2.1630001
-15.504 12.409 2.128
-15.527 12.428 2.096
-15.56 12.454 2.0650001
-15.585 12.474 2.0339999
-15.501 12.361 2.3699999
-15.491 12.353 2.3329999
-15.502 12.363 2.3
-15.509 12.368 2.266
-15.506 12.366 2.23
-15.505 12.365 2.1949999
-15.526 12.382 2.1630001
-15.531 12.386 2.1289999
-15.583 12.428 2.1010001
-15.618 12.455 2.0699999
-15.516 12.329 2.3340001
-15.518 12.331 2.299
-15.506 12.322 2.2620001
-15.519 12.332 2.2290001
-15.529 12.34 2.1949999
-15.56 12.365 2.165
-15.607 12.402 2.1359999
-15.61 12.405 2.1010001
-15.517 12.285 2.296
-15.532 12.297 2.263
-15.565 12.323 2.2320001
-15.582 12.336 2.2
-15.627 12.372 2.171
-15.565 12.278 2.2639999
-15.608 12.312 2.2360001
-15.641 12.338 2.2049999
-15.628 12.284 2.2349999
-14.668 12.536 0.059999999
-14.668 12.527 0.039999999
-14.668 12.514 0.021
-14.685 12.593 0.081
-14.688 12.524 0.059999999
-14.688 12.504 0.039999999
-14.689 12.485 0.02
-14.704 12.622 0.101
-14.708 12.491 0.079000004
-14.708 12.495 0.059
-14.708 12.5 0.039999999
-14.708 12.49 0.02
-14.724 12.607 0.121
-14.727 12.52 0.098999999
-14.727 12.509 0.079000004
-14.727 12.51 0.059999999
-14.727 12.511 0.039999999
-14.727 12.501 0.02
-14.745 12.572 0.14
-14.746 12.525 0.119
-14.746 12.525 0.098999999
-14.747 12.506 0.079000004
-14.746 12.505 0.059
-14.746 12.506 0.039999999
-14.746 12.512 0.02
-14.766 12.544 0.178
-14.765 12.583 0.16
-14.766 12.515 0.138
-14.766 12.52 0.119
-14.766 12.511 0.098999999
-14.766 12.516 0.079000004
-14.766 12.517 0.059
-14.766 12.507 0.039999999
-14.766 12.507 0.02
-14.785 12.559 0.199
-14.785 12.545 0.178
-14.786 12.518 0.15800001
-14.785 12.526 0.138
-14.785 12.516 0.119
-14.785 12.516 0.098999999
-14.785 12.512 0.079000004
-14.785 12.517 0.059
-14.785 12.517 0.039999999
-14.785 12.523 0.02
-14.802 12.651 0.221
-14.805 12.537 0.198
-14.805 12.525 0.178
-14.805 12.531 0.15800001
-14.805 12.526 0.138
-14.805 12.532 0.119
-14.805 12.532 0.098999999
-14.805 12.516 0.079000004
-14.805 12.518 0.059
-14.805 12.513 0.039999999
-14.805 12.508 0.02
-14.822 12.648 0.241
-14.825 12.538 0.21799999
-14.825 12.515 0.197
-14.825 12.531 0.178
-14.825 12.506 0.15700001
-14.825 12.522 0.138
-14.825 12.522 0.118
-14.824 12.537 0.098999999
-14.825 12.503 0.079000004
-14.824 12.533 0.059
-14.824 12.513 0.039000001
-14.824 12.504 0.02
-14.843 12.632 0.25999999
-14.845 12.531 0.237
-14.845 12.53 0.21699999
-14.845 12.53 0.197
-14.845 12.531 0.178
-14.844 12.532 0.15800001
-14.844 12.527 0.138
-14.844 12.532 0.119
-14.844 12.518 0.098999999
-14.844 12.513 0.079000004
-14.844 12.524 0.059
-14.844 12.524 0.039000001
-14.844 12.529 0.02
-14.863 12.659 0.301
-14.864 12.599 0.27900001
-14.865 12.54 0.257
-14.865 12.535 0.237
-14.865 12.53 0.21699999
-14.864 12.554 0.198
-14.865 12.536 0.178
-14.865 12.527 0.15800001
-14.865 12.527 0.138
-14.864 12.523 0.118
-14.865 12.513 0.097999997
-14.864 12.514 0.079000004
-14.864 12.519 0.059
-14.864 12.534 0.039999999
-14.864 12.535 0.02
-14.883 12.67 0.32100001
-14.884 12.577 0.29800001
-14.885 12.523 0.27599999
-14.885 12.539 0.257
-14.885 12.535 0.237
-14.885 12.536 0.21699999
-14.885 12.531 0.197
-14.884 12.532 0.178
-14.884 12.527 0.15800001
-14.884 12.528 0.138
-14.884 12.518 0.118
-14.884 12.539 0.098999999
-14.884 12.534 0.079000004
-14.884 12.524 0.059
-14.883 12.55 0.039999999
-14.903 12.678 0.34099999
-14.905 12.55 0.31600001
-14.905 12.534 0.296
-14.904 12.544 0.27700001
-14.905 12.525 0.25600001
-14.904 12.55 0.237
-14.904 12.551 0.21799999
-14.904 12.547 0.198
-14.904 12.547 0.178
-14.904 12.518 0.15700001
-14.904 12.513 0.138
-14.904 12.529 0.118
-14.904 12.529 0.097999997
-14.903 12.544 0.079000004
-14.903 12.55 0.059
-14.923 12.685 0.36199999
-14.925 12.573 0.33700001
-14.925 12.553 0.31600001
-14.925 12.554 0.29699999
-14.925 12.539 0.27599999
-14.925 12.545 0.257
-14.925 12.531 0.237
-14.925 12.521 0.21699999
-14.924 12.542 0.197
-14.925 12.513 0.177
-14.924 12.533 0.15800001
-14.924 12.549 0.138
-14.924 12.514 0.118
-14.924 12.524 0.097999997
-14.923 12.59 0.079999998
-14.943 12.66 0.38
-14.944 12.566 0.35600001
-14.944 12.557 0.336
-14.944 12.548 0.31600001
-14.944 12.554 0.29699999
-14.944 12.545 0.27599999
-14.944 12.545 0.257
-14.944 12.546 0.237
-14.943 12.552 0.21699999
-14.943 12.547 0.197
-14.944 12.523 0.177
-14.943 12.533 0.15800001
-14.943 12.524 0.138
-14.943 12.539 0.118
-14.942 12.575 0.098999999
-14.963 12.64 0.39899999
-14.964 12.572 0.37599999
-14.964 12.552 0.35600001
-14.964 12.568 0.33700001
-14.964 12.548 0.31600001
-14.964 12.554 0.296
-14.964 12.55 0.27700001
-14.963 12.551 0.257
-14.963 12.556 0.237
-14.963 12.547 0.21699999
-14.963 12.548 0.197
-14.963 12.543 0.178
-14.963 12.539 0.15800001
-14.963 12.559 0.138
-14.962 12.614 0.12
-14.984 12.594 0.43700001
-14.983 12.614 0.41800001
-14.984 12.576 0.396
-14.984 12.561 0.37599999
-14.984 12.567 0.35600001
-14.983 12.563 0.336
-14.983 12.559 0.31600001
-14.983 12.549 0.296
-14.983 12.535 0.27599999
-14.984 12.556 0.257
-14.984 12.537 0.236
-14.983 12.547 0.21699999
-14.983 12.548 0.197
-14.983 12.553 0.178
-14.983 12.559 0.15800001
-14.982 12.668 0.141
-15.004 12.595 0.45699999
-15.004 12.6 0.43700001
-15.004 12.564 0.41600001
-15.004 12.565 0.396
-15.004 12.566 0.37599999
-15.004 12.562 0.35600001
-15.004 12.563 0.336
-15.003 12.584 0.317
-15.003 12.565 0.29699999
-15.003 12.555 0.27700001
-15.003 12.566 0.257
-15.003 12.542 0.237
-15.003 12.547 0.21699999
-15.003 12.548 0.197
-15.003 12.569 0.178
-15.024 12.6 0.477
-15.024 12.594 0.45699999
-15.024 12.556 0.435
-15.024 12.565 0.41600001
-15.024 12.561 0.396
-15.024 12.567 0.37599999
-15.024 12.557 0.35600001
-15.023 12.563 0.336
-15.023 12.554 0.31600001
-15.023 12.555 0.296
-15.023 12.561 0.27700001
-15.023 12.551 0.257
-15.023 12.577 0.23800001
-15.023 12.573 0.21799999
-15.023 12.578 0.198
-15.044 12.645 0.49900001
-15.044 12.576 0.47600001
-15.044 12.579 0.456
-15.044 12.579 0.43599999
-15.044 12.564 0.41499999
-15.044 12.566 0.396
-15.044 12.562 0.37599999
-15.044 12.548 0.35499999
-15.044 12.573 0.33700001
-15.044 12.564 0.31600001
-15.043 12.575 0.29699999
-15.043 12.571 0.27700001
-15.043 12.561 0.257
-15.043 12.557 0.237
-15.043 12.604 0.219
-15.064 12.643 0.51899999
-15.064 12.587 0.49599999
-15.064 12.562 0.47499999
-15.063 12.588 0.456
-15.063 12.569 0.435
-15.063 12.565 0.41499999
-15.064 12.576 0.396
-15.064 12.567 0.37599999
-15.063 12.563 0.35600001
-15.063 12.563 0.336
-15.063 12.579 0.317
-15.063 12.56 0.296
-15.063 12.571 0.27700001
-15.063 12.566 0.257
-15.063 12.632 0.23899999
-15.084 12.603 0.55599999
-15.084 12.636 0.53799999
-15.084 12.591 0.51599997
-15.084 12.576 0.495
-15.084 12.577 0.47499999
-15.084 12.568 0.45500001
-15.084 12.579 0.43599999
-15.083 12.59 0.417
-15.083 12.566 0.396
-15.083 12.562 0.37599999
-15.083 12.558 0.35600001
-15.083 12.568 0.336
-15.083 12.569 0.31600001
-15.083 12.54 0.296
-15.083 12.566 0.27700001
-15.083 12.649 0.25999999
-15.115 12.702 2.9760001
-15.104 12.611 0.57700002
-15.104 12.634 0.55800003
-15.104 12.59 0.53600001
-15.104 12.58 0.51499999
-15.104 12.591 0.49599999
-15.104 12.562 0.47499999
-15.103 12.593 0.456
-15.103 12.574 0.43599999
-15.103 12.585 0.41600001
-15.103 12.561 0.39500001
-15.103 12.567 0.37599999
-15.103 12.573 0.35600001
-15.103 12.559 0.336
-15.103 12.564 0.31600001
-15.103 12.585 0.29699999
-15.103 12.668 0.28
-15.135 12.66 2.9860001
-15.135 12.715 2.9790001
-15.135 12.727 2.961
-15.135 12.715 2.9360001
-15.125 12.623 0.597
-15.124 12.608 0.57700002
-15.124 12.593 0.55599999
-15.124 12.579 0.53500003
-15.124 12.595 0.51599997
-15.124 12.586 0.49599999
-15.124 12.58 0.47499999
-15.124 12.588 0.456
-15.124 12.584 0.43599999
-15.124 12.59 0.41600001
-15.123 12.581 0.396
-15.123 12.577 0.37599999
-15.123 12.563 0.35600001
-15.123 12.583 0.33700001
-15.123 12.599 0.317
-15.155 12.614 2.9949999
-15.154 12.616 2.974
-15.154 12.643 2.96
-15.155 12.685 2.95
-15.155 12.731 2.941
-15.154 12.692 2.9089999
-15.145 12.705 0.62300003
-15.144 12.603 0.59600002
-15.144 12.598 0.57599998
-15.144 12.596 0.55599999
-15.144 12.593 0.53600001
-15.144 12.599 0.51599997
-15.144 12.566 0.495
-15.144 12.587 0.47600001
-15.144 12.602 0.45699999
-15.143 12.594 0.43599999
-15.143 12.57 0.41499999
-15.143 12.591 0.39700001
-15.143 12.567 0.37599999
-15.143 12.583 0.35600001
-15.143 12.637 0.33899999
-15.174 12.618 2.9960001
-15.174 12.609 2.9719999
-15.174 12.624 2.9549999
-15.174 12.614 2.931
-15.174 12.649 2.9189999
-15.174 12.712 2.914
-15.174 12.727 2.8970001
-15.174 12.752 2.882
-15.165 12.683 0.64099997
-15.164 12.6 0.616
-15.164 12.588 0.59500003
-15.164 12.61 0.57700002
-15.164 12.596 0.55599999
-15.164 12.593 0.53600001
-15.164 12.59 0.51599997
-15.163 12.591 0.49599999
-15.163 12.587 0.47600001
-15.163 12.563 0.45500001
-15.163 12.584 0.43599999
-15.163 12.565 0.41499999
-15.163 12.576 0.396
-15.163 12.587 0.37599999
-15.163 12.649 0.359
-15.194 12.624 2.9760001
-15.194 12.634 2.957
-15.193 12.615 2.931
-15.193 12.63 2.914
-15.193 12.639 2.895
-15.194 12.677 2.8840001
-15.194 12.689 2.865
-15.194 12.727 2.8540001
-15.194 12.797 2.8499999
-15.184 12.678 0.66100001
-15.183 12.597 0.63499999
-15.184 12.588 0.61500001
-15.184 12.599 0.59600002
-15.184 12.591 0.57499999
-15.184 12.596 0.55599999
-15.183 12.568 0.53399998
-15.183 12.584 0.51499999
-15.183 12.586 0.495
-15.183 12.601 0.47600001
-15.183 12.593 0.456
-15.183 12.589 0.43599999
-15.183 12.58 0.41600001
-15.183 12.591 0.396
-15.183 12.662 0.38
-15.213 12.628 2.9979999
-15.213 12.624 2.9760001
-15.213 12.629 2.9560001
-15.212 12.62 2.9319999
-15.212 12.62 2.911
-15.212 12.635 2.8940001
-15.212 12.631 2.8710001
-15.212 12.657 2.8570001
-15.213 12.687 2.8429999
-15.213 12.717 2.8299999
-15.213 12.746 2.816
-15.213 12.789 2.8050001
-15.204 12.662 0.68000001
-15.203 12.612 0.65600002
-15.203 12.596 0.63499999
-15.203 12.602 0.616
-15.203 12.598 0.59600002
-15.203 12.595 0.57599998
-15.203 12.587 0.55500001
-15.203 12.602 0.53600001
-15.203 12.594 0.51599997
-15.202 12.59 0.49599999
-15.202 12.586 0.47600001
-15.202 12.597 0.456
-15.202 12.589 0.43599999
-15.202 12.585 0.41600001
-15.203 12.698 0.40099999
-15.232 12.633 2.9779999
-15.232 12.638 2.9590001
-15.232 12.644 2.9389999
-15.232 12.644 2.9170001
-15.232 12.63 2.892
-15.232 12.616 2.8670001
-15.232 12.631 2.8499999
-15.232 12.646 2.8329999
-15.232 12.674 2.819
-15.232 12.704 2.8050001
-15.233 12.733 2.7909999
-15.233 12.75 2.7739999
-15.224 12.664 0.72000003
-15.224 12.684 0.70099998
-15.223 12.6 0.67500001
-15.223 12.592 0.65499997
-15.223 12.596 0.63499999
-15.223 12.578 0.61400002
-15.223 12.598 0.59600002
-15.223 12.609 0.57599998
-15.223 12.596 0.55599999
-15.222 12.593 0.53600001
-15.222 12.598 0.51599997
-15.223 12.614 0.49700001
-15.222 12.596 0.47600001
-15.222 12.597 0.456
-15.222 12.607 0.43700001
-15.223 12.666 0.41999999
-15.252 12.642 2.9809999
-15.252 12.633 2.957
-15.252 12.629 2.9349999
-15.252 12.644 2.9170001
-15.251 12.62 2.8900001
-15.252 12.635 2.872
-15.252 12.64 2.8529999
-15.251 12.631 2.829
-15.251 12.631 2.8080001
-15.251 12.626 2.7850001
-15.252 12.672 2.776
-15.252 12.708 2.763
-15.252 12.739 2.75
-15.252 12.748 2.7309999
-15.244 12.672 0.741
-15.243 12.664 0.72000003
-15.243 12.613 0.69599998
-15.243 12.613 0.676
-15.243 12.624 0.65700001
-15.243 12.615 0.63700002
-15.243 12.606 0.616
-15.243 12.608 0.59600002
-15.242 12.59 0.57499999
-15.242 12.596 0.55599999
-15.242 12.593 0.53600001
-15.242 12.589 0.51499999
-15.242 12.589 0.49599999
-15.242 12.596 0.47600001
-15.242 12.596 0.456
-15.272 12.642 2.9809999
-15.271 12.633 2.957
-15.272 12.643 2.9389999
-15.272 12.649 2.9189999
-15.271 12.639 2.895
-15.271 12.64 2.8740001
-15.271 12.635 2.8510001
-15.271 12.645 2.8329999
-15.271 12.631 2.8080001
-15.271 12.636 2.7880001
-15.271 12.646 2.7690001
-15.271 12.638 2.7460001
-15.272 12.701 2.74
-15.272 12.714 2.7219999
-15.272 12.746 2.7090001
-15.273 12.78 2.6960001
-15.274 12.852 2.6919999
-15.264 12.687 0.76200002
-15.263 12.617 0.73699999
-15.263 12.623 0.71700001
-15.263 12.611 0.69599998
-15.263 12.617 0.67699999
-15.263 12.604 0.65600002
-15.263 12.61 0.63599998
-15.263 12.611 0.616
-15.262 12.593 0.59500003
-15.262 12.598 0.57599998
-15.262 12.6 0.55599999
-15.262 12.592 0.53600001
-15.262 12.603 0.51599997
-15.262 12.609 0.49700001
-15.263 12.65 0.479
-15.291 12.65 2.983
-15.291 12.642 2.96
-15.291 12.633 2.9360001
-15.291 12.643 2.9170001
-15.291 12.634 2.8940001
-15.291 12.644 2.875
-15.291 12.654 2.8559999
-15.291 12.643 2.832
-15.291 12.655 2.8139999
-15.291 12.651 2.7909999
-15.291 12.656 2.7720001
-15.29 12.627 2.743
-15.29 12.646 2.727
-15.29 12.654 2.7079999
-15.291 12.679 2.6930001
-15.292 12.729 2.684
-15.292 12.749 2.6670001
-15.292 12.78 2.6530001
-15.289 12.808 1.528
-15.288 12.793 1.506
-15.288 12.787 1.484
-15.288 12.794 1.464
-15.289 12.817 1.447
-15.289 12.804 1.425
-15.289 12.803 1.404
-15.288 12.791 1.382
-15.288 12.789 1.3609999
-15.288 12.799 1.342
-15.288 12.8 1.321
-15.288 12.801 1.301
-15.288 12.794 1.28
-15.288 12.77 1.256
-15.289 12.832 1.243
-15.288 12.827 1.202
-15.288 12.785 1.176
-15.287 12.779 1.155
-15.287 12.782 1.135
-15.287 12.786 1.115
-15.287 12.763 1.0930001
-15.287 12.793 1.075
-15.288 12.819 1.058
-15.287 12.802 1.035
-15.287 12.818 1.017
-15.287 12.804 0.995
-15.287 12.792 0.97299999
-15.287 12.793 0.95300001
-15.287 12.807 0.93400002
-15.287 12.835 0.91600001
-15.287 12.816 0.89399999
-15.287 12.809 0.87300003
-15.287 12.814 0.85299999
-15.286 12.799 0.83099997
-15.286 12.782 0.81
-15.285 12.739 0.78600001
-15.283 12.625 0.75700003
-15.283 12.617 0.736
-15.283 12.609 0.71600002
-15.283 12.611 0.69599998
-15.283 12.602 0.676
-15.282 12.603 0.65600002
-15.282 12.605 0.63599998
-15.282 12.596 0.61500001
-15.283 12.622 0.597
-15.282 12.604 0.57599998
-15.282 12.605 0.55599999
-15.282 12.592 0.53500003
-15.282 12.612 0.51700002
-15.283 12.676 0.5
-15.285 12.793 0.486
-15.285 12.797 0.46599999
-15.285 12.795 0.44600001
-15.284 12.789 0.426
-15.285 12.804 0.40599999
-15.285 12.811 0.38600001
-15.284 12.792 0.36500001
-15.284 12.786 0.345
-15.284 12.787 0.324
-15.284 12.772 0.30399999
-15.284 12.782 0.28400001
-15.284 12.786 0.264
-15.284 12.784 0.243
-15.284 12.786 0.223
-15.283 12.779 0.20299999
-15.283 12.774 0.183
-15.283 12.764 0.162
-15.283 12.787 0.14300001
-15.283 12.781 0.122
-15.283 12.776 0.102
-15.283 12.779 0.082000002
-15.283 12.779 0.061999999
-15.283 12.765 0.041000001
-15.283 12.774 0.021
-15.312 12.679 2.9909999
-15.311 12.654 2.9630001
-15.311 12.643 2.938
-15.311 12.642 2.9170001
-15.311 12.658 2.9000001
-15.311 12.644 2.875
-15.31 12.644 2.8540001
-15.31 12.64 2.8310001
-15.31 12.64 2.8099999
-15.31 12.655 2.793
-15.31 12.65 2.77
-15.31 12.631 2.744
-15.31 12.636 2.724
-15.31 12.634 2.7030001
-15.31 12.641 2.6830001
-15.31 12.673 2.6700001
-15.311 12.701 2.655
-15.311 12.742 2.6440001
-15.312 12.772 2.6300001
-15.313 12.809 2.618
-15.314 12.882 2.592
-15.314 12.882 2.506
-15.314 12.886 2.4860001
-15.314 12.871 2.461
-15.314 12.878 2.4419999
-15.314 12.888 2.4219999
-15.313 12.876 2.398
-15.313 12.832 2.368
-15.312 12.813 2.3429999
-15.312 12.818 2.322
-15.312 12.809 2.299
-15.312 12.795 2.276
-15.312 12.83 2.2620001
-15.311 12.796 2.234
-15.311 12.794 2.2119999
-15.312 12.813 2.1949999
-15.311 12.796 2.171
-15.311 12.805 2.151
-15.311 12.797 2.1289999
-15.311 12.797 2.108
-15.311 12.806 2.089
-15.311 12.821 2.0710001
-15.311 12.801 2.046
-15.311 12.818 2.0280001
-15.311 12.822 2.0079999
-15.311 12.809 1.985
-15.311 12.807 1.9630001
-15.311 12.828 1.946
-15.311 12.817 1.924
-15.31 12.801 1.9
-15.31 12.797 1.878
-15.31 12.798 1.858
-15.31 12.815 1.84
-15.31 12.817 1.819
-15.311 12.84 1.802
-15.31 12.815 1.778
-15.31 12.833 1.76
-15.31 12.844 1.7410001
-15.31 12.821 1.716
-15.31 12.825 1.696
-15.309 12.812 1.673
-15.31 12.82 1.654
-15.309 12.814 1.632
-15.309 12.816 1.612
-15.309 12.814 1.591
-15.309 12.813 1.5700001
-15.309 12.806 1.549
-15.309 12.8 1.527
-15.309 12.805 1.507
-15.309 12.806 1.487
-15.308 12.801 1.465
-15.309 12.808 1.446
-15.308 12.796 1.424
-15.308 12.794 1.403
-15.308 12.775 1.38
-15.308 12.794 1.362
-15.308 12.802 1.342
-15.308 12.79 1.3200001
-15.308 12.792 1.3
-15.308 12.788 1.279
-15.307 12.787 1.258
-15.308 12.805 1.24
-15.307 12.785 1.217
-15.307 12.79 1.197
-15.307 12.784 1.176
-15.307 12.781 1.156
-15.307 12.795 1.137
-15.307 12.784 1.115
-15.307 12.78 1.094
-15.306 12.775 1.073
-15.307 12.787 1.054
-15.307 12.77 1.0319999
-15.307 12.769 1.012
-15.306 12.766 0.991
-15.307 12.773 0.97100002
-15.306 12.776 0.95099998
-15.306 12.775 0.93099999
-15.306 12.765 0.91000003
-15.306 12.762 0.889
-15.306 12.772 0.87
-15.306 12.774 0.85000002
-15.306 12.763 0.829
-15.305 12.728 0.80500001
-15.303 12.635 0.778
-15.303 12.613 0.75599998
-15.303 12.617 0.73699999
-15.303 12.619 0.71700001
-15.303 12.625 0.69700003
-15.303 12.617 0.67699999
-15.302 12.613 0.65600002
-15.302 12.619 0.63700002
-15.302 12.616 0.61699998
-15.302 12.607 0.59600002
-15.302 12.593 0.57499999
-15.302 12.6 0.55599999
-15.302 12.601 0.53600001
-15.303 12.698 0.52100003
-15.304 12.731 0.50300002
-15.304 12.74 0.484
-15.304 12.723 0.463
-15.304 12.728 0.44299999
-15.304 12.73 0.42300001
-15.303 12.731 0.403
-15.303 12.722 0.382
-15.303 12.709 0.361
-15.303 12.718 0.34200001
-15.303 12.715 0.322
-15.303 12.724 0.30199999
-15.303 12.715 0.28099999
-15.302 12.695 0.26100001
-15.302 12.711 0.241
-15.302 12.696 0.221
-15.302 12.695 0.20100001
-15.302 12.709 0.18099999
-15.302 12.714 0.161
-15.302 12.705 0.141
-15.302 12.691 0.12
-15.302 12.701 0.101
-15.302 12.703 0.081
-15.301 12.698 0.059999999
-15.301 12.691 0.039999999
-15.301 12.693 0.02
-15.331 12.694 2.9519999
-15.331 12.666 2.9230001
-15.331 12.658 2.9000001
-15.331 12.649 2.8759999
-15.331 12.659 2.8570001
-15.331 12.654 2.835
-15.33 12.645 2.8110001
-15.33 12.645 2.79
-15.331 12.655 2.7709999
-15.33 12.655 2.75
-15.33 12.646 2.727
-15.33 12.646 2.7060001
-15.33 12.651 2.6860001
-15.33 12.641 2.6619999
-15.33 12.64 2.641
-15.331 12.684 2.6300001
-15.331 12.696 2.612
-15.332 12.745 2.602
-15.333 12.799 2.5940001
-15.333 12.813 2.576
-15.333 12.804 2.553
-15.333 12.81 2.533
-15.333 12.815 2.513
-15.333 12.817 2.4920001
-15.333 12.812 2.47
-15.332 12.807 2.447
-15.332 12.806 2.4260001
-15.332 12.801 2.4030001
-15.332 12.806 2.3829999
-15.332 12.799 2.3610001
-15.332 12.793 2.3380001
-15.331 12.788 2.316
-15.331 12.789 2.2950001
-15.332 12.805 2.2780001
-15.331 12.792 2.2539999
-15.331 12.798 2.234
-15.331 12.79 2.211
-15.331 12.801 2.1930001
-15.331 12.788 2.1689999
-15.331 12.802 2.151
-15.331 12.806 2.131
-15.33 12.776 2.1040001
-15.331 12.787 2.085
-15.331 12.787 2.0639999
-15.331 12.792 2.0439999
-15.33 12.776 2.02
-15.33 12.77 1.998
-15.33 12.794 1.982
-15.33 12.772 1.957
-15.33 12.782 1.938
-15.33 12.772 1.916
-15.329 12.754 1.892
-15.329 12.761 1.872
-15.329 12.757 1.851
-15.329 12.752 1.829
-15.329 12.773 1.812
-15.329 12.77 1.791
-15.329 12.76 1.7690001
-15.329 12.777 1.751
-15.329 12.762 1.728
-15.329 12.755 1.706
-15.328 12.743 1.683
-15.328 12.741 1.6619999
-15.328 12.742 1.642
-15.328 12.74 1.6210001
-15.328 12.74 1.601
-15.328 12.731 1.579
-15.328 12.737 1.559
-15.328 12.734 1.538
-15.328 12.734 1.518
-15.328 12.73 1.497
-15.328 12.738 1.477
-15.328 12.731 1.456
-15.327 12.727 1.4349999
-15.327 12.723 1.414
-15.327 12.715 1.392
-15.327 12.718 1.372
-15.327 12.727 1.353
-15.327 12.705 1.33
-15.327 12.705 1.3099999
-15.326 12.694 1.288
-15.327 12.716 1.27
-15.326 12.708 1.249
-15.326 12.708 1.229
-15.326 12.711 1.209
-15.326 12.696 1.187
-15.326 12.704 1.1670001
-15.325 12.683 1.145
-15.325 12.678 1.124
-15.326 12.693 1.105
-15.325 12.675 1.0829999
-15.325 12.691 1.0650001
-15.325 12.694 1.045
-15.325 12.685 1.024
-15.325 12.691 1.0039999
-15.325 12.681 0.98299998
-15.325 12.677 0.96200001
-15.324 12.673 0.94199997
-15.325 12.689 0.92299998
-15.324 12.677 0.90200001
-15.324 12.67 0.88099998
-15.324 12.67 0.861
-15.324 12.662 0.83999997
-15.323 12.643 0.81900001
-15.323 12.623 0.79699999
-15.323 12.634 0.778
-15.323 12.615 0.75599998
-15.322 12.612 0.736
-15.323 12.628 0.71700001
-15.322 12.62 0.69700003
-15.322 12.611 0.676
-15.322 12.608 0.65600002
-15.322 12.604 0.63599998
-15.322 12.615 0.61699998
-15.322 12.607 0.59600002
-15.322 12.613 0.57599998
-15.323 12.649 0.55900002
-15.323 12.671 0.54000002
-15.322 12.629 0.51800001
-15.323 12.641 0.498
-15.322 12.632 0.47799999
-15.322 12.631 0.458
-15.323 12.649 0.43900001
-15.322 12.635 0.41800001
-15.322 12.633 0.398
-15.321 12.609 0.377
-15.321 12.605 0.35699999
-15.322 12.635 0.338
-15.322 12.631 0.31799999
-15.321 12.612 0.29800001
-15.321 12.623 0.278
-15.321 12.628 0.25799999
-15.321 12.619 0.23800001
-15.321 12.62 0.21799999
-15.321 12.62 0.198
-15.321 12.631 0.17900001
-15.321 12.621 0.15899999
-15.321 12.627 0.139
-15.321 12.617 0.119
-15.32 12.604 0.098999999
-15.32 12.613 0.079000004
-15.32 12.609 0.059
-15.32 12.604 0.039000001
-15.32 12.6 0.018999999
-15.353 12.758 2.9909999
-15.353 12.748 2.967
-15.353 12.768 2.951
-15.352 12.703 2.9119999
-15.351 12.658 2.8789999
-15.35 12.653 2.8559999
-15.351 12.663 2.8369999
-15.351 12.664 2.816
-15.35 12.649 2.7909999
-15.35 12.65 2.77
-15.35 12.66 2.7509999
-15.35 12.65 2.7279999
-15.35 12.655 2.7079999
-15.35 12.645 2.684
-15.35 12.648 2.664
-15.349 12.636 2.6400001
-15.349 12.636 2.619
-15.349 12.647 2.5999999
-15.35 12.692 2.5899999
-15.351 12.731 2.5780001
-15.351 12.725 2.5550001
-15.351 12.736 2.5369999
-15.351 12.734 2.5150001
-15.351 12.736 2.4949999
-15.35 12.719 2.47
-15.351 12.735 2.4519999
-15.35 12.704 2.424
-15.35 12.728 2.4089999
-15.35 12.723 2.3859999
-15.35 12.718 2.3640001
-15.35 12.709 2.3410001
-15.35 12.72 2.323
-15.35 12.732 2.3039999
-15.35 12.711 2.279
-15.349 12.704 2.257
-15.35 12.714 2.2379999
-15.349 12.711 2.2160001
-15.349 12.706 2.194
-15.349 12.696 2.171
-15.349 12.698 2.151
-15.349 12.699 2.131
-15.349 12.699 2.1099999
-15.349 12.698 2.089
-15.349 12.693 2.0669999
-15.349 12.691 2.046
-15.349 12.694 2.026
-15.349 12.693 2.0050001
-15.349 12.688 1.983
-15.349 12.69 1.9630001
-15.348 12.686 1.942
-15.348 12.684 1.921
-15.348 12.678 1.899
-15.348 12.692 1.881
-15.348 12.691 1.86
-15.348 12.671 1.836
-15.348 12.678 1.817
-15.348 12.675 1.796
-15.347 12.664 1.773
-15.347 12.663 1.753
-15.347 12.67 1.733
-15.347 12.651 1.71
-15.347 12.652 1.689
-15.347 12.652 1.669
-15.347 12.656 1.649
-15.346 12.649 1.628
-15.347 12.657 1.609
-15.346 12.637 1.585
-15.346 12.65 1.567
-15.346 12.654 1.5470001
-15.346 12.651 1.526
-15.346 12.65 1.506
-15.346 12.658 1.4859999
-15.346 12.655 1.466
-15.346 12.652 1.4450001
-15.345 12.633 1.4220001
-15.345 12.627 1.401
-15.345 12.635 1.382
-15.345 12.632 1.3609999
-15.345 12.633 1.341
-15.345 12.657 1.324
-15.345 12.65 1.303
-15.345 12.642 1.2819999
-15.345 12.65 1.262
-15.345 12.627 1.239
-15.345 12.64 1.221
-15.344 12.627 1.199
-15.344 12.629 1.179
-15.345 12.647 1.161
-15.344 12.639 1.14
-15.344 12.641 1.12
-15.344 12.633 1.099
-15.344 12.631 1.079
-15.344 12.643 1.0599999
-15.344 12.63 1.038
-15.344 12.632 1.018
-15.344 12.634 0.99800003
-15.343 12.616 0.977
-15.343 12.628 0.958
-15.343 12.63 0.93800002
-15.344 12.636 0.91799998
-15.343 12.633 0.898
-15.343 12.62 0.87699997
-15.343 12.617 0.85600001
-15.344 12.633 0.838
-15.343 12.626 0.81699997
-15.343 12.617 0.796
-15.343 12.618 0.77700001
-15.343 12.62 0.75700003
-15.343 12.63 0.73699999
-15.343 12.618 0.71700001
-15.343 12.629 0.69700003
-15.343 12.621 0.67699999
-15.343 12.622 0.65700001
-15.342 12.609 0.63599998
-15.342 12.6 0.616
-15.343 12.626 0.597
-15.343 12.669 0.57999998
-15.342 12.629 0.55699998
-15.342 12.615 0.537
-15.342 12.606 0.51599997
-15.342 12.632 0.498
-15.341 12.594 0.47600001
-15.342 12.614 0.45699999
-15.342 12.625 0.43799999
-15.342 12.611 0.417
-15.341 12.588 0.396
-15.341 12.608 0.377
-15.341 12.609 0.35699999
-15.341 12.615 0.338
-15.341 12.602 0.317
-15.341 12.593 0.29699999
-15.341 12.607 0.278
-15.341 12.594 0.257
-15.34 12.59 0.237
-15.34 12.6 0.21799999
-15.34 12.591 0.198
-15.34 12.601 0.178
-15.34 12.597 0.15800001
-15.34 12.602 0.138
-15.34 12.603 0.118
-15.34 12.608 0.098999999
-15.34 12.609 0.079000004
-15.34 12.589 0.059
-15.34 12.609 0.039000001
-15.34 12.6 0.018999999
-15.371 12.673 2.99
-15.371 12.67 2.967
-15.371 12.675 2.947
-15.371 12.689 2.9300001
-15.371 12.678 2.905
-15.371 12.693 2.888
-15.371 12.687 2.865
-15.37 12.658 2.836
-15.37 12.654 2.8139999
-15.37 12.659 2.7939999
-15.371 12.669 2.7750001
-15.37 12.649 2.7490001
-15.37 12.645 2.727
-15.37 12.659 2.7090001
-15.37 12.659 2.688
-15.37 12.645 2.6630001
-15.37 12.65 2.6429999
-15.37 12.65 2.622
-15.37 12.645 2.5999999
-15.37 12.65 2.5799999
-15.37 12.657 2.5610001
-15.369 12.652 2.539
-15.369 12.654 2.5179999
-15.37 12.688 2.5050001
-15.37 12.671 2.48
-15.37 12.668 2.4579999
-15.369 12.662 2.4360001
-15.369 12.654 2.4130001
-15.369 12.671 2.3959999
-15.369 12.666 2.3740001
-15.369 12.657 2.3510001
-15.369 12.661 2.3310001
-15.369 12.65 2.3080001
-15.369 12.65 2.2869999
-15.368 12.649 2.266
-15.369 12.658 2.247
-15.369 12.667 2.2279999
-15.368 12.657 2.2049999
-15.368 12.651 2.1830001
-15.368 12.66 2.164
-15.368 12.652 2.142
-15.368 12.648 2.1210001
-15.368 12.657 2.102
-15.368 12.641 2.0780001
-15.368 12.65 2.059
-15.368 12.654 2.039
-15.368 12.672 2.0220001
-15.367 12.642 1.995
-15.368 12.66 1.978
-15.368 12.664 1.9579999
-15.367 12.648 1.9349999
-15.367 12.651 1.915
-15.367 12.65 1.8940001
-15.367 12.648 1.873
-15.367 12.652 1.853
-15.367 12.646 1.832
-15.367 12.649 1.812
-15.367 12.652 1.7920001
-15.367 12.646 1.77
-15.367 12.654 1.751
-15.367 12.657 1.7309999
-15.367 12.651 1.71
-15.366 12.644 1.688
-15.366 12.637 1.6670001
-15.366 12.64 1.647
-15.366 12.653 1.628
-15.366 12.651 1.608
-15.366 12.645 1.586
-15.366 12.643 1.566
-15.366 12.637 1.544
-15.366 12.643 1.525
-15.365 12.623 1.502
-15.365 12.64 1.484
-15.366 12.662 1.467
-15.366 12.675 1.448
-15.365 12.644 1.424
-15.365 12.625 1.401
-15.365 12.629 1.381
-15.365 12.632 1.3609999
-15.366 12.664 1.345
-15.366 12.647 1.323
-15.365 12.635 1.301
-15.365 12.642 1.2819999
-15.365 12.639 1.261
-15.365 12.637 1.2410001
-15.365 12.649 1.222
-15.365 12.637 1.2
-15.365 12.644 1.181
-15.365 12.641 1.16
-15.365 12.638 1.14
-15.365 12.636 1.119
-15.365 12.643 1.1
-15.365 12.655 1.081
-15.365 12.652 1.061
-15.365 12.654 1.041
-15.364 12.646 1.02
-15.364 12.623 0.99699998
-15.364 12.615 0.977
-15.364 12.637 0.95899999
-15.363 12.619 0.93699998
-15.364 12.641 0.91900003
-15.364 12.653 0.89999998
-15.363 12.63 0.87800002
-15.364 12.636 0.85799998
-15.363 12.627 0.83700001
-15.363 12.625 0.81699997
-15.363 12.631 0.79799998
-15.363 12.623 0.77700001
-15.363 12.625 0.75700003
-15.362 12.592 0.73500001
-15.363 12.622 0.71700001
-15.363 12.629 0.69700003
-15.363 12.621 0.67699999
-15.362 12.617 0.65700001
-15.362 12.618 0.63700002
-15.362 12.615 0.616
-15.363 12.658 0.59899998
-15.362 12.617 0.57700002
-15.362 12.608 0.55599999
-15.362 12.62 0.537
-15.361 12.601 0.51599997
-15.362 12.612 0.49700001
-15.362 12.623 0.477
-15.362 12.614 0.45699999
-15.361 12.615 0.43700001
-15.361 12.606 0.417
-15.361 12.612 0.39700001
-15.361 12.618 0.377
-15.361 12.614 0.35699999
-15.361 12.609 0.33700001
-15.361 12.615 0.31799999
-15.361 12.602 0.29699999
-15.361 12.617 0.278
-15.361 12.608 0.25799999
-15.36 12.599 0.23800001
-15.361 12.614 0.21799999
-15.36 12.595 0.198
-15.36 12.606 0.178
-15.36 12.607 0.15800001
-15.36 12.607 0.138
-15.36 12.597 0.118
-15.36 12.612 0.098999999
-15.36 12.617 0.079000004
-15.36 12.604 0.059
-15.36 12.589 0.039000001
-15.36 12.609 0.018999999
-15.391 12.673 2.99
-15.391 12.673 2.9679999
-15.39 12.655 2.9419999
-15.39 12.666 2.924
-15.39 12.666 2.902
-15.39 12.662 2.8800001
-15.39 12.657 2.8570001
-15.391 12.688 2.8440001
-15.39 12.672 2.819
-15.39 12.658 2.7939999
-15.39 12.663 2.7739999
-15.39 12.664 2.753
-15.39 12.669 2.733
-15.389 12.644 2.7049999
-15.389 12.659 2.688
-15.389 12.664 2.668
-15.389 12.669 2.648
-15.389 12.664 2.6259999
-15.389 12.662 2.6040001
-15.389 12.673 2.586
-15.389 12.662 2.562
-15.389 12.657 2.54
-15.389 12.673 2.5220001
-15.389 12.663 2.4990001
-15.389 12.667 2.4790001
-15.389 12.676 2.46
-15.389 12.667 2.437
-15.388 12.66 2.415
-15.389 12.666 2.395
-15.389 12.67 2.375
-15.388 12.665 2.3529999
-15.388 12.655 2.3299999
-15.388 12.669 2.312
-15.388 12.654 2.2880001
-15.388 12.658 2.2679999
-15.388 12.648 2.2449999
-15.388 12.657 2.2260001
-15.388 12.656 2.2049999
-15.388 12.655 2.184
-15.388 12.669 2.1659999
-15.387 12.658 2.1429999
-15.388 12.662 2.1229999
-15.388 12.666 2.1040001
-15.387 12.66 2.082
-15.387 12.664 2.062
-15.387 12.653 2.039
-15.387 12.667 2.0209999
-15.387 12.666 2
-15.387 12.674 1.9809999
-15.387 12.648 1.956
-15.387 12.657 1.937
-15.387 12.656 1.916
-15.387 12.64 1.892
-15.387 12.653 1.874
-15.387 12.656 1.854
-15.387 12.65 1.8329999
-15.387 12.653 1.813
-15.387 12.657 1.793
-15.387 12.655 1.772
-15.386 12.649 1.75
-15.387 12.657 1.7309999
-15.386 12.65 1.71
-15.386 12.648 1.689
-15.386 12.657 1.67
-15.386 12.635 1.646
-15.386 12.643 1.627
-15.386 12.656 1.608
-15.386 12.654 1.5880001
-15.385 12.638 1.5650001
-15.386 12.649 1.546
-15.386 12.653 1.526
-15.385 12.637 1.5039999
-15.386 12.659 1.487
-15.385 12.648 1.465
-15.385 12.647 1.444
-15.386 12.662 1.426
-15.385 12.633 1.402
-15.385 12.657 1.385
-15.385 12.656 1.364
-15.385 12.649 1.3430001
-15.385 12.646 1.323
-15.385 12.664 1.3049999
-15.385 12.646 1.2819999
-15.384 12.624 1.2589999
-15.385 12.651 1.242
-15.384 12.644 1.221
-15.384 12.641 1.201
-15.384 12.638 1.1799999
-15.384 12.636 1.16
-15.384 12.638 1.14
-15.384 12.645 1.12
-15.384 12.632 1.099
-15.384 12.645 1.08
-15.384 12.642 1.0599999
-15.384 12.639 1.039
-15.384 12.641 1.0190001
-15.384 12.643 0.99900001
-15.383 12.635 0.97799999
-15.384 12.657 0.95999998
-15.384 12.644 0.93900001
-15.383 12.63 0.91799998
-15.384 12.637 0.898
-15.384 12.644 0.87900001
-15.383 12.63 0.85799998
-15.383 12.628 0.83700001
-15.383 12.639 0.81800002
-15.383 12.631 0.79799998
-15.383 12.627 0.77700001
-15.383 12.629 0.75700003
-15.382 12.611 0.736
-15.383 12.627 0.71700001
-15.383 12.639 0.69800001
-15.382 12.625 0.67699999
-15.382 12.626 0.65700001
-15.382 12.618 0.63700002
-15.383 12.654 0.61900002
-15.383 12.668 0.60000002
-15.382 12.632 0.57800001
-15.382 12.628 0.55699998
-15.382 12.619 0.537
-15.382 12.62 0.51700002
-15.381 12.606 0.49599999
-15.382 12.622 0.477
-15.381 12.618 0.45699999
-15.381 12.615 0.43700001
-15.381 12.615 0.417
-15.382 12.631 0.398
-15.381 12.617 0.377
-15.381 12.608 0.35699999
-15.381 12.604 0.33700001
-15.381 12.601 0.317
-15.381 12.611 0.29800001
-15.38 12.597 0.27700001
-15.38 12.607 0.25799999
-15.38 12.604 0.23800001
-15.38 12.608 0.21799999
-15.38 12.609 0.198
-15.38 12.615 0.178
-15.38 12.615 0.15800001
-15.38 12.611 0.138
-15.38 12.621 0.119
-15.38 12.607 0.098999999
-15.38 12.612 0.079000004
-15.38 12.622 0.059
-15.379 12.598 0.039000001
-15.38 12.609 0.018999999
-15.41 12.677 2.9909999
-15.41 12.669 2.967
-15.41 12.678 2.948
-15.41 12.665 2.9230001
-15.41 12.68 2.9059999
-15.41 12.676 2.8840001
-15.41 12.671 2.8610001
-15.41 12.676 2.8410001
-15.41 12.695 2.825
-15.41 12.667 2.796
-15.409 12.663 2.7739999
-15.409 12.658 2.7509999
-15.41 12.673 2.734
-15.409 12.663 2.71
-15.409 12.646 2.6849999
-15.408 12.62 2.6570001
-15.408 12.645 2.642
-15.409 12.654 2.6229999
-15.409 12.658 2.6029999
-15.409 12.678 2.5869999
-15.409 12.658 2.5610001
-15.409 12.666 2.5420001
-15.408 12.653 2.5179999
-15.408 12.66 2.4990001
-15.409 12.662 2.4779999
-15.409 12.681 2.461
-15.409 12.666 2.437
-15.409 12.671 2.4170001
-15.409 12.665 2.395
-15.409 12.675 2.3759999
-15.409 12.669 2.3540001
-15.408 12.66 2.3310001
-15.409 12.668 2.312
-15.408 12.654 2.2880001
-15.408 12.673 2.2709999
-15.408 12.667 2.2490001
-15.408 12.676 2.23
-15.408 12.67 2.2079999
-15.408 12.665 2.1860001
-15.408 12.664 2.165
-15.408 12.653 2.142
-15.408 12.657 2.122
-15.408 12.671 2.1040001
-15.407 12.65 2.0799999
-15.407 12.649 2.059
-15.408 12.667 2.0420001
-15.408 12.671 2.0220001
-15.408 12.67 2.0009999
-15.407 12.664 1.979
-15.407 12.658 1.957
-15.407 12.671 1.939
-15.407 12.67 1.918
-15.407 12.654 1.895
-15.407 12.652 1.874
-15.407 12.656 1.854
-15.407 12.659 1.834
-15.407 12.657 1.813
-15.406 12.651 1.7920001
-15.406 12.65 1.771
-15.407 12.668 1.7539999
-15.406 12.661 1.732
-15.406 12.664 1.712
-15.406 12.666 1.692
-15.406 12.661 1.671
-15.406 12.659 1.65
-15.406 12.667 1.631
-15.405 12.636 1.605
-15.405 12.639 1.586
-15.406 12.661 1.569
-15.406 12.654 1.5470001
-15.405 12.652 1.526
-15.405 12.639 1.5039999
-15.406 12.668 1.488
-15.405 12.652 1.465
-15.405 12.65 1.4450001
-15.405 12.653 1.425
-15.405 12.655 1.405
-15.405 12.643 1.383
-15.405 12.656 1.364
-15.405 12.648 1.3430001
-15.405 12.646 1.323
-15.405 12.648 1.303
-15.405 12.651 1.283
-15.405 12.643 1.262
-15.405 12.651 1.242
-15.405 12.643 1.221
-15.405 12.656 1.202
-15.404 12.633 1.1799999
-15.405 12.645 1.161
-15.405 12.667 1.143
-15.404 12.64 1.12
-15.404 12.632 1.099
-15.404 12.649 1.081
-15.404 12.631 1.059
-15.404 12.643 1.04
-15.403 12.625 1.018
-15.404 12.642 0.99900001
-15.404 12.644 0.97899997
-15.404 12.651 0.95999998
-15.404 12.643 0.93900001
-15.403 12.635 0.91799998
-15.404 12.647 0.89899999
-15.403 12.639 0.87800002
-15.404 12.655 0.86000001
-15.403 12.632 0.838
-15.403 12.624 0.81699997
-15.403 12.635 0.79799998
-15.403 12.627 0.77700001
-15.403 12.634 0.75800002
-15.402 12.615 0.736
-15.403 12.637 0.71799999
-15.402 12.628 0.69700003
-15.402 12.629 0.67699999
-15.402 12.636 0.65799999
-15.403 12.667 0.63999999
-15.403 12.658 0.61900002
-15.402 12.62 0.597
-15.402 12.621 0.57700002
-15.402 12.627 0.55699998
-15.402 12.619 0.537
-15.401 12.605 0.51599997
-15.401 12.611 0.49700001
-15.401 12.607 0.47600001
-15.401 12.608 0.45699999
-15.401 12.614 0.43700001
-15.401 12.63 0.41800001
-15.401 12.626 0.398
-15.401 12.612 0.377
-15.401 12.628 0.35800001
-15.401 12.608 0.33700001
-15.401 12.619 0.31799999
-15.401 12.62 0.29800001
-15.401 12.616 0.278
-15.4 12.612 0.25799999
-15.401 12.632 0.23899999
-15.4 12.607 0.21799999
-15.4 12.604 0.198
-15.4 12.595 0.178
-15.4 12.61 0.15800001
-15.4 12.61 0.138
-15.399 12.591 0.118
-15.4 12.626 0.098999999
-15.399 12.602 0.079000004
-15.4 12.612 0.059
-15.399 12.608 0.039000001
-15.399 12.608 0.018999999
-15.43 12.663 2.987
-15.43 12.677 2.97
-15.429 12.659 2.9430001
-15.43 12.674 2.9260001
-15.43 12.675 2.905
-15.43 12.67 2.882
-15.43 12.671 2.8610001
-15.43 12.686 2.8440001
-15.43 12.676 2.8199999
-15.43 12.683 2.8
-15.431 12.716 2.7869999
-15.429 12.667 2.7539999
-15.429 12.663 2.7309999
-15.429 12.682 2.7149999
-15.429 12.677 2.6930001
-15.428 12.648 2.664
-15.428 12.641 2.641
-15.429 12.673 2.628
-15.429 12.668 2.6059999
-15.428 12.663 2.5829999
-15.428 12.658 2.5610001
-15.428 12.663 2.5409999
-15.428 12.662 2.52
-15.428 12.667 2.5
-15.429 12.676 2.4809999
-15.429 12.682 2.4619999
-15.429 12.68 2.4400001
-15.428 12.675 2.418
-15.428 12.675 2.3970001
-15.428 12.669 2.375
-15.428 12.655 2.3510001
-15.428 12.663 2.332
-15.428 12.677 2.3139999
-15.428 12.668 2.2909999
-15.428 12.672 2.2709999
-15.428 12.671 2.25
-15.427 12.661 2.227
-15.427 12.67 2.2079999
-15.427 12.669 2.187
-15.427 12.653 2.1630001
-15.427 12.667 2.145
-15.427 12.656 2.122
-15.427 12.66 2.1029999
-15.427 12.679 2.085
-15.427 12.668 2.063
-15.427 12.665 2.0409999
-15.427 12.663 2.02
-15.427 12.684 2.0039999
-15.427 12.668 1.98
-15.427 12.672 1.96
-15.427 12.671 1.939
-15.426 12.65 1.915
-15.427 12.673 1.898
-15.426 12.667 1.877
-15.426 12.665 1.8559999
-15.426 12.664 1.835
-15.426 12.672 1.816
-15.426 12.656 1.793
-15.426 12.674 1.775
-15.426 12.662 1.753
-15.426 12.661 1.732
-15.426 12.659 1.711
-15.426 12.652 1.6900001
-15.426 12.646 1.668
-15.426 12.659 1.65
-15.426 12.667 1.631
-15.426 12.67 1.6109999
-15.426 12.658 1.5880001
-15.425 12.656 1.568
-15.425 12.659 1.548
-15.425 12.652 1.526
-15.425 12.65 1.506
-15.425 12.634 1.483
-15.425 12.665 1.467
-15.425 12.649 1.4450001
-15.425 12.652 1.425
-15.425 12.661 1.406
-15.425 12.648 1.3839999
-15.425 12.655 1.364
-15.425 12.658 1.344
-15.425 12.655 1.324
-15.425 12.663 1.304
-15.425 12.66 1.284
-15.424 12.648 1.262
-15.424 12.655 1.243
-15.424 12.643 1.221
-15.424 12.63 1.199
-15.424 12.657 1.182
-15.424 12.655 1.1619999
-15.424 12.652 1.141
-15.424 12.649 1.1210001
-15.423 12.626 1.098
-15.424 12.653 1.081
-15.424 12.656 1.061
-15.424 12.658 1.041
-15.424 12.655 1.021
-15.424 12.657 1.001
-15.423 12.644 0.97899997
-15.424 12.661 0.96100003
-15.423 12.652 0.94
-15.423 12.655 0.92000002
-15.423 12.641 0.89899999
-15.423 12.638 0.87800002
-15.422 12.62 0.85699999
-15.422 12.627 0.83700001
-15.422 12.638 0.81800002
-15.422 12.63 0.79799998
-15.422 12.626 0.77700001
-15.422 12.633 0.75800002
-15.422 12.63 0.73699999
-15.422 12.646 0.71899998
-15.422 12.638 0.69800001
-15.422 12.629 0.67699999
-15.424 12.697 0.662
-15.422 12.647 0.639
-15.422 12.643 0.61799997
-15.422 12.633 0.59799999
-15.421 12.621 0.57700002
-15.421 12.627 0.55699998
-15.421 12.633 0.53799999
-15.421 12.614 0.51700002
-15.421 12.62 0.49700001
-15.421 12.616 0.477
-15.421 12.617 0.45699999
-15.42 12.613 0.43700001
-15.421 12.619 0.417
-15.421 12.635 0.398
-15.42 12.616 0.377
-15.42 12.602 0.35699999
-15.421 12.628 0.338
-15.421 12.614 0.31799999
-15.421 12.62 0.29800001
-15.421 12.625 0.278
-15.42 12.616 0.25799999
-15.42 12.598 0.237
-15.421 12.627 0.21799999
-15.42 12.618 0.198
-15.42 12.613 0.178
-15.42 12.605 0.15800001
-15.42 12.614 0.138
-15.42 12.615 0.119
-15.42 12.615 0.098999999
-15.419 12.602 0.079000004
-15.419 12.602 0.059
-15.42 12.616 0.039000001
-15.419 12.603 0.018999999
-15.449 12.671 2.99
-15.45 12.686 2.9719999
-15.449 12.677 2.948
-15.449 12.681 2.928
-15.449 12.684 2.9070001
-15.449 12.679 2.885
-15.449 12.69 2.8659999
-15.448 12.661 2.8369999
-15.449 12.685 2.822
-15.449 12.686 2.8010001
-15.449 12.684 2.779
-15.449 12.688 2.7590001
-15.449 12.686 2.737
-15.448 12.667 2.711
-15.448 12.662 2.6889999
-15.448 12.667 2.6689999
-15.448 12.657 2.6459999
-15.448 12.675 2.6289999
-15.448 12.662 2.605
-15.447 12.657 2.582
-15.448 12.677 2.566
-15.447 12.657 2.54
-15.447 12.659 2.5190001
-15.447 12.661 2.4990001
-15.447 12.661 2.4779999
-15.447 12.666 2.4579999
-15.447 12.66 2.4360001
-15.447 12.669 2.4170001
-15.447 12.668 2.3959999
-15.447 12.669 2.375
-15.447 12.668 2.3540001
-15.447 12.668 2.3329999
-15.447 12.682 2.3150001
-15.447 12.667 2.2909999
-15.447 12.68 2.273
-15.448 12.676 2.2509999
-15.447 12.67 2.2290001
-15.447 12.688 2.2119999
-15.447 12.654 2.184
-15.447 12.668 2.1659999
-15.447 12.667 2.145
-15.447 12.671 2.125
-15.446 12.653 2.1010001
-15.446 12.646 2.079
-15.446 12.63 2.0550001
-15.446 12.639 2.036
-15.446 12.651 2.0179999
-15.445 12.634 1.994
-15.446 12.65 1.977
-15.445 12.634 1.9529999
-15.446 12.649 1.9349999
-15.445 12.633 1.9119999
-15.446 12.652 1.895
-15.446 12.649 1.874
-15.446 12.66 1.855
-15.446 12.673 1.837
-15.445 12.652 1.813
-15.446 12.675 1.796
-15.446 12.678 1.776
-15.445 12.657 1.752
-15.446 12.665 1.733
-15.445 12.658 1.711
-15.446 12.671 1.693
-15.445 12.655 1.67
-15.445 12.643 1.647
-15.445 12.671 1.631
-15.445 12.669 1.6109999
-15.445 12.672 1.591
-15.445 12.665 1.569
-15.445 12.668 1.549
-15.445 12.666 1.529
-15.445 12.672 1.5089999
-15.445 12.661 1.487
-15.444 12.655 1.466
-15.445 12.673 1.448
-15.444 12.647 1.424
-15.445 12.673 1.4069999
-15.444 12.666 1.386
-15.444 12.655 1.364
-15.444 12.657 1.344
-15.444 12.645 1.323
-15.444 12.665 1.3049999
-15.444 12.67 1.285
-15.444 12.657 1.263
