ply
format ascii 1.0
comment PCL generated
element vertex 1845
property float x
property float y
property float z
element camera 0
property float view_px
property float view_py
property float view_pz
property float x_axisx
property float x_axisy
property float x_axisz
property float y_axisx
property float y_axisy
property float y_axisz
property float z_axisx
property float z_axisy
property float z_axisz
property float focal
property float scalex
property float scaley
property float centerx
property float centery
property int viewportx
property int viewporty
property float k1
property float k2
end_header
-9.3400002 11.654 2.895
-9.3500004 11.652 2.875
-9.3549995 11.651 2.8559999
-9.3400002 11.653 2.845
-9.3290005 11.655 2.832
-9.2969999 11.662 2.8269999
-9.3240004 11.656 2.8010001
-9.309 11.659 2.79
-9.2950001 11.661 2.7780001
-9.2779999 11.664 2.7679999
-9.2779999 11.664 2.7509999
-9.2690001 11.666 2.737
-9.2740002 11.665 2.7190001
-9.2819996 11.663 2.6989999
-9.2559996 11.668 2.6919999
-9.2489996 11.669 2.678
-9.2340002 11.672 2.6659999
-9.2080002 11.677 2.6589999
-9.2329998 11.672 2.6329999
-9.2229996 11.673 2.6199999
-9.1949997 11.679 2.6129999
-9.177 11.682 2.6029999
-9.1850004 11.68 2.5829999
-9.1800003 11.681 2.5680001
-9.1709995 11.683 2.5550001
-9.1149998 11.693 2.556
-9.1190004 11.692 2.539
-9.1140003 11.693 2.523
-9.1590004 11.684 2.4920001
-9.1470003 11.686 2.48
-9.1610003 11.683 2.4579999
-9.165 11.682 2.4400001
-9.1560001 11.684 2.427
-9.1610003 11.683 2.4089999
-9.1610003 11.682 2.392
-9.1520004 11.684 2.3789999
-9.1560001 11.683 2.3610001
-9.1520004 11.683 2.346
-9.1429996 11.685 2.332
-9.1520004 11.683 2.313
-9.1540003 11.683 2.296
-9.1719999 11.679 2.2739999
-9.158 11.681 2.2620001
-9.1719999 11.678 2.2409999
-9.1540003 11.682 2.2309999
-9.1309996 11.686 2.221
-9.0979996 11.692 2.214
-9.1700001 11.678 2.177
-9.2220001 11.668 2.1459999
-9.2320004 11.665 2.1270001
-9.2229996 11.667 2.1129999
-9.2290001 11.666 2.096
-9.2150002 11.668 2.0840001
-9.2250004 11.666 2.0650001
-9.1309996 11.684 2.075
-9.151 11.68 2.053
-9.1520004 11.68 2.0369999
-9.1520004 11.679 2.02
-9.158 11.678 2.003
-9.1630001 11.677 1.985
-9.1499996 11.679 1.973
-9.1560001 11.678 1.955
-9.1610003 11.677 1.938
-9.1669998 11.675 1.92
-9.1540003 11.678 1.908
-9.1420002 11.68 1.895
-9.1700001 11.674 1.8710001
-9.1569996 11.676 1.859
-9.1590004 11.676 1.842
-9.1470003 11.678 1.829
-9.1610003 11.675 1.8099999
-9.158 11.675 1.795
-9.158 11.675 1.779
-9.1599998 11.674 1.763
-9.1560001 11.675 1.748
-9.151 11.676 1.733
-9.1630001 11.673 1.714
-9.1490002 11.676 1.702
-9.1560001 11.674 1.684
-9.1569996 11.674 1.668
-9.1549997 11.674 1.653
-9.1549997 11.674 1.637
-9.1610003 11.672 1.62
-9.1540003 11.673 1.6059999
-9.1420002 11.676 1.5930001
-9.1569996 11.672 1.574
-9.1540003 11.673 1.559
-9.151 11.673 1.544
-9.1529999 11.673 1.527
-9.1549997 11.672 1.511
-9.1560001 11.672 1.495
-9.1540003 11.672 1.48
-9.165 11.67 1.462
-9.1719999 11.668 1.4450001
-9.1409998 11.674 1.436
-9.1630001 11.669 1.416
-9.1429996 11.673 1.404
-9.1599998 11.669 1.385
-9.1569996 11.67 1.37
-9.1560001 11.67 1.355
-9.1520004 11.67 1.34
-9.1490002 11.671 1.325
-9.1389999 11.673 1.311
-9.1490002 11.671 1.294
-9.1330004 11.674 1.281
-9.1529999 11.669 1.262
-9.1590004 11.668 1.2460001
-9.1330004 11.673 1.235
-9.1540003 11.669 1.215
-9.1630001 11.667 1.198
-9.1680002 11.665 1.182
-9.1479998 11.669 1.17
-9.158 11.667 1.153
-9.1459999 11.669 1.1390001
-9.1440001 11.669 1.124
-9.1560001 11.667 1.107
-9.1630001 11.665 1.09
-9.1560001 11.666 1.076
-9.1540003 11.667 1.061
-9.1520004 11.667 1.046
-9.1540003 11.666 1.03
-9.1470003 11.667 1.016
-9.1499996 11.667 1
-9.1520004 11.666 0.98400003
-9.1330004 11.669 0.972
-9.1590004 11.664 0.95300001
-9.151 11.665 0.93900001
-9.1490002 11.666 0.92400002
-9.1470003 11.666 0.90799999
-9.1499996 11.665 0.89300001
-9.1610003 11.663 0.87599999
-9.1730003 11.66 0.85900003
-9.1990004 11.655 0.83999997
-9.2030001 11.654 0.82499999
-9.2220001 11.65 0.80699998
-9.2370005 11.647 0.79000002
-9.2469997 11.644 0.77399999
-9.2679996 11.64 0.75599998
-9.2939997 11.635 0.73799998
-9.3129997 11.631 0.72100002
-9.3240004 11.629 0.704
-9.3330002 11.627 0.68800002
-9.3470001 11.624 0.67199999
-9.3509998 11.623 0.65700001
-9.3540001 11.622 0.64099997
-9.3540001 11.622 0.62699997
-9.3690004 11.618 0.61000001
-9.375 11.617 0.59500003
-9.3660002 11.619 0.58099997
-9.368 11.618 0.56599998
-9.368 11.618 0.551
-9.3710003 11.617 0.53600001
-9.3690004 11.617 0.52100003
-9.3620005 11.618 0.50700003
-9.3719997 11.616 0.49200001
-9.3760004 11.615 0.47600001
-9.3800001 11.614 0.461
-9.3979998 11.61 0.44499999
-9.3809996 11.614 0.43200001
-9.3649998 11.617 0.41800001
-9.3879995 11.612 0.40200001
-9.3889999 11.612 0.38699999
-9.3800001 11.613 0.373
-9.3610001 11.617 0.36000001
-9.1890001 11.651 0.35699999
-9.1569996 11.656 0.345
-9.1269999 11.662 0.33199999
-9.1289997 11.662 0.31600001
-9.118 11.664 0.30199999
-9.1120005 11.665 0.287
-9.1330004 11.66 0.271
-9.1280003 11.661 0.25600001
-9.118 11.663 0.241
-9.1070004 11.665 0.227
-9.1129999 11.663 0.211
-9.1350002 11.659 0.19499999
-9.1289997 11.66 0.18000001
-9.1219997 11.661 0.16500001
-9.1140003 11.662 0.15000001
-9.1239996 11.66 0.13500001
-9.1300001 11.659 0.119
-9.1300001 11.658 0.104
-9.1330004 11.658 0.089000002
-9.132 11.658 0.074000001
-9.1350002 11.657 0.059
-9.1330004 11.657 0.044
-9.1009998 11.663 0.029999999
-9.1070004 11.662 0.014
-9.375 11.663 2.984
-9.375 11.663 2.967
-9.3789997 11.662 2.948
-9.3830004 11.661 2.9300001
-9.3859997 11.66 2.9119999
-9.3610001 11.665 2.905
-9.375 11.662 2.8829999
-9.3570004 11.665 2.8729999
-9.3470001 11.667 2.8599999
-9.3479996 11.666 2.8429999
-9.323 11.671 2.836
-9.323 11.671 2.819
-9.3269997 11.67 2.8010001
-9.2880001 11.678 2.7980001
-9.2919998 11.677 2.78
-9.2930002 11.677 2.763
-9.2790003 11.679 2.7509999
-9.2679996 11.681 2.7379999
-9.2589998 11.683 2.7249999
-9.2729998 11.68 2.7030001
-9.2489996 11.684 2.6949999
-9.2440004 11.685 2.6800001
-9.2329998 11.687 2.668
-9.2519999 11.683 2.6440001
-9.2259998 11.688 2.6370001
-9.2180004 11.69 2.6229999
-9.2139997 11.69 2.608
-9.1789999 11.697 2.6029999
-9.1829996 11.696 2.585
-9.1689997 11.698 2.573
-9.1330004 11.706 2.5680001
-9.1269999 11.707 2.553
-9.1219997 11.707 2.5380001
-9.1409998 11.703 2.5150001
-9.1590004 11.699 2.493
-9.1680002 11.697 2.473
-9.1639996 11.698 2.4579999
-9.1590004 11.699 2.4430001
-9.1590004 11.699 2.427
-9.1450005 11.701 2.415
-9.1639996 11.697 2.392
-9.1639996 11.697 2.3759999
-9.1459999 11.7 2.365
-9.1560001 11.698 2.345
-9.165 11.696 2.326
-9.1560001 11.698 2.312
-9.151 11.698 2.2980001
-9.1599998 11.696 2.2780001
-9.1610003 11.696 2.2620001
-9.1619997 11.695 2.2449999
-9.1429996 11.699 2.2349999
-9.0959997 11.708 2.2320001
-9.1009998 11.707 2.214
-9.1590004 11.695 2.181
-9.217 11.683 2.148
-9.2180004 11.683 2.132
-9.2119999 11.684 2.1170001
-9.2130003 11.683 2.1010001
-9.224 11.681 2.082
-9.2279997 11.68 2.0650001
-9.158 11.694 2.0680001
-9.1160002 11.702 2.063
-9.1499996 11.695 2.0380001
-9.1599998 11.693 2.0190001
-9.165 11.692 2.0009999
-9.1590004 11.693 1.987
-9.1619997 11.692 1.97
-9.1630001 11.691 1.954
-9.1450005 11.695 1.942
-9.1420002 11.696 1.927
-9.1529999 11.693 1.908
-9.1440001 11.695 1.895
-9.1639996 11.691 1.874
-9.1610003 11.691 1.858
-9.1520004 11.692 1.845
-9.1490002 11.693 1.83
-9.1499996 11.692 1.813
-9.1549997 11.691 1.796
-9.151 11.692 1.781
-9.1529999 11.691 1.765
-9.1420002 11.693 1.752
-9.1540003 11.691 1.733
-9.1590004 11.689 1.716
-9.1400003 11.693 1.704
-9.1420002 11.692 1.688
-9.1440001 11.692 1.6720001
-9.1569996 11.689 1.653
-9.1499996 11.69 1.6390001
-9.1400003 11.692 1.625
-9.1680002 11.686 1.603
-9.1540003 11.689 1.591
-9.1569996 11.688 1.574
-9.1389999 11.691 1.562
-9.1409998 11.691 1.546
-9.1520004 11.688 1.528
-9.1479998 11.689 1.513
-9.1549997 11.687 1.4960001
-9.1520004 11.688 1.4809999
-9.1429996 11.689 1.467
-9.1549997 11.687 1.449
-9.158 11.686 1.433
-9.1560001 11.686 1.418
-9.1470003 11.688 1.404
-9.1590004 11.685 1.386
-9.1549997 11.686 1.3710001
-9.1479998 11.687 1.357
-9.1549997 11.685 1.34
-9.118 11.692 1.331
-9.1440001 11.687 1.311
-9.1470003 11.686 1.295
-9.1560001 11.684 1.278
-9.1409998 11.687 1.265
-9.1450005 11.686 1.248
-9.1549997 11.684 1.2309999
-9.1479998 11.685 1.217
-9.1330004 11.688 1.204
-9.1540003 11.683 1.1849999
-9.1440001 11.685 1.171
-9.1429996 11.685 1.156
-9.1359997 11.686 1.141
-9.1389999 11.685 1.125
-9.1400003 11.685 1.11
-9.1470003 11.683 1.0930001
-9.1490002 11.683 1.077
-9.1490002 11.683 1.062
-9.1639996 11.679 1.044
-9.1470003 11.682 1.0319999
-9.1470003 11.682 1.016
-9.1389999 11.684 1.002
-9.1289997 11.685 0.98799998
-9.1490002 11.681 0.97000003
-9.1459999 11.682 0.95499998
-9.1409998 11.682 0.94
-9.1569996 11.679 0.92299998
-9.1540003 11.679 0.90799999
-9.1479998 11.68 0.89300001
-9.1599998 11.678 0.87599999
-9.1619997 11.678 0.861
-9.1969995 11.67 0.84100002
-9.2089996 11.668 0.824
-9.2209997 11.665 0.80699998
-9.2349997 11.662 0.79000002
-9.2650003 11.656 0.77200001
-9.2589998 11.657 0.75700003
-9.2880001 11.651 0.73900002
-9.2919998 11.65 0.72299999
-9.3179998 11.645 0.70499998
-9.3280001 11.643 0.68900001
-9.3389997 11.64 0.67299998
-9.3430004 11.639 0.65799999
-9.3649998 11.635 0.63999999
-9.3789997 11.632 0.62400001
-9.3859997 11.63 0.60799998
-9.3780003 11.631 0.59500003
-9.4069996 11.625 0.57700002
-9.3990002 11.627 0.56300002
-9.4029999 11.626 0.54799998
-9.4029999 11.626 0.53299999
-9.408 11.624 0.51800001
-9.4160004 11.623 0.50199997
-9.4099998 11.624 0.48800001
-9.4119997 11.623 0.47299999
-9.4049997 11.624 0.45899999
-9.4090004 11.623 0.44400001
-9.4219999 11.62 0.428
-9.4169998 11.621 0.414
-9.4169998 11.621 0.39899999
-9.4139996 11.621 0.38499999
-9.4130001 11.621 0.37
-9.4189997 11.62 0.35499999
-9.4200001 11.62 0.34099999
-9.4180002 11.62 0.32600001
-9.4160004 11.62 0.31099999
-9.4090004 11.621 0.29699999
-9.1379995 11.675 0.30000001
-9.1350002 11.675 0.28600001
-9.1289997 11.676 0.271
-9.1289997 11.676 0.25600001
-9.1330004 11.675 0.23999999
-9.1230001 11.677 0.226
-9.132 11.675 0.20999999
-9.1470003 11.671 0.19400001
-9.1300001 11.675 0.18000001
-9.1280003 11.675 0.16500001
-9.1429996 11.671 0.149
-9.1099997 11.678 0.13500001
-9.132 11.673 0.119
-9.1420002 11.671 0.104
-9.1260004 11.674 0.089000002
-9.125 11.674 0.074000001
-9.1300001 11.673 0.059
-9.1289997 11.673 0.044
-9.1230001 11.674 0.028999999
-9.1289997 11.672 0.014
-9.3999996 11.673 2.9920001
-9.3889999 11.675 2.9790001
-9.3970003 11.674 2.9590001
-9.3830004 11.676 2.948
-9.3780003 11.677 2.9330001
-9.3730001 11.678 2.918
-9.3590002 11.68 2.9070001
-9.3660002 11.679 2.8870001
-9.3380003 11.684 2.881
-9.3459997 11.682 2.8610001
-9.3299999 11.685 2.8510001
-9.3290005 11.685 2.8340001
-9.3400002 11.683 2.813
-9.3149996 11.688 2.806
-9.2840004 11.694 2.8010001
-9.283 11.694 2.7839999
-9.2779999 11.695 2.7690001
-9.2810001 11.694 2.7509999
-9.2679996 11.696 2.74
-9.2620001 11.697 2.7249999
-9.2589998 11.698 2.7090001
-9.2390003 11.702 2.7
-9.2360001 11.702 2.684
-9.2329998 11.702 2.668
-9.2309999 11.702 2.652
-9.2209997 11.704 2.6389999
-9.2209997 11.704 2.6229999
-9.217 11.705 2.6070001
-9.1879997 11.71 2.5999999
-9.1739998 11.713 2.5880001
-9.1300001 11.722 2.5869999
-9.1070004 11.726 2.5780001
-9.1199999 11.723 2.556
-9.1630001 11.714 2.526
-9.1389999 11.719 2.517
-9.1429996 11.718 2.4990001
-9.1520004 11.716 2.4790001
-9.1520004 11.716 2.4630001
-9.1479998 11.716 2.448
-9.1590004 11.714 2.427
-9.1669998 11.712 2.4089999
-9.1529999 11.715 2.3959999
-9.1429996 11.716 2.3829999
-9.1639996 11.712 2.3599999
-9.1450005 11.716 2.349
-9.1490002 11.714 2.332
-9.158 11.713 2.313
-9.1450005 11.715 2.3
-9.1599998 11.712 2.279
-9.1730003 11.709 2.2590001
-9.1350002 11.716 2.2539999
-9.099 11.723 2.2479999
-9.0799999 11.727 2.237
-9.0810003 11.727 2.22
-9.0950003 11.724 2.2
-9.1660004 11.709 2.1630001
-9.2089996 11.7 2.135
-9.2150002 11.699 2.1170001
-9.2200003 11.697 2.0999999
-9.2040005 11.701 2.0880001
-9.2259998 11.696 2.066
-9.2270002 11.696 2.05
-9.1759996 11.706 2.0480001
-9.0970001 11.722 2.053
-9.1339998 11.714 2.026
-9.1549997 11.709 2.0050001
-9.1499996 11.71 1.99
-9.1520004 11.71 1.973
-9.1520004 11.709 1.957
-9.1490002 11.71 1.942
-9.1590004 11.708 1.923
-9.1549997 11.708 1.908
-9.1660004 11.706 1.89
-9.1520004 11.708 1.877
-9.1590004 11.707 1.859
-9.151 11.708 1.846
-9.1470003 11.709 1.831
-9.1529999 11.707 1.813
-9.125 11.713 1.804
-9.1370001 11.71 1.785
-9.1540003 11.706 1.765
-9.1389999 11.709 1.753
-9.1400003 11.709 1.737
-9.1459999 11.707 1.719
-9.1379995 11.709 1.705
-9.1289997 11.71 1.692
-9.1459999 11.707 1.6720001
-9.1459999 11.707 1.656
-9.1479998 11.706 1.64
-9.1490002 11.705 1.624
-9.1450005 11.706 1.609
-9.1429996 11.706 1.5930001
-9.1409998 11.706 1.5779999
-9.151 11.704 1.5599999
-9.1400003 11.706 1.5470001
-9.1370001 11.707 1.5319999
-9.1359997 11.707 1.516
-9.1490002 11.704 1.498
-9.1470003 11.704 1.483
-9.158 11.702 1.465
-9.1429996 11.704 1.452
-9.1560001 11.702 1.434
-9.1490002 11.703 1.419
-9.1540003 11.702 1.403
-9.1470003 11.703 1.3890001
-9.1440001 11.703 1.373
-9.1409998 11.704 1.359
-9.1429996 11.703 1.3430001
-9.1370001 11.704 1.3279999
-9.125 11.706 1.3150001
-9.132 11.704 1.298
-9.1470003 11.701 1.279
-9.1450005 11.701 1.2640001
-9.1370001 11.703 1.25
-9.1389999 11.702 1.234
-9.1560001 11.699 1.216
-9.1529999 11.699 1.201
-9.1370001 11.702 1.188
-9.1300001 11.703 1.174
-9.1520004 11.699 1.155
-9.1529999 11.698 1.1390001
-9.1470003 11.699 1.124
-9.1479998 11.699 1.109
-9.1499996 11.698 1.0930001
-9.1529999 11.697 1.077
-9.1499996 11.698 1.062
-9.1479998 11.698 1.0470001
-9.1560001 11.696 1.03
-9.1269999 11.702 1.02
-9.1199999 11.703 1.005
-9.1359997 11.7 0.98699999
-9.1389999 11.699 0.972
-9.1409998 11.698 0.95599997
-9.1440001 11.698 0.94
-9.132 11.7 0.926
-9.1479998 11.696 0.90899998
-9.1210003 11.702 0.89700001
-9.1479998 11.696 0.87800002
-9.1610003 11.693 0.861
-9.177 11.69 0.84399998
-9.2010002 11.685 0.82499999
-9.2150002 11.682 0.80800003
-9.2329998 11.678 0.79100001
-9.2460003 11.675 0.77399999
-9.2670002 11.671 0.75700003
-9.2810001 11.668 0.74000001
-9.2919998 11.665 0.72299999
-9.3059998 11.662 0.70700002
-9.3120003 11.661 0.69099998
-9.3380003 11.655 0.67299998
-9.3249998 11.658 0.66000003
-9.3590002 11.651 0.64099997
-9.375 11.647 0.625
-9.3789997 11.646 0.60900003
-9.4060001 11.641 0.59200001
-9.4300003 11.636 0.57499999
-9.441 11.633 0.55900002
-9.4390001 11.634 0.54400003
-9.434 11.634 0.52999997
-9.4469995 11.632 0.514
-9.4449997 11.632 0.5
-9.4639997 11.628 0.48300001
-9.4619999 11.628 0.46900001
-9.441 11.632 0.456
-9.4399996 11.632 0.442
-9.46 11.628 0.42500001
-9.4519997 11.629 0.41100001
-9.4469995 11.63 0.39700001
-9.4569998 11.628 0.382
-9.467 11.626 0.366
-9.467 11.625 0.352
-9.4619999 11.626 0.33700001
-9.4619999 11.626 0.32300001
-9.4700003 11.624 0.308
-9.4700003 11.624 0.29300001
-9.4689999 11.624 0.27900001
-9.4709997 11.623 0.264
-9.4580002 11.626 0.25
-9.4650002 11.624 0.235
-9.4390001 11.629 0.222
-9.1280003 11.691 0.22499999
-9.1289997 11.691 0.20999999
-9.1400003 11.688 0.19400001
-9.1219997 11.692 0.18000001
-9.1149998 11.693 0.16500001
-9.1230001 11.691 0.15000001
-9.1169996 11.692 0.13500001
-9.1289997 11.69 0.119
-9.1379995 11.688 0.104
-9.1330004 11.689 0.089000002
-9.132 11.688 0.074000001
-9.1280003 11.689 0.059
-9.1420002 11.686 0.043000001
-9.1169996 11.691 0.028999999
-9.1309996 11.688 0.014
-9.4069996 11.686 2.99
-9.3850002 11.691 2.9820001
-9.3999996 11.687 2.9590001
-9.3780003 11.692 2.95
-9.3699999 11.693 2.937
-9.3760004 11.692 2.918
-9.3710003 11.693 2.9030001
-9.3559999 11.695 2.892
-9.3579998 11.695 2.875
-9.3500004 11.697 2.8610001
-9.3310003 11.7 2.8510001
-9.316 11.703 2.8399999
-9.3149996 11.703 2.8239999
-9.3149996 11.703 2.8069999
-9.3000002 11.706 2.796
-9.2860003 11.708 2.7839999
-9.2849998 11.709 2.7679999
-9.2880001 11.708 2.75
-9.2709999 11.711 2.7390001
-9.2679996 11.711 2.724
-9.257 11.713 2.711
-9.2580004 11.713 2.694
-9.2460003 11.715 2.681
-9.2259998 11.719 2.671
-9.2399998 11.716 2.6500001
-9.2259998 11.719 2.638
-9.2010002 11.723 2.6300001
-9.2089996 11.722 2.6110001
-9.1479998 11.734 2.615
-9.1190004 11.74 2.608
-9.1190004 11.739 2.5910001
-9.1409998 11.735 2.5669999
-9.1610003 11.73 2.5439999
-9.1560001 11.731 2.529
-9.165 11.729 2.5090001
-9.1599998 11.73 2.494
-9.1549997 11.731 2.4790001
-9.1599998 11.729 2.461
-9.1459999 11.732 2.4489999
-9.1540003 11.73 2.4300001
-9.1669998 11.727 2.4089999
-9.1470003 11.731 2.3989999
-9.1400003 11.733 2.385
-9.158 11.729 2.3629999
-9.1700001 11.726 2.342
-9.1560001 11.728 2.3299999
-9.1610003 11.727 2.312
-9.1569996 11.728 2.2969999
-9.1520004 11.729 2.2820001
-9.1009998 11.739 2.2809999
-9.0959997 11.74 2.266
-9.1059999 11.737 2.247
-9.0900002 11.741 2.2349999
-9.0790005 11.743 2.2219999
-9.0930004 11.739 2.201
-9.0839996 11.741 2.187
-9.2080002 11.716 2.1359999
-9.2030001 11.716 2.1210001
-9.2089996 11.715 2.1029999
-9.191 11.718 2.092
-9.2150002 11.713 2.0699999
-9.2200003 11.712 2.052
-9.2259998 11.711 2.0339999
-9.1300001 11.73 2.0439999
-9.0959997 11.737 2.0369999
-9.1450005 11.726 2.0079999
-9.1309996 11.729 1.9960001
-9.1280003 11.729 1.98
-9.1459999 11.726 1.96
-9.1619997 11.723 1.939
-9.1470003 11.725 1.927
-9.1490002 11.725 1.91
-9.1400003 11.726 1.897
-9.1549997 11.723 1.877
-9.1520004 11.724 1.862
-9.1529999 11.723 1.846
-9.1540003 11.723 1.829
-9.1520004 11.723 1.814
-9.1289997 11.727 1.803
-9.1499996 11.723 1.783
-9.1379995 11.725 1.77
-9.1459999 11.723 1.752
-9.1470003 11.723 1.7359999
-9.1540003 11.721 1.7180001
-9.1450005 11.723 1.704
-9.1470003 11.722 1.688
-9.1409998 11.723 1.673
-9.1490002 11.721 1.656
-9.1379995 11.723 1.642
-9.1560001 11.719 1.623
-9.1529999 11.72 1.608
-9.1549997 11.719 1.591
-9.1479998 11.72 1.577
-9.1459999 11.721 1.562
-9.1459999 11.721 1.546
-9.1339998 11.723 1.533
-9.1400003 11.721 1.516
-9.1420002 11.721 1.5
-9.1590004 11.717 1.48
-9.125 11.724 1.472
-9.1520004 11.718 1.451
-9.158 11.717 1.434
-9.1309996 11.722 1.423
-9.1339998 11.721 1.4069999
-9.1499996 11.717 1.388
-9.1470003 11.718 1.373
-9.1440001 11.718 1.358
-9.1420002 11.719 1.3430001
-9.1379995 11.719 1.3279999
-9.1549997 11.715 1.309
-9.1350002 11.719 1.298
-9.1409998 11.718 1.281
-9.1389999 11.718 1.266
-9.1549997 11.715 1.247
-9.1529999 11.715 1.232
-9.1300001 11.719 1.221
-9.1370001 11.718 1.204
-9.132 11.718 1.189
-9.1330004 11.718 1.174
-9.1269999 11.719 1.159
-9.1560001 11.713 1.1390001
-9.1389999 11.716 1.126
-9.132 11.718 1.112
-9.1540003 11.713 1.0930001
-9.1499996 11.714 1.0779999
-9.1429996 11.715 1.064
-9.1420002 11.715 1.048
-9.125 11.718 1.035
-9.125 11.718 1.02
-9.1450005 11.714 1.002
-9.1389999 11.715 0.98699999
-9.1409998 11.714 0.97100002
-9.1379995 11.714 0.95599997
-9.1499996 11.712 0.93900001
-9.1330004 11.715 0.926
-9.1309996 11.715 0.91100001
-9.1389999 11.713 0.89499998
-9.1429996 11.712 0.87900001
-9.1569996 11.709 0.86199999
-9.158 11.709 0.84600002
-9.2010002 11.7 0.82499999
-9.2189999 11.696 0.80800003
-9.2139997 11.697 0.79299998
-9.25 11.689 0.77399999
-9.2670002 11.686 0.75700003
-9.2779999 11.683 0.74000001
-9.2849998 11.682 0.72399998
-9.3179998 11.675 0.70599997
-9.3170004 11.675 0.69099998
-9.3360004 11.671 0.67400002
-9.3450003 11.669 0.65799999
-9.3669996 11.664 0.63999999
-9.3780003 11.662 0.62400001
-9.3920002 11.659 0.60799998
-9.3999996 11.657 0.59200001
-9.4139996 11.654 0.57599998
-9.4219999 11.652 0.56099999
-9.4420004 11.648 0.54400003
-9.46 11.644 0.528
-9.467 11.642 0.51200002
-9.4680004 11.642 0.498
-9.4910002 11.637 0.48100001
-9.4890003 11.637 0.46700001
-9.4980001 11.635 0.45100001
-9.4870005 11.637 0.43799999
-9.4910002 11.636 0.42300001
-9.4940004 11.635 0.40799999
-9.493 11.635 0.39300001
-9.4919996 11.635 0.37900001
-9.4969997 11.634 0.36399999
-9.5019999 11.633 0.34900001
-9.5080004 11.632 0.33399999
-9.5120001 11.631 0.31900001
-9.5120001 11.63 0.30500001
-9.507 11.632 0.29100001
-9.5220003 11.628 0.27500001
-9.4949999 11.634 0.26300001
-9.5089998 11.631 0.24699999
-9.5109997 11.63 0.233
-9.5059996 11.631 0.21799999
-9.5139999 11.629 0.20299999
-9.5050001 11.631 0.19
-9.4960003 11.632 0.176
-9.1169996 11.708 0.18000001
-9.125 11.706 0.16500001
-9.1309996 11.705 0.15000001
-9.1289997 11.705 0.134
-9.1219997 11.706 0.12
-9.1309996 11.704 0.104
-9.1210003 11.706 0.089000002
-9.125 11.705 0.074000001
-9.1199999 11.706 0.059
-9.1389999 11.702 0.043000001
-9.1190004 11.706 0.028999999
-9.1339998 11.703 0.013
-9.4110003 11.701 2.9890001
-9.3950005 11.704 2.9790001
-9.3879995 11.705 2.9649999
-9.3649998 11.71 2.957
-9.3669996 11.709 2.9389999
-9.3870001 11.705 2.915
-9.3690004 11.708 2.905
-9.3479996 11.712 2.8959999
-9.3529997 11.711 2.8770001
-9.3380003 11.714 2.8659999
-9.3280001 11.716 2.8529999
-9.3190002 11.718 2.8399999
-9.302 11.721 2.829
-9.2980003 11.722 2.8139999
-9.3129997 11.718 2.7920001
-9.2869997 11.723 2.7839999
-9.2989998 11.721 2.7639999
-9.2799997 11.724 2.7539999
-9.2609997 11.728 2.744
-9.2539997 11.729 2.7290001
-9.2589998 11.728 2.711
-9.2489996 11.73 2.698
-9.2489996 11.73 2.681
-9.2410002 11.731 2.6670001
-9.2279997 11.734 2.655
-9.2270002 11.734 2.6389999
-9.2200003 11.735 2.625
-9.2069998 11.737 2.612
-9.1780005 11.743 2.605
-9.1269999 11.753 2.6059999
-9.1459999 11.749 2.5829999
-9.1540003 11.747 2.563
-9.1680002 11.744 2.5420001
-9.1630001 11.745 2.527
-9.1639996 11.745 2.51
-9.158 11.746 2.4949999
-9.1680002 11.743 2.4760001
-9.158 11.745 2.4619999
-9.1440001 11.748 2.45
-9.1599998 11.744 2.4289999
-9.1719999 11.742 2.408
-9.1549997 11.745 2.3970001
-9.1730003 11.741 2.375
-9.1590004 11.744 2.3629999
-9.165 11.743 2.345
-9.1529999 11.745 2.332
-9.1660004 11.742 2.312
-9.1499996 11.745 2.3
-9.0909996 11.757 2.3010001
-9.1300001 11.749 2.273
-9.1569996 11.743 2.2490001
-9.1330004 11.748 2.24
-9.1140003 11.751 2.2290001
-9.0970001 11.755 2.217
-9.0939999 11.755 2.2019999
-9.092 11.755 2.1860001
-9.0880003 11.756 2.171
-9.1920004 11.734 2.125
-9.2080002 11.731 2.1040001
-9.198 11.733 2.0910001
-9.2180004 11.728 2.069
-9.2089996 11.73 2.056
-9.1750002 11.737 2.049
-9.1879997 11.734 2.029
-9.0979996 11.752 2.0380001
-9.0950003 11.753 2.0220001
-9.1090002 11.749 2.0020001
-9.1289997 11.745 1.9809999
-9.1339998 11.744 1.9630001
-9.1350002 11.743 1.947
-9.1409998 11.742 1.929
-9.1470003 11.741 1.9119999
-9.1429996 11.741 1.897
-9.1490002 11.74 1.8789999
-9.1400003 11.741 1.865
-9.1370001 11.742 1.85
-9.1190004 11.745 1.839
-9.1479998 11.739 1.8150001
-9.1540003 11.738 1.798
-9.1459999 11.739 1.784
-9.1379995 11.741 1.77
-9.1490002 11.738 1.752
-9.1450005 11.739 1.737
-9.1420002 11.739 1.721
-9.1479998 11.738 1.704
-9.1499996 11.737 1.688
-9.1289997 11.741 1.677
-9.1260004 11.741 1.661
-9.1280003 11.741 1.645
-9.1450005 11.737 1.625
-9.1280003 11.74 1.614
-9.1479998 11.736 1.5930001
-9.1490002 11.736 1.577
-9.1459999 11.736 1.562
-9.1529999 11.734 1.545
-9.1420002 11.737 1.5319999
-9.1470003 11.735 1.515
-9.1440001 11.736 1.5
-9.1459999 11.735 1.484
-9.1280003 11.738 1.471
-9.1370001 11.737 1.454
-9.1529999 11.733 1.4349999
-9.1490002 11.734 1.42
-9.1370001 11.736 1.4069999
-9.1470003 11.734 1.3890001
-9.1289997 11.737 1.377
-9.1420002 11.735 1.359
-9.1339998 11.736 1.345
-9.1359997 11.735 1.329
-9.1350002 11.735 1.314
-9.1359997 11.735 1.298
-9.1400003 11.734 1.2819999
-9.1459999 11.732 1.265
-9.1520004 11.731 1.248
-9.1359997 11.734 1.2359999
-9.1459999 11.732 1.2180001
-9.1339998 11.734 1.205
-9.1370001 11.733 1.189
-9.1339998 11.734 1.174
-9.1219997 11.736 1.16
-9.1350002 11.733 1.143
-9.1459999 11.731 1.125
-9.1479998 11.73 1.109
-9.1420002 11.731 1.095
-9.1440001 11.73 1.079
-9.1459999 11.73 1.063
-9.1350002 11.732 1.05
-9.1269999 11.733 1.035
-9.1490002 11.728 1.017
-9.132 11.732 1.0039999
-9.1210003 11.734 0.99000001
-9.125 11.733 0.97399998
-9.1409998 11.729 0.95599997
-9.132 11.731 0.94199997
-9.132 11.731 0.92699999
-9.1389999 11.729 0.91000003
-9.1420002 11.728 0.89499998
-9.1300001 11.73 0.88099998
-9.1339998 11.729 0.86500001
-9.1590004 11.724 0.84600002
-9.198 11.716 0.82599998
-9.1999998 11.715 0.81099999
-9.2089996 11.713 0.79400003
-9.2250004 11.71 0.77700001
-9.2519999 11.704 0.759
-9.2489996 11.704 0.74400002
-9.2919998 11.695 0.72399998
-9.3009996 11.693 0.708
-9.3100004 11.691 0.69199997
-9.3360004 11.686 0.67400002
-9.3470001 11.683 0.65799999
-9.3570004 11.681 0.64200002
-9.3660002 11.679 0.62599999
-9.3789997 11.676 0.61000001
-9.3909998 11.674 0.59399998
-9.4309998 11.665 0.57499999
-9.4390001 11.663 0.55900002
-9.4469995 11.662 0.54400003
-9.4560003 11.66 0.528
-9.4689999 11.657 0.51200002
-9.4969997 11.651 0.495
-9.5010004 11.65 0.47999999
-9.5299997 11.644 0.463
-9.5279999 11.644 0.449
-9.5290003 11.644 0.43399999
-9.5209999 11.645 0.41999999
-9.5220003 11.645 0.40599999
-9.54 11.641 0.38999999
-9.5240002 11.644 0.377
-9.5360003 11.641 0.361
-9.5290003 11.642 0.347
-9.5360003 11.641 0.33199999
-9.5430002 11.639 0.317
-9.54 11.64 0.303
-9.5430002 11.639 0.28799999
-9.5380001 11.64 0.27399999
-9.5500002 11.637 0.259
-9.5489998 11.637 0.245
-9.5480003 11.637 0.23
-9.533 11.64 0.21699999
-9.5469999 11.637 0.20200001
-9.5579996 11.635 0.18700001
-9.5550003 11.635 0.17200001
-9.5439997 11.637 0.15899999
-9.5410004 11.638 0.14399999
-9.5360003 11.638 0.13
-9.1219997 11.722 0.13500001
-9.1079998 11.725 0.12
-9.1120005 11.724 0.105
-9.1190004 11.722 0.089000002
-9.1389999 11.718 0.074000001
-9.1289997 11.72 0.059
-9.132 11.719 0.044
-9.1020002 11.725 0.028999999
-9.1129999 11.722 0.014
-9.4230003 11.713 2.9849999
-9.4130001 11.715 2.973
-9.4029999 11.717 2.9590001
-9.3730001 11.723 2.954
-9.3809996 11.721 2.934
-9.3760004 11.722 2.9200001
-9.3629999 11.725 2.908
-9.3470001 11.728 2.8970001
-9.3290005 11.731 2.8870001
-9.342 11.728 2.865
-9.3450003 11.727 2.848
-9.3179998 11.733 2.8410001
-9.3199997 11.732 2.8239999
-9.3009996 11.736 2.8139999
-9.2880001 11.739 2.802
-9.2869997 11.738 2.7850001
-9.3050003 11.734 2.7620001
-9.2770004 11.74 2.756
-9.2729998 11.741 2.74
-9.2399998 11.747 2.7349999
-9.243 11.747 2.7179999
-9.25 11.745 2.698
-9.2530003 11.744 2.681
-9.2299995 11.749 2.6719999
-9.2060003 11.753 2.664
-9.2150002 11.751 2.6440001
-9.1960001 11.755 2.6340001
-9.1730003 11.76 2.625
-9.085 11.778 2.638
-9.1420002 11.766 2.602
-9.1479998 11.765 2.5829999
-9.1569996 11.762 2.563
-9.1669998 11.76 2.543
-9.1569996 11.762 2.53
-9.1660004 11.76 2.51
-9.1619997 11.761 2.4949999
-9.1569996 11.761 2.48
-9.1610003 11.76 2.4619999
-9.1680002 11.759 2.4430001
-9.1520004 11.762 2.4319999
-9.1520004 11.762 2.415
-9.1479998 11.762 2.4000001
-9.1479998 11.762 2.3840001
-9.1569996 11.76 2.3640001
-9.1590004 11.759 2.3469999
-9.1730003 11.756 2.3269999
-9.1389999 11.763 2.3210001
-9.1140003 11.768 2.312
-9.1350002 11.763 2.289
-9.1400003 11.762 2.2709999
-9.1309996 11.764 2.257
-9.1499996 11.76 2.2349999
-9.1459999 11.76 2.22
-9.1110001 11.767 2.214
-9.0950003 11.77 2.2019999
-9.0959997 11.77 2.1849999
-9.0780001 11.774 2.174
-9.0869999 11.771 2.155
-9.1630001 11.755 2.118
-9.2040005 11.747 2.0899999
-9.2080002 11.746 2.073
-9.2119999 11.745 2.0550001
-9.1940002 11.748 2.0439999
-9.0909996 11.769 2.056
-9.0869999 11.77 2.0409999
-9.0699997 11.773 2.029
-9.0760002 11.772 2.0120001
-9.099 11.767 1.989
-9.1330004 11.76 1.964
-9.1289997 11.76 1.949
-9.1339998 11.759 1.932
-9.1350002 11.758 1.915
-9.1359997 11.758 1.899
-9.1520004 11.755 1.8789999
-9.1300001 11.759 1.868
-9.1400003 11.757 1.85
-9.132 11.758 1.836
-9.151 11.754 1.8150001
-9.1440001 11.755 1.801
-9.1260004 11.759 1.789
-9.1379995 11.756 1.771
-9.1429996 11.755 1.753
-9.1309996 11.757 1.74
-9.1459999 11.753 1.721
-9.1129999 11.76 1.7130001
-9.1440001 11.753 1.6900001
-9.1440001 11.753 1.674
-9.1379995 11.754 1.659
-9.1429996 11.753 1.642
-9.1359997 11.754 1.628
-9.1370001 11.754 1.612
-9.1280003 11.755 1.598
-9.1199999 11.757 1.584
-9.1400003 11.753 1.564
-9.1330004 11.754 1.55
-9.1400003 11.752 1.533
-9.1409998 11.752 1.517
-9.1409998 11.752 1.501
-9.1440001 11.751 1.484
-9.1459999 11.751 1.4680001
-9.1049995 11.759 1.461
-9.1440001 11.751 1.437
-9.1420002 11.751 1.4220001
-9.1339998 11.752 1.408
-9.1459999 11.75 1.39
-9.1370001 11.751 1.376
-9.1409998 11.75 1.36
-9.1370001 11.751 1.345
-9.1440001 11.749 1.3279999
-9.1409998 11.749 1.313
-9.1359997 11.75 1.298
-9.1420002 11.749 1.2819999
-9.1440001 11.748 1.266
-9.118 11.753 1.255
-9.1350002 11.75 1.2359999
-9.1269999 11.751 1.222
-9.1330004 11.75 1.205
-9.1450005 11.747 1.188
-9.1479998 11.746 1.1720001
-9.1300001 11.75 1.159
-9.1560001 11.744 1.1390001
-9.1490002 11.745 1.125
-9.1370001 11.748 1.112
-9.1450005 11.746 1.095
-9.1420002 11.746 1.08
-9.1359997 11.747 1.0650001
-9.1370001 11.747 1.05
-9.1269999 11.749 1.036
-9.1389999 11.746 1.0190001
-9.1230001 11.749 1.005
-9.1289997 11.747 0.98900002
-9.1330004 11.747 0.97299999
-9.1440001 11.744 0.95599997
-9.1239996 11.748 0.94400001
-9.1400003 11.744 0.926
-9.118 11.749 0.91399997
-9.1400003 11.744 0.89499998
-9.1379995 11.744 0.88
-9.1260004 11.746 0.866
-9.1289997 11.746 0.85100001
-9.1280003 11.746 0.83499998
-9.1739998 11.736 0.81400001
-9.2040005 11.73 0.79500002
-9.2379999 11.722 0.77600002
-9.2519999 11.719 0.759
-9.2589998 11.718 0.74299997
-9.2740002 11.714 0.72600001
-9.3030005 11.708 0.708
-9.3039999 11.708 0.69199997
-9.3140001 11.705 0.676
-9.3290005 11.702 0.66000003
-9.3479996 11.698 0.64300001
-9.3660002 11.694 0.62599999
-9.3839998 11.69 0.60900003
-9.3990002 11.687 0.59299999
-9.4189997 11.683 0.57599998
-9.4399996 11.678 0.55900002
-9.4429998 11.677 0.54400003
-9.4689999 11.672 0.52700001
-9.4870005 11.668 0.51099998
-9.4659996 11.672 0.498
-9.5019999 11.665 0.47999999
-9.5170002 11.661 0.46399999
-9.5290003 11.659 0.449
-9.5290003 11.659 0.43399999
-9.5509996 11.654 0.41800001
-9.5649996 11.651 0.40200001
-9.5629997 11.651 0.38800001
-9.5710001 11.649 0.373
-9.5629997 11.651 0.359
-9.5900002 11.645 0.34299999
-9.5860004 11.645 0.329
-9.5670004 11.649 0.31600001
-9.5839996 11.645 0.30000001
-9.5889997 11.644 0.285
-9.5939999 11.643 0.271
-9.5860004 11.644 0.257
-9.5900002 11.643 0.242
-9.5810003 11.645 0.228
-9.5939999 11.642 0.213
-9.5889997 11.643 0.199
-9.5880003 11.643 0.185
-9.5819998 11.644 0.171
-9.6000004 11.64 0.156
-9.6009998 11.64 0.141
-9.6020002 11.639 0.127
-9.6000004 11.64 0.113
-9.6079998 11.638 0.097999997
-9.5790005 11.644 0.085000001
-9.6169996 11.635 0.068999998
-9.1129999 11.739 0.074000001
-9.1160002 11.738 0.059
-9.1219997 11.736 0.044
-9.1289997 11.735 0.028000001
-9.125 11.735 0.013
-9.401 11.733 2.9949999
-9.3979998 11.733 2.9790001
-9.3839998 11.736 2.9679999
-9.3879995 11.735 2.95
-9.3730001 11.738 2.9389999
-9.3699999 11.738 2.9230001
-9.3610001 11.74 2.9100001
-9.3540001 11.741 2.895
-9.3439999 11.743 2.882
-9.3369999 11.744 2.868
-9.3280001 11.746 2.855
-9.3120003 11.749 2.8440001
-9.3319998 11.745 2.8199999
-9.323 11.747 2.8069999
-9.3030005 11.751 2.7969999
-9.3039999 11.75 2.78
-9.2939997 11.752 2.767
-9.2959995 11.751 2.75
-9.2810001 11.754 2.7379999
-9.2259998 11.766 2.7409999
-9.2250004 11.766 2.7249999
-9.1969995 11.771 2.7179999
-9.2010002 11.77 2.7
-9.2049999 11.769 2.6819999
-9.1949997 11.771 2.668
-9.2040005 11.769 2.648
-9.1990004 11.77 2.6329999
-9.0740004 11.796 2.6589999
-9.1389999 11.782 2.6199999
-9.1379995 11.782 2.6040001
-9.1560001 11.778 2.5810001
-9.151 11.779 2.566
-9.165 11.776 2.5450001
-9.1549997 11.777 2.5309999
-9.1560001 11.777 2.5139999
-9.1689997 11.774 2.494
-9.1499996 11.778 2.483
-9.151 11.777 2.4660001
-9.1549997 11.776 2.448
-9.1739998 11.772 2.4260001
-9.1549997 11.776 2.415
-9.165 11.774 2.3959999
-9.1459999 11.777 2.385
-9.151 11.776 2.3670001
-9.1709995 11.772 2.3440001
-9.1120005 11.784 2.346
-9.1330004 11.779 2.323
-9.1470003 11.776 2.302
-9.1470003 11.776 2.286
-9.1470003 11.776 2.2690001
-9.1379995 11.777 2.256
-9.1389999 11.777 2.2390001
-9.1339998 11.778 2.224
-9.1400003 11.777 2.2060001
-9.0979996 11.785 2.2019999
-9.0749998 11.79 2.1919999
-9.0699997 11.791 2.177
-9.085 11.787 2.1570001
-9.0950003 11.785 2.1370001
-9.1999998 11.763 2.092
-9.2139997 11.76 2.072
-9.2150002 11.759 2.0550001
-9.2159996 11.759 2.039
-9.198 11.762 2.0280001
-9.0749998 11.788 2.0450001
-9.0640001 11.79 2.0320001
-9.0819998 11.786 2.0109999
-9.073 11.788 1.997
-9.1070004 11.78 1.971
-9.1219997 11.777 1.951
-9.1420002 11.773 1.9299999
-9.1479998 11.771 1.913
-9.1450005 11.772 1.897
-9.1309996 11.774 1.885
-9.132 11.774 1.869
-9.1330004 11.773 1.852
-9.1389999 11.772 1.835
-9.1350002 11.773 1.8200001
-9.1219997 11.775 1.807
-9.1429996 11.77 1.786
-9.1440001 11.77 1.77
-9.132 11.772 1.757
-9.1370001 11.771 1.74
-9.1379995 11.771 1.723
-9.1359997 11.771 1.7079999
-9.1379995 11.77 1.692
-9.1350002 11.771 1.676
-9.1260004 11.772 1.663
-9.1409998 11.769 1.643
-9.1370001 11.77 1.628
-9.1350002 11.77 1.613
-9.1389999 11.769 1.596
-9.1409998 11.768 1.58
-9.1330004 11.77 1.566
-9.1309996 11.77 1.551
-9.1199999 11.772 1.5369999
-9.1339998 11.769 1.518
-9.1359997 11.768 1.502
-9.1280003 11.77 1.488
-9.1309996 11.769 1.472
-9.1370001 11.767 1.455
-9.1339998 11.768 1.4400001
-9.1359997 11.767 1.424
-9.1230001 11.77 1.411
-9.1300001 11.768 1.393
-9.1359997 11.766 1.377
-9.1370001 11.766 1.3609999
-9.1499996 11.763 1.3430001
-9.1470003 11.764 1.3279999
-9.1289997 11.767 1.3150001
-9.1370001 11.766 1.298
-9.1440001 11.764 1.2819999
-9.1470003 11.763 1.265
-9.1339998 11.766 1.252
-9.1269999 11.767 1.238
-9.1339998 11.765 1.221
-9.1169996 11.768 1.2079999
-9.1389999 11.764 1.189
-9.1160002 11.768 1.177
-9.1420002 11.763 1.1569999
-9.1350002 11.764 1.143
-9.1379995 11.763 1.127
-9.1359997 11.763 1.112
-9.1280003 11.765 1.098
-9.1309996 11.764 1.082
-9.1230001 11.765 1.068
-9.1309996 11.764 1.051
-9.1280003 11.764 1.036
-9.1140003 11.766 1.022
-9.1059999 11.768 1.008
-9.125 11.764 0.99000001
-9.1129999 11.766 0.97600001
-9.1239996 11.764 0.95899999
-9.1359997 11.761 0.94199997
-9.1230001 11.763 0.92900002
-9.1269999 11.762 0.91299999
-9.1479998 11.758 0.89399999
-9.1280003 11.762 0.88200003
-9.1239996 11.762 0.86699998
-9.132 11.76 0.85000002
-9.1210003 11.763 0.83600003
-9.1379995 11.759 0.81900001
-9.1409998 11.758 0.80299997
-9.1890001 11.748 0.78200001
-9.2119999 11.743 0.764
-9.2410002 11.737 0.745
-9.2679996 11.731 0.727
-9.2749996 11.729 0.71100003
-9.3100004 11.722 0.69199997
-9.3079996 11.722 0.67699999
-9.3330002 11.716 0.65899998
-9.3509998 11.712 0.64300001
-9.3669996 11.709 0.62599999
-9.3809996 11.706 0.61000001
-9.3999996 11.702 0.59299999
-9.408 11.7 0.57700002
-9.4160004 11.698 0.56199998
-9.4530001 11.69 0.54299998
-9.4499998 11.691 0.52899998
-9.4700003 11.686 0.51200002
-9.4720001 11.686 0.498
-9.4879999 11.682 0.48199999
-9.5050001 11.679 0.465
-9.5349998 11.672 0.44800001
-9.5469999 11.67 0.433
-9.5349998 11.672 0.419
-9.5640001 11.666 0.40200001
-9.5719995 11.664 0.38699999
-9.599 11.658 0.37099999
-9.6070004 11.656 0.35600001
-9.6160002 11.654 0.34099999
-9.6099997 11.655 0.32699999
-9.6090002 11.655 0.31299999
-9.6169996 11.653 0.29800001
-9.6210003 11.652 0.28299999
-9.6309996 11.65 0.26800001
-9.6199999 11.652 0.255
-9.6330004 11.649 0.23999999
-9.6230001 11.651 0.226
-9.6169996 11.652 0.212
-9.6350002 11.648 0.197
-9.6260004 11.65 0.183
-9.6409998 11.647 0.168
-9.6379995 11.647 0.154
-9.6230001 11.65 0.14
-9.6269999 11.649 0.126
-9.6379995 11.646 0.111
-9.6420002 11.645 0.097000003
-9.6400003 11.646 0.082000002
-9.6440001 11.645 0.068000004
-9.6540003 11.642 0.052999999
-9.6199999 11.649 0.039999999
-9.6269999 11.647 0.026000001
-9.6079998 11.651 0.012
-9.1129999 11.753 0.014
-9.4020004 11.748 2.9960001
-9.3940001 11.749 2.9820001
-9.382 11.751 2.97
-9.3839998 11.751 2.9519999
-9.3839998 11.751 2.9349999
-9.3649998 11.754 2.9260001
-9.3509998 11.757 2.915
-9.3500004 11.757 2.898
-9.3559999 11.756 2.8789999
-9.3280001 11.761 2.8729999
-9.342 11.758 2.8510001
-9.3190002 11.763 2.842
-9.3249998 11.761 2.8239999
-9.3240004 11.761 2.8069999
-9.3050003 11.765 2.7969999
-9.2550001 11.776 2.799
-9.2349997 11.78 2.79
-9.2019997 11.787 2.7850001
-9.21 11.784 2.7650001
-9.1960001 11.787 2.753
-9.191 11.788 2.7379999
-9.1859999 11.789 2.723
-9.1990004 11.786 2.701
-9.1990004 11.786 2.6849999
-9.1750002 11.791 2.6760001
-9.1929998 11.787 2.6530001
-9.184 11.788 2.6400001
-9.0909996 11.808 2.654
-9.1090002 11.804 2.632
-9.1599998 11.793 2.5969999
-9.1590004 11.793 2.5810001
-9.1680002 11.791 2.5610001
-9.1540003 11.793 2.549
-9.158 11.792 2.5309999
-9.158 11.792 2.5150001
-9.158 11.792 2.4979999
-9.1440001 11.795 2.4860001
-9.1630001 11.79 2.4630001
-9.1630001 11.79 2.447
-9.1529999 11.792 2.4330001
-9.1669998 11.789 2.4119999
-9.158 11.791 2.3989999
-9.1549997 11.791 2.3829999
-9.1490002 11.792 2.368
-9.132 11.796 2.3570001
-9.1540003 11.791 2.3340001
-9.1359997 11.795 2.323
-9.1309996 11.795 2.3080001
-9.132 11.795 2.2909999
-9.1459999 11.792 2.2709999
-9.132 11.794 2.2579999
-9.1420002 11.792 2.2390001
-9.1470003 11.791 2.221
-9.1330004 11.794 2.2090001
-9.1289997 11.794 2.194
-9.1009998 11.8 2.1849999
-9.1020002 11.8 2.1689999
-9.1269999 11.794 2.145
-9.1079998 11.798 2.135
-9.1120005 11.797 2.1170001
-9.1940002 11.779 2.0780001
-9.2049999 11.777 2.059
-9.2089996 11.775 2.0409999
-9.2049999 11.776 2.026
-9.1450005 11.789 2.027
-9.1029997 11.797 2.0220001
-9.1090002 11.796 2.0039999
-9.1140003 11.795 1.9859999
-9.0959997 11.798 1.975
-9.1059999 11.796 1.956
-9.1309996 11.79 1.934
-9.1269999 11.791 1.919
-9.1330004 11.79 1.901
-9.1389999 11.788 1.883
-9.1300001 11.79 1.87
-9.1269999 11.79 1.854
-9.1370001 11.788 1.836
-9.1339998 11.788 1.821
-9.1300001 11.789 1.806
-9.1269999 11.789 1.79
-9.1330004 11.788 1.773
-9.1429996 11.785 1.7539999
-9.1300001 11.788 1.742
-9.1420002 11.785 1.723
-9.1350002 11.787 1.709
-9.1400003 11.785 1.692
-9.1450005 11.784 1.675
-9.1420002 11.784 1.659
-9.1350002 11.786 1.645
-9.132 11.786 1.63
-9.1210003 11.788 1.617
-9.1300001 11.786 1.599
-9.1230001 11.787 1.584
-9.1370001 11.784 1.566
-9.1379995 11.784 1.55
-9.1389999 11.783 1.534
-9.1330004 11.784 1.5190001
-9.1219997 11.787 1.506
-9.1370001 11.783 1.487
-9.1300001 11.784 1.473
-9.1350002 11.783 1.456
-9.1219997 11.786 1.443
-9.1239996 11.785 1.427
-9.1350002 11.783 1.409
-9.132 11.783 1.393
-9.1300001 11.784 1.378
-9.1269999 11.784 1.363
-9.1280003 11.784 1.347
-9.1300001 11.783 1.331
-9.132 11.782 1.3150001
-9.1459999 11.779 1.2970001
-9.1239996 11.784 1.286
-9.1440001 11.779 1.266
-9.1330004 11.781 1.253
-9.1409998 11.779 1.2359999
-9.132 11.781 1.222
-9.1190004 11.783 1.2079999
-9.1359997 11.78 1.1900001
-9.1330004 11.78 1.175
-9.1210003 11.782 1.161
-9.1239996 11.782 1.145
-9.1359997 11.779 1.128
-9.1330004 11.779 1.113
-9.1260004 11.781 1.098
-9.1309996 11.779 1.082
-9.1280003 11.78 1.067
-9.1289997 11.779 1.052
-9.1409998 11.777 1.034
-9.1389999 11.777 1.0190001
-9.132 11.778 1.005
-9.1350002 11.777 0.98900002
-9.1210003 11.78 0.97500002
-9.132 11.777 0.958
-9.1350002 11.777 0.94300002
-9.1269999 11.778 0.92799997
-9.1300001 11.777 0.912
-9.1169996 11.78 0.89899999
-9.1210003 11.779 0.88300002
-9.1269999 11.777 0.86699998
-9.1260004 11.777 0.85100001
-9.1090002 11.781 0.838
-9.1309996 11.776 0.81999999
-9.1260004 11.777 0.80500001
-9.118 11.778 0.79100001
-9.1309996 11.775 0.77399999
-9.1719999 11.766 0.75400001
-9.2089996 11.758 0.73400003
-9.2489996 11.75 0.71399999
-9.2629995 11.747 0.69800001
-9.3050003 11.738 0.67799997
-9.3219995 11.734 0.66100001
-9.3450003 11.729 0.64300001
-9.3579998 11.726 0.62699997
-9.3850002 11.72 0.60900003
-9.3839998 11.72 0.59500003
-9.4099998 11.714 0.57700002
-9.4160004 11.713 0.56199998
-9.4379997 11.708 0.54500002
-9.4549999 11.704 0.52899998
-9.4700003 11.701 0.51300001
-9.4750004 11.7 0.49700001
-9.5059996 11.693 0.47999999
-9.4940004 11.695 0.46599999
-9.5279999 11.688 0.449
-9.5279999 11.688 0.43399999
-9.5480003 11.684 0.41800001
-9.5740004 11.678 0.40200001
-9.5760002 11.677 0.38699999
-9.5930004 11.673 0.37099999
-9.6020002 11.671 0.35600001
-9.6309996 11.665 0.34
-9.6169996 11.668 0.32600001
-9.6479998 11.661 0.31
-9.6479998 11.661 0.296
-9.6599998 11.659 0.28099999
-9.6520004 11.66 0.26699999
-9.6610003 11.658 0.252
-9.6599998 11.658 0.23800001
-9.6599998 11.658 0.22400001
-9.665 11.657 0.20900001
-9.6719999 11.655 0.19499999
-9.6719999 11.655 0.18000001
-9.6730003 11.654 0.16599999
-9.6599998 11.657 0.153
-9.6689997 11.655 0.138
-9.6639996 11.656 0.124
-9.6689997 11.654 0.11
-9.6689997 11.654 0.094999999
-9.6669998 11.655 0.081
-9.6759996 11.652 0.067000002
-9.6789999 11.652 0.052000001
-9.6800003 11.651 0.037999999
-9.6750002 11.652 0.024
-9.6590004 11.655 0.011
-9.4139996 11.76 2.9920001
-9.3879995 11.765 2.9849999
-9.3800001 11.767 2.971
-9.3900003 11.765 2.951
-9.3879995 11.765 2.9349999
-9.3710003 11.768 2.925
-9.3620005 11.77 2.911
-9.3620005 11.77 2.8940001
-9.3540001 11.771 2.881
-9.3439999 11.773 2.868
-9.3339996 11.775 2.855
-9.2690001 11.789 2.862
-9.2410002 11.795 2.8559999
-9.1990004 11.804 2.855
-9.1929998 11.805 2.8399999
-9.1879997 11.806 2.8239999
-9.2010002 11.803 2.803
-9.1999998 11.803 2.786
-9.2139997 11.8 2.7639999
-9.1949997 11.803 2.7539999
-9.1940002 11.803 2.7379999
-9.2030001 11.801 2.7179999
-9.1929998 11.803 2.704
-9.1969995 11.802 2.6860001
-9.2010002 11.801 2.668
-9.1920004 11.803 2.655
-9.1960001 11.802 2.6359999
-9.1079998 11.82 2.6489999
-9.158 11.809 2.6159999
-9.158 11.809 2.599
-9.1529999 11.81 2.5840001
-9.1619997 11.808 2.5639999
-9.1529999 11.81 2.5510001
-9.1499996 11.81 2.5350001
-9.1590004 11.808 2.5150001
-9.1619997 11.807 2.497
-9.1800003 11.803 2.4749999
-9.1660004 11.806 2.4630001
-9.1569996 11.807 2.45
-9.1619997 11.806 2.431
-9.1759996 11.803 2.4100001
-9.1660004 11.805 2.3970001
-9.1169996 11.815 2.3959999
-9.1260004 11.813 2.3759999
-9.1379995 11.81 2.3559999
-9.1339998 11.811 2.3410001
-9.1389999 11.809 2.323
-9.1339998 11.81 2.3080001
-9.1440001 11.808 2.2880001
-9.1440001 11.808 2.2720001
-9.1210003 11.812 2.2620001
-9.1490002 11.806 2.2379999
-9.1129999 11.814 2.2320001
-9.1149998 11.813 2.2149999
-9.1330004 11.809 2.1930001
-9.1280003 11.81 2.178
-9.1280003 11.81 2.1619999
-9.1199999 11.811 2.148
-9.1190004 11.811 2.132
-9.1210003 11.81 2.115
-9.1260004 11.809 2.0969999
-9.1789999 11.798 2.0669999
-9.2030001 11.792 2.0439999
-9.2130003 11.79 2.0250001
-9.1680002 11.799 2.0209999
-9.1160002 11.81 2.0190001
-9.1120005 11.811 2.0039999
-9.1120005 11.81 1.988
-9.1090002 11.811 1.972
-9.1049995 11.812 1.957
-9.1169996 11.809 1.938
-9.1210003 11.808 1.921
-9.1219997 11.807 1.904
-9.118 11.808 1.8890001
-9.1239996 11.806 1.872
-9.1199999 11.807 1.857
-9.1210003 11.807 1.84
-9.1350002 11.804 1.821
-9.1140003 11.808 1.8099999
-9.1389999 11.802 1.788
-9.1359997 11.803 1.773
-9.1230001 11.806 1.76
-9.1330004 11.803 1.7410001
-9.1359997 11.802 1.725
-9.1359997 11.802 1.709
-9.1230001 11.805 1.696
-9.1160002 11.806 1.682
-9.1280003 11.803 1.663
-9.1429996 11.8 1.6440001
-9.1260004 11.803 1.632
-9.1350002 11.801 1.614
-9.1379995 11.8 1.598
-9.1309996 11.802 1.5829999
-9.1219997 11.803 1.569
-9.132 11.801 1.551
-9.1190004 11.803 1.538
-9.1210003 11.803 1.522
-9.118 11.803 1.507
-9.1239996 11.802 1.49
-9.1350002 11.799 1.472
-9.1370001 11.799 1.456
-9.1389999 11.798 1.4400001
-9.1260004 11.8 1.427
-9.1379995 11.798 1.408
-9.1149998 11.802 1.397
-9.1129999 11.803 1.382
-9.1289997 11.799 1.363
-9.1309996 11.798 1.347
-9.1230001 11.8 1.3329999
-9.1210003 11.8 1.318
-9.1129999 11.802 1.304
-9.1199999 11.8 1.2869999
-9.118 11.8 1.271
-9.1190004 11.8 1.255
-9.1420002 11.795 1.2359999
-9.1140003 11.8 1.225
-9.1420002 11.794 1.205
-9.1300001 11.796 1.191
-9.1219997 11.798 1.177
-9.1239996 11.797 1.161
-9.1269999 11.797 1.145
-9.1239996 11.797 1.13
-9.1269999 11.796 1.114
-9.1289997 11.795 1.098
-9.1169996 11.798 1.085
-9.1350002 11.794 1.066
-9.1269999 11.795 1.052
-9.1169996 11.797 1.038
-9.1230001 11.796 1.022
-9.125 11.795 1.006
-9.1230001 11.795 0.991
-9.1059999 11.799 0.97799999
-9.1230001 11.795 0.95999998
-9.1309996 11.793 0.94300002
-9.1140003 11.796 0.93000001
-9.118 11.795 0.91399997
-9.1149998 11.796 0.89899999
-9.118 11.795 0.88300002
-9.1059999 11.797 0.87
-9.1140003 11.795 0.85299999
-9.1269999 11.792 0.83600003
-9.1120005 11.795 0.82300001
-9.1129999 11.795 0.80699998
-9.1110001 11.795 0.792
-9.1239996 11.792 0.77499998
-9.1169996 11.794 0.75999999
-9.125 11.792 0.74400002
-9.1289997 11.791 0.72799999
-9.1709995 11.782 0.708
-9.2309999 11.769 0.68599999
-9.2950001 11.755 0.66399997
-9.3280001 11.748 0.64499998
-9.3470001 11.744 0.62800002
-9.3450003 11.744 0.61400002
-9.3900003 11.734 0.59399998
-9.3990002 11.732 0.579
-9.4060001 11.73 0.56300002
-9.4469995 11.722 0.54400003
-9.4490004 11.721 0.52899998
-9.4750004 11.715 0.51200002
-9.4759998 11.715 0.49700001
-9.4980001 11.71 0.48100001
-9.5030003 11.709 0.46599999
-9.5080004 11.708 0.45100001
-9.5480003 11.699 0.433
-9.5550003 11.697 0.41800001
-9.5579996 11.696 0.403
-9.5609999 11.695 0.38800001
-9.5769997 11.692 0.373
-9.6049995 11.686 0.35600001
-9.6120005 11.684 0.34099999
-9.6239996 11.681 0.32600001
-9.6359997 11.679 0.31099999
-9.6560001 11.674 0.29499999
-9.6789999 11.669 0.27900001
-9.684 11.668 0.26499999
-9.691 11.666 0.25
-9.7010002 11.664 0.235
-9.6929998 11.666 0.222
-9.691 11.666 0.208
-9.7010002 11.663 0.193
-9.7089996 11.662 0.178
-9.7130003 11.66 0.164
-9.7019997 11.663 0.15000001
-9.7119999 11.66 0.13600001
-9.7110004 11.66 0.122
-9.7209997 11.658 0.107
-9.7189999 11.658 0.093000002
-9.7250004 11.657 0.079000004
-9.724 11.657 0.064999998
-9.7180004 11.658 0.050999999
-9.7229996 11.657 0.037
-9.7159996 11.658 0.023
-9.7259998 11.656 0.0080000004
-9.4040003 11.778 2.997
-9.4069996 11.777 2.9790001
-9.401 11.778 2.964
-9.3979998 11.778 2.9489999
-9.3830004 11.781 2.938
-9.3690004 11.784 2.9260001
-9.3129997 11.796 2.931
-9.2889996 11.801 2.9230001
-9.2110004 11.818 2.9360001
-9.2419996 11.811 2.9070001
-9.2049999 11.818 2.904
-9.1899996 11.821 2.8929999
-9.1899996 11.821 2.8759999
-9.184 11.822 2.8610001
-9.1870003 11.821 2.8429999
-9.1960001 11.819 2.823
-9.1999998 11.818 2.8039999
-9.2089996 11.816 2.7839999
-9.2069998 11.816 2.7679999
-9.1929998 11.819 2.756
-9.1969995 11.818 2.7379999
-9.1920004 11.819 2.723
-9.1870003 11.82 2.707
-9.1929998 11.818 2.6889999
-9.1949997 11.818 2.671
-9.1669998 11.823 2.664
-9.1669998 11.823 2.6470001
-9.1619997 11.824 2.632
-9.1529999 11.826 2.618
-9.1610003 11.824 2.599
-9.1610003 11.824 2.582
-9.1470003 11.826 2.5699999
-9.1470003 11.826 2.553
-9.1599998 11.823 2.5320001
-9.151 11.825 2.5190001
-9.1739998 11.82 2.4949999
-9.1599998 11.823 2.483
-9.1549997 11.823 2.467
-9.1780005 11.818 2.4430001
-9.1739998 11.819 2.428
-9.1569996 11.822 2.4170001
-9.151 11.823 2.402
-9.1269999 11.829 2.3929999
-9.132 11.827 2.375
-9.1370001 11.826 2.3570001
-9.132 11.827 2.342
-9.1190004 11.83 2.3299999
-9.1280003 11.827 2.3099999
-9.1330004 11.826 2.2920001
-9.1289997 11.827 2.277
-9.1289997 11.826 2.2609999
-9.1339998 11.825 2.243
-9.1300001 11.826 2.2279999
-9.1300001 11.826 2.211
-9.1260004 11.826 2.1960001
-9.1269999 11.826 2.1789999
-9.1090002 11.829 2.168
-9.1269999 11.825 2.1470001
-9.1190004 11.827 2.1329999
-9.1269999 11.825 2.1140001
-9.1230001 11.826 2.099
-9.1269999 11.824 2.082
-9.1260004 11.825 2.066
-9.1169996 11.826 2.052
-9.1420002 11.821 2.029
-9.1190004 11.825 2.0190001
-9.1339998 11.822 1.999
-9.125 11.824 1.985
-9.1260004 11.823 1.9680001
-9.1079998 11.827 1.957
-9.118 11.824 1.938
-9.1239996 11.823 1.921
-9.1199999 11.824 1.905
-9.1309996 11.821 1.887
-9.118 11.824 1.874
-9.1379995 11.819 1.853
-9.1389999 11.819 1.837
-9.1350002 11.819 1.821
-9.1370001 11.819 1.8049999
-9.1140003 11.823 1.795
-9.125 11.821 1.776
-9.1400003 11.817 1.756
-9.1269999 11.82 1.744
-9.1190004 11.822 1.729
-9.125 11.82 1.712
-9.1219997 11.821 1.697
-9.1280003 11.819 1.6799999
-9.1160002 11.821 1.666
-9.1210003 11.82 1.649
-9.1330004 11.817 1.631
-9.1199999 11.82 1.618
-9.1260004 11.818 1.601
-9.1219997 11.819 1.586
-9.1239996 11.819 1.569
-9.1260004 11.818 1.553
-9.1129999 11.821 1.54
-9.1190004 11.819 1.523
-9.1210003 11.818 1.507
-9.1230001 11.818 1.4910001
-9.1239996 11.817 1.475
