ply
format ascii 1.0
comment PCL generated
element vertex 1853
property float x
property float y
property float z
element camera 0
property float view_px
property float view_py
property float view_pz
property float x_axisx
property float x_axisy
property float x_axisz
property float y_axisx
property float y_axisy
property float y_axisz
property float z_axisx
property float z_axisy
property float z_axisz
property float focal
property float scalex
property float scaley
property float centerx
property float centery
property int viewportx
property int viewporty
property float k1
property float k2
end_header
-3.099 3.1919999 0.66299999
-3.096 3.1830001 0.64300001
-3.099 3.1930001 0.62300003
-3.095 3.1789999 0.602
-3.098 3.1889999 0.583
-3.0999999 3.1919999 0.56300002
-3.138 3.2909999 2.9979999
-3.135 3.2820001 2.9749999
-3.151 3.3269999 2.964
-3.1459999 3.312 2.9400001
-3.152 3.3310001 2.9230001
-3.155 3.3380001 2.9030001
-3.1530001 3.3299999 2.8800001
-3.152 3.329 2.858
-3.151 3.325 2.836
-3.152 3.3269999 2.816
-3.1570001 3.342 2.7980001
-3.154 3.3340001 2.7750001
-3.1500001 3.3210001 2.7509999
-3.151 3.323 2.73
-3.3469999 3.8759999 2.8310001
-3.1340001 3.253 1.7410001
-3.1359999 3.26 1.721
-3.1300001 3.2409999 1.698
-3.132 3.247 1.679
-3.1340001 3.2520001 1.659
-3.1359999 3.257 1.6390001
-3.135 3.253 1.618
-3.1329999 3.2479999 1.597
-3.128 3.234 1.575
-3.1359999 3.256 1.557
-3.1340001 3.2479999 1.536
-3.1359999 3.2550001 1.516
-3.1289999 3.2349999 1.494
-3.132 3.2420001 1.474
-3.1289999 3.234 1.4529999
-3.128 3.2309999 1.432
-3.1270001 3.227 1.4119999
-3.1300001 3.2349999 1.392
-3.1329999 3.2449999 1.373
-3.132 3.24 1.352
-3.131 3.2360001 1.331
-3.131 3.2360001 1.311
-3.1329999 3.2409999 1.291
-3.131 3.2349999 1.27
-3.1300001 3.233 1.25
-3.128 3.2279999 1.229
-3.1270001 3.223 1.209
-3.135 3.2460001 1.1900001
-3.1340001 3.2420001 1.17
-3.1270001 3.221 1.148
-3.1259999 3.217 1.127
-3.1300001 3.2279999 1.108
-3.1389999 3.2539999 1.09
-3.1300001 3.2279999 1.068
-3.1300001 3.227 1.0470001
-3.131 3.2309999 1.027
-3.131 3.2279999 1.007
-3.1229999 3.207 0.986
-3.131 3.2279999 0.96700001
-3.131 3.2279999 0.94700003
-3.151 3.2850001 0.93000001
-3.135 3.2390001 0.90700001
-3.131 3.2279999 0.88599998
-3.1300001 3.224 0.866
-3.1340001 3.2360001 0.84600002
-3.128 3.217 0.82499999
-3.1329999 3.2320001 0.80599999
-3.1359999 3.2379999 0.78600001
-3.115 3.1800001 0.76300001
-3.119 3.1919999 0.74400002
-3.1170001 3.1830001 0.72299999
-3.1170001 3.184 0.70300001
-3.1159999 3.1800001 0.68300003
-3.119 3.1900001 0.66299999
-3.1210001 3.1949999 0.64300001
-3.115 3.177 0.62300003
-3.118 3.184 0.60299999
-3.118 3.1830001 0.583
-3.414 4.0029998 2.973
-3.408 3.9849999 2.947
-3.395 3.9489999 2.9159999
-3.3840001 3.9170001 2.8870001
-3.115 3.1270001 1.1210001
-3.1849999 3.3199999 0.97299999
-3.1860001 3.322 0.95300001
-3.1689999 3.273 0.93000001
-3.1559999 3.237 0.90700001
-3.1459999 3.2079999 0.88599998
-3.1370001 3.184 0.86400002
-3.1359999 3.181 0.84399998
-3.1359999 3.1800001 0.824
-3.1389999 3.187 0.80400002
-3.141 3.1930001 0.78399998
-3.1359999 3.1800001 0.764
-3.1400001 3.1900001 0.74400002
-3.1340001 3.1719999 0.72299999
-3.141 3.191 0.704
-3.138 3.1819999 0.68300003
-3.1359999 3.178 0.66299999
-3.1370001 3.1789999 0.64300001
-3.1470001 3.207 0.62400001
-3.1400001 3.187 0.60299999
-3.132 3.164 0.583
-3.135 3.171 0.56300002
-3.1340001 3.168 0.54299998
-3.2219999 3.4059999 2.9879999
-3.438 4.0050001 2.9760001
-3.4300001 3.9849999 2.9489999
-3.421 3.9590001 2.9200001
-3.1370001 3.1289999 1.142
-3.467 4.0479999 1.1720001
-3.2090001 3.326 0.99400002
-3.2030001 3.3110001 0.97299999
-3.191 3.276 0.95099998
-3.174 3.2290001 0.92799997
-3.1600001 3.1889999 0.90499997
-3.1619999 3.1949999 0.88499999
-3.1600001 3.187 0.86500001
-3.1570001 3.1789999 0.84399998
-3.161 3.1889999 0.82499999
-3.1630001 3.1949999 0.80500001
-3.165 3.2 0.78500003
-3.1589999 3.1819999 0.764
-3.1619999 3.1919999 0.74400002
-3.161 3.188 0.72399998
-3.161 3.1889999 0.704
-3.155 3.171 0.68300003
-3.164 3.1949999 0.66399997
-3.1619999 3.191 0.64399999
-3.2409999 3.398 2.987
-3.2409999 3.3989999 2.9660001
-3.4619999 4.0110002 2.9790001
-3.4530001 3.9849999 2.951
-3.155 3.122 1.142
-3.4679999 3.9890001 1.1900001
-3.223 3.3080001 1.0140001
-3.2219999 3.3039999 0.99400002
-3.211 3.2720001 0.97100002
-3.1919999 3.221 0.94800001
-3.1860001 3.2019999 0.92699999
-3.1800001 3.184 0.90499997
-3.178 3.1800001 0.88499999
-3.1789999 3.181 0.86500001
-3.181 3.1860001 0.84500003
-3.1849999 3.197 0.82599998
-3.175 3.1689999 0.80400002
-3.175 3.1700001 0.78399998
-3.177 3.175 0.764
-3.174 3.1670001 0.74400002
-3.1819999 3.1860001 0.72500002
-3.1789999 3.178 0.704
-3.181 3.1830001 0.68400002
-3.188 3.2019999 0.66500002
-3.23 3.316 0.486
-3.234 3.326 0.46599999
-3.227 3.306 0.44499999
-3.224 3.2980001 0.42500001
-3.2409999 3.345 0.405
-3.23 3.313 0.384
-3.2249999 3.299 0.36399999
-3.23 3.313 0.324
-3.227 3.3039999 0.303
-3.233 3.319 0.28299999
-3.23 3.3099999 0.26300001
-3.223 3.2909999 0.242
-3.2260001 3.2980001 0.182
-3.2219999 3.2869999 0.161
-3.224 3.2920001 0.141
-3.224 3.293 0.121
-3.224 3.2920001 0.101
-3.224 3.2909999 0.079999998
-3.221 3.283 0.059999999
-3.221 3.2820001 0.039999999
-3.224 3.2909999 0.018999999
-3.237 3.329 2.994
-3.243 3.345 2.9760001
-3.2539999 3.375 2.9619999
-3.2609999 3.3929999 2.9449999
-3.2609999 3.3940001 2.924
-3.257 3.3829999 2.9000001
-3.2460001 3.329 1.8380001
-3.2550001 3.352 1.8200001
-3.2509999 3.3399999 1.798
-3.2520001 3.342 1.778
-3.253 3.345 1.757
-3.2509999 3.339 1.7359999
-3.244 3.322 1.7130001
-3.25 3.3369999 1.694
-3.2460001 3.326 1.6720001
-3.2539999 3.346 1.654
-3.25 3.3340001 1.632
-3.2509999 3.336 1.612
-3.2479999 3.329 1.59
-3.2490001 3.332 1.5700001
-3.247 3.325 1.548
-3.2490001 3.332 1.529
-3.2490001 3.329 1.508
-3.2479999 3.326 1.487
-3.2449999 3.319 1.466
-3.253 3.3399999 1.447
-3.247 3.323 1.425
-3.2460001 3.3199999 1.404
-3.256 3.3469999 1.386
-3.2490001 3.3269999 1.364
-3.247 3.322 1.3430001
-3.247 3.3210001 1.322
-3.2490001 3.3239999 1.302
-3.25 3.3269999 1.2819999
-3.2550001 3.3410001 1.263
-3.257 3.348 1.243
-3.2550001 3.3410001 1.222
-3.2550001 3.3399999 1.201
-3.198 3.184 1.168
-3.253 3.3340001 1.16
-3.2479999 3.319 1.138
-3.25 3.325 1.118
-3.2490001 3.3210001 1.097
-3.2539999 3.335 1.0779999
-3.2490001 3.3210001 1.057
-3.2520001 3.3299999 1.0369999
-3.24 3.296 1.0140001
-3.2279999 3.2620001 0.99199998
-3.2179999 3.233 0.96899998
-3.2019999 3.1900001 0.94700003
-3.201 3.1849999 0.926
-3.2030001 3.191 0.90600002
-3.2019999 3.187 0.88599998
-3.2019999 3.188 0.866
-3.2030001 3.1889999 0.84600002
-3.2 3.1800001 0.82499999
-3.2019999 3.1860001 0.80500001
-3.201 3.1819999 0.78500003
-3.2030001 3.187 0.76499999
-3.2019999 3.1830001 0.745
-3.201 3.181 0.72500002
-3.201 3.1800001 0.70499998
-3.2190001 3.2290001 0.68599999
-3.2520001 3.3199999 0.66900003
-3.253 3.3239999 0.64899999
-3.253 3.322 0.62900001
-3.2539999 3.3239999 0.60799998
-3.256 3.329 0.588
-3.253 3.3199999 0.56800002
-3.2520001 3.3169999 0.54699999
-3.2520001 3.3180001 0.52700001
-3.253 3.3199999 0.50700003
-3.2520001 3.316 0.486
-3.25 3.312 0.46599999
-3.2509999 3.3139999 0.44600001
-3.2550001 3.323 0.42500001
-3.2490001 3.3069999 0.405
-3.2509999 3.312 0.38499999
-3.2509999 3.312 0.36399999
-3.2460001 3.2980001 0.34400001
-3.2590001 3.3310001 0.324
-3.2449999 3.2939999 0.303
-3.244 3.2920001 0.28299999
-3.2460001 3.2950001 0.26300001
-3.2479999 3.302 0.242
-3.2479999 3.3 0.222
-3.2449999 3.2920001 0.20200001
-3.2479999 3.299 0.182
-3.2460001 3.293 0.161
-3.2460001 3.293 0.141
-3.24 3.276 0.121
-3.24 3.276 0.101
-3.244 3.2869999 0.079999998
-3.2490001 3.3010001 0.059999999
-3.2420001 3.2820001 0.039999999
-3.2409999 3.276 0.02
-3.2449999 3.29 2.9860001
-3.2520001 3.3080001 2.9690001
-3.2620001 3.335 2.954
-3.267 3.349 2.9360001
-3.2720001 3.3610001 2.918
-3.2739999 3.3670001 2.898
-3.273 3.365 2.8759999
-3.2720001 3.3610001 2.8540001
-3.2690001 3.3329999 1.86
-3.27 3.3329999 1.839
-3.2690001 3.332 1.819
-3.2709999 3.336 1.799
-3.27 3.3329999 1.777
-3.2679999 3.3269999 1.756
-3.27 3.332 1.7359999
-3.2709999 3.3329999 1.715
-3.266 3.319 1.693
-3.2709999 3.3329999 1.674
-3.266 3.319 1.652
-3.2679999 3.323 1.632
-3.2650001 3.3139999 1.61
-3.2679999 3.323 1.59
-3.2690001 3.325 1.5700001
-3.266 3.316 1.548
-3.2639999 3.3099999 1.527
-3.266 3.3150001 1.507
-3.267 3.319 1.487
-3.2650001 3.312 1.466
-3.267 3.3180001 1.446
-3.2679999 3.3199999 1.426
-3.267 3.3169999 1.405
-3.2650001 3.3110001 1.3839999
-3.2690001 3.3210001 1.364
-3.2650001 3.309 1.3430001
-3.2739999 3.3329999 1.324
-3.2690001 3.3210001 1.303
-3.2620001 3.3 1.28
-3.263 3.302 1.26
-3.2639999 3.306 1.24
-3.2690001 3.3169999 1.22
-3.263 3.302 1.199
-3.2160001 3.1730001 1.168
-3.266 3.309 1.159
-3.2620001 3.2969999 1.137
-3.266 3.3069999 1.118
-3.2620001 3.2969999 1.096
-3.2650001 3.3050001 1.077
-3.26 3.29 1.0549999
-3.2639999 3.3 1.035
-3.2449999 3.2479999 1.012
-3.233 3.2149999 0.98900002
-3.223 3.187 0.96700001
-3.223 3.1860001 0.94700003
-3.223 3.188 0.92699999
-3.224 3.1889999 0.90700001
-3.224 3.1889999 0.88700002
-3.223 3.1860001 0.866
-3.224 3.187 0.84600002
-3.221 3.1800001 0.82599998
-3.224 3.188 0.80599999
-3.221 3.1800001 0.78600001
-3.2219999 3.181 0.76499999
-3.2249999 3.187 0.74599999
-3.2249999 3.187 0.72600001
-3.2490001 3.2520001 0.708
-3.2609999 3.2839999 0.68900001
-3.2590001 3.279 0.66799998
-3.2590001 3.277 0.648
-3.26 3.28 0.62800002
-3.2579999 3.2739999 0.60699999
-3.256 3.267 0.58700001
-3.2590001 3.277 0.56699997
-3.2579999 3.273 0.54699999
-3.2609999 3.28 0.52600002
-3.2579999 3.273 0.50599998
-3.2609999 3.2809999 0.486
-3.26 3.276 0.46599999
-3.257 3.27 0.44499999
-3.257 3.267 0.42500001
-3.263 3.2839999 0.405
-3.26 3.277 0.38499999
-3.257 3.2679999 0.36399999
-3.257 3.2679999 0.34400001
-3.253 3.256 0.324
-3.256 3.263 0.303
-3.256 3.2639999 0.28299999
-3.2550001 3.26 0.26300001
-3.257 3.2650001 0.243
-3.253 3.2539999 0.223
-3.2509999 3.2479999 0.20200001
-3.25 3.2449999 0.182
-3.2449999 3.23 0.162
-3.247 3.2360001 0.142
-3.25 3.243 0.122
-3.243 3.224 0.102
-3.2520001 3.247 0.081
-3.25 3.2420001 0.061000001
-3.25 3.2420001 0.041000001
-3.2490001 3.2379999 0.021
-3.2609999 3.2739999 2.984
-3.2690001 3.2969999 2.9679999
-3.2690001 3.296 2.947
-3.2850001 3.3380001 2.9360001
-3.2820001 3.3299999 2.9119999
-3.279 3.323 2.8889999
-3.2850001 3.3369999 2.8710001
-3.2720001 3.28 1.874
-3.276 3.2920001 1.8559999
-3.28 3.3 1.836
-3.2750001 3.286 1.813
-3.276 3.289 1.793
-3.2690001 3.2709999 1.77
-3.2739999 3.2820001 1.751
-3.273 3.28 1.73
-3.277 3.2920001 1.711
-3.2739999 3.2839999 1.6900001
-3.2720001 3.276 1.668
-3.2750001 3.2839999 1.648
-3.277 3.2880001 1.628
-3.2750001 3.2839999 1.607
-3.2720001 3.2750001 1.586
-3.2750001 3.2839999 1.566
-3.276 3.2839999 1.546
-3.276 3.286 1.525
-3.2750001 3.28 1.5039999
-3.273 3.276 1.483
-3.2679999 3.2609999 1.461
-3.2720001 3.273 1.442
-3.2739999 3.2780001 1.4220001
-3.2739999 3.276 1.401
-3.2750001 3.28 1.382
-3.273 3.273 1.36
-3.2709999 3.2679999 1.339
-3.2709999 3.267 1.319
-3.27 3.2639999 1.298
-3.2709999 3.2650001 1.278
-3.2679999 3.257 1.257
-3.2739999 3.273 1.238
-3.2750001 3.2739999 1.2180001
-3.244 3.1919999 1.1900001
-3.27 3.2609999 1.176
-3.267 3.2539999 1.155
-3.267 3.2509999 1.1339999
-3.2739999 3.27 1.115
-3.2620001 3.2390001 1.0930001
-3.2739999 3.27 1.075
-3.2679999 3.253 1.053
-3.2620001 3.237 1.0319999
-3.25 3.204 1.0089999
-3.247 3.1949999 0.98799998
-3.244 3.187 0.96799999
-3.243 3.184 0.94700003
-3.247 3.194 0.92799997
-3.244 3.1860001 0.90700001
-3.2460001 3.191 0.88700002
-3.2420001 3.1800001 0.86699998
-3.247 3.1930001 0.847
-3.2490001 3.198 0.82700002
-3.24 3.1719999 0.80599999
-3.2460001 3.188 0.78600001
-3.2460001 3.188 0.76599997
-3.2520001 3.2030001 0.74699998
-3.2709999 3.2550001 0.72899997
-3.2739999 3.2609999 0.70899999
-3.267 3.2420001 0.68800002
-3.2679999 3.243 0.66799998
-3.266 3.2379999 0.64700001
-3.2690001 3.2449999 0.62699997
-3.2650001 3.234 0.60699999
-3.2650001 3.233 0.58600003
-3.2690001 3.2449999 0.56599998
-3.266 3.237 0.546
-3.2609999 3.223 0.52600002
-3.2639999 3.2290001 0.50599998
-3.2620001 3.2249999 0.48500001
-3.263 3.227 0.465
-3.26 3.2179999 0.44499999
-3.2590001 3.214 0.42500001
-3.2620001 3.223 0.40400001
-3.2620001 3.221 0.384
-3.2620001 3.221 0.36399999
-3.26 3.2149999 0.34400001
-3.2579999 3.21 0.324
-3.2609999 3.2190001 0.30399999
-3.26 3.214 0.28299999
-3.256 3.2049999 0.26300001
-3.2620001 3.2190001 0.243
-3.2579999 3.2090001 0.223
-3.2550001 3.1989999 0.20299999
-3.2579999 3.207 0.183
-3.2579999 3.2079999 0.163
-3.256 3.2030001 0.142
-3.2550001 3.1989999 0.122
-3.2539999 3.1949999 0.102
-3.2550001 3.1989999 0.082000002
-3.253 3.1919999 0.061999999
-3.257 3.2019999 0.041999999
-3.2520001 3.188 0.022
-3.293 3.3039999 2.993
-3.2909999 3.2969999 2.97
-3.289 3.2909999 2.947
-3.289 3.29 2.9260001
-3.2909999 3.2950001 2.9059999
-3.2880001 3.2880001 2.8829999
-3.283 3.2550001 1.913
-3.283 3.253 1.892
-3.2850001 3.2579999 1.872
-3.279 3.243 1.85
-3.276 3.2320001 1.8279999
-3.277 3.2360001 1.807
-3.283 3.253 1.789
-3.28 3.244 1.768
-3.2809999 3.2460001 1.747
-3.2780001 3.237 1.726
-3.2809999 3.2460001 1.706
-3.279 3.2390001 1.6849999
-3.28 3.2409999 1.665
-3.283 3.2479999 1.645
-3.2809999 3.24 1.624
-3.2809999 3.2409999 1.603
-3.279 3.2349999 1.582
-3.28 3.237 1.562
-3.277 3.23 1.541
-3.2820001 3.2409999 1.521
-3.279 3.234 1.5
-3.2780001 3.2290001 1.479
-3.283 3.243 1.46
-3.28 3.2349999 1.439
-3.277 3.2279999 1.418
-3.2780001 3.2290001 1.398
-3.2839999 3.2449999 1.3789999
-3.283 3.2420001 1.358
-3.276 3.2219999 1.336
-3.283 3.2409999 1.317
-3.28 3.2309999 1.296
-3.2809999 3.2349999 1.276
-3.277 3.224 1.255
-3.277 3.224 1.234
-3.28 3.23 1.215
-3.2579999 3.171 1.189
-3.2809999 3.233 1.174
-3.273 3.211 1.152
-3.2809999 3.2320001 1.133
-3.276 3.2179999 1.112
-3.2709999 3.204 1.091
-3.277 3.2190001 1.072
-3.277 3.22 1.051
-3.2690001 3.197 1.03
-3.2679999 3.1949999 1.0089999
-3.266 3.188 0.98900002
-3.2679999 3.194 0.96899998
-3.2739999 3.2090001 0.94999999
-3.266 3.187 0.92799997
-3.27 3.197 0.90799999
-3.2620001 3.1760001 0.88700002
-3.2690001 3.194 0.86799997
-3.266 3.1860001 0.847
-3.267 3.187 0.82700002
-3.2639999 3.1789999 0.80699998
-3.266 3.1860001 0.787
-3.267 3.1849999 0.76700002
-3.2739999 3.2049999 0.74699998
-3.27 3.194 0.727
-3.27 3.1930001 0.70700002
-3.2739999 3.2030001 0.68699998
-3.2720001 3.1989999 0.66600001
-3.2720001 3.197 0.64600003
-3.273 3.201 0.62599999
-3.2739999 3.204 0.60600001
-3.273 3.1989999 0.58600003
-3.273 3.2 0.56599998
-3.2720001 3.1949999 0.54500002
-3.2690001 3.187 0.52499998
-3.267 3.1800001 0.505
-3.2720001 3.194 0.48500001
-3.266 3.1789999 0.465
-3.2679999 3.184 0.44499999
-3.27 3.1889999 0.42399999
-3.267 3.1800001 0.40400001
-3.2639999 3.171 0.384
-3.2690001 3.1849999 0.36399999
-3.2639999 3.168 0.34400001
-3.266 3.175 0.324
-3.263 3.1659999 0.30399999
-3.2650001 3.1700001 0.28400001
-3.2690001 3.1800001 0.264
-3.2650001 3.1700001 0.243
-3.2639999 3.165 0.223
-3.263 3.1630001 0.20299999
-3.2639999 3.165 0.183
-3.266 3.1700001 0.163
-3.2639999 3.165 0.14300001
-3.2709999 3.1830001 0.123
-3.2679999 3.1760001 0.103
-3.263 3.1619999 0.082999997
-3.2650001 3.1659999 0.063000001
-3.2609999 3.154 0.043000001
-3.266 3.1670001 0.022
-3.2969999 3.2579999 2.984
-3.2969999 3.2579999 2.9630001
-3.299 3.2609999 2.9419999
-3.2980001 3.2579999 2.9200001
-3.296 3.2539999 2.898
-3.2939999 3.2279999 1.931
-3.293 3.2249999 1.91
-3.2939999 3.2279999 1.89
-3.2880001 3.211 1.867
-3.293 3.224 1.848
-3.289 3.2130001 1.826
-3.2880001 3.207 1.8049999
-3.29 3.2119999 1.785
-3.29 3.211 1.7640001
-3.2869999 3.204 1.743
-3.293 3.221 1.724
-3.293 3.22 1.704
-3.2909999 3.2130001 1.683
-3.2909999 3.2130001 1.6619999
-3.289 3.2079999 1.641
-3.286 3.1989999 1.619
-3.2839999 3.194 1.598
-3.2869999 3.201 1.579
-3.2809999 3.1849999 1.557
-3.286 3.1960001 1.538
-3.286 3.1949999 1.517
-3.2909999 3.2090001 1.498
-3.2850001 3.1930001 1.476
-3.2820001 3.1849999 1.455
-3.286 3.194 1.436
-3.2850001 3.1930001 1.415
-3.29 3.204 1.396
-3.286 3.194 1.375
-3.286 3.1930001 1.354
-3.2850001 3.1900001 1.334
-3.2839999 3.187 1.313
-3.283 3.1830001 1.2920001
-3.293 3.2090001 1.274
-3.286 3.1919999 1.253
-3.2839999 3.1860001 1.232
-3.283 3.181 1.211
-3.283 3.1830001 1.191
-3.28 3.1730001 1.17
-3.2869999 3.1919999 1.151
-3.283 3.1800001 1.13
-3.2809999 3.1760001 1.11
-3.2809999 3.174 1.089
-3.286 3.1860001 1.0700001
-3.2809999 3.1730001 1.049
-3.2850001 3.1849999 1.029
-3.2780001 3.165 1.008
-3.28 3.1689999 0.98799998
-3.286 3.1849999 0.96899998
-3.2820001 3.174 0.94800001
-3.2780001 3.1619999 0.92699999
-3.283 3.177 0.90799999
-3.2820001 3.174 0.88700002
-3.2809999 3.1700001 0.86699998
-3.2809999 3.171 0.847
-3.2809999 3.1700001 0.82700002
-3.2809999 3.168 0.80699998
-3.2780001 3.1600001 0.78600001
-3.283 3.174 0.76700002
-3.277 3.158 0.74599999
-3.2850001 3.175 0.72600001
-3.28 3.1619999 0.70599997
-3.2820001 3.1670001 0.68599999
-3.276 3.151 0.66500002
-3.277 3.154 0.64499998
-3.276 3.1489999 0.625
-3.2809999 3.165 0.60500002
-3.2869999 3.1789999 0.58600003
-3.276 3.1489999 0.565
-3.276 3.1489999 0.54500002
-3.273 3.1400001 0.52399999
-3.279 3.1570001 0.505
-3.2750001 3.1440001 0.484
-3.2750001 3.1440001 0.46399999
-3.2809999 3.1589999 0.44400001
-3.2720001 3.135 0.42399999
-3.2750001 3.1440001 0.40400001
-3.276 3.145 0.384
-3.273 3.138 0.36399999
-3.273 3.135 0.34400001
-3.273 3.135 0.324
-3.2709999 3.132 0.30399999
-3.2750001 3.1400001 0.28400001
-3.27 3.128 0.264
-3.2709999 3.131 0.244
-3.2739999 3.1370001 0.22400001
-3.2720001 3.1300001 0.204
-3.27 3.1259999 0.184
-3.276 3.142 0.164
-3.27 3.125 0.14399999
-3.2679999 3.1199999 0.124
-3.2690001 3.122 0.104
-3.2690001 3.122 0.083999999
-3.2690001 3.122 0.064000003
-3.27 3.1229999 0.044
-3.2720001 3.128 0.023
-3.3039999 3.2190001 2.997
-3.306 3.224 2.977
-3.302 3.214 2.9530001
-3.306 3.2219999 2.934
-3.306 3.223 2.9130001
-3.2980001 3.1800001 1.9450001
-3.2969999 3.177 1.924
-3.299 3.181 1.905
-3.3010001 3.187 1.885
-3.299 3.181 1.864
-3.299 3.1789999 1.8430001
-3.296 3.171 1.821
-3.2969999 3.1730001 1.801
-3.2969999 3.1730001 1.781
-3.2980001 3.1760001 1.761
-3.3 3.1800001 1.7410001
-3.303 3.187 1.721
-3.2969999 3.171 1.699
-3.296 3.1689999 1.678
-3.3 3.1800001 1.659
-3.2939999 3.1619999 1.636
-3.2969999 3.171 1.617
-3.3 3.177 1.597
-3.299 3.175 1.577
-3.2939999 3.1600001 1.5549999
-3.2920001 3.1559999 1.534
-3.2980001 3.1700001 1.515
-3.29 3.148 1.492
-3.29 3.148 1.472
-3.2909999 3.152 1.452
-3.2950001 3.161 1.433
-3.2920001 3.1530001 1.4119999
-3.293 3.155 1.392
-3.2939999 3.1570001 1.372
-3.293 3.154 1.351
-3.2920001 3.151 1.331
-3.2880001 3.1389999 1.309
-3.2969999 3.1630001 1.291
-3.2939999 3.1559999 1.27
-3.2969999 3.1619999 1.251
-3.2939999 3.154 1.23
-3.29 3.142 1.209
-3.293 3.152 1.189
-3.2909999 3.145 1.169
-3.2920001 3.1470001 1.148
-3.2920001 3.148 1.128
-3.296 3.158 1.109
-3.29 3.141 1.0880001
-3.2909999 3.1429999 1.067
-3.289 3.1370001 1.0470001
-3.2850001 3.1259999 1.026
-3.2909999 3.141 1.007
-3.2839999 3.1240001 0.986
-3.2920001 3.1440001 0.96700001
-3.2939999 3.1489999 0.94700003
-3.2880001 3.132 0.926
-3.2939999 3.1470001 0.90700001
-3.2980001 3.1570001 0.88700002
-3.286 3.125 0.86500001
-3.286 3.1259999 0.84500003
-3.2869999 3.1270001 0.82499999
-3.2920001 3.1400001 0.80599999
-3.2880001 3.1289999 0.78500003
-3.286 3.125 0.76499999
-3.2920001 3.1400001 0.745
-3.2850001 3.122 0.72500002
-3.289 3.132 0.70499998
-3.29 3.132 0.685
-3.2880001 3.128 0.66500002
-3.2850001 3.119 0.64399999
-3.2869999 3.125 0.625
-3.2909999 3.1340001 0.60500002
-3.286 3.1210001 0.58399999
-3.2869999 3.1210001 0.56400001
-3.29 3.131 0.54500002
-3.289 3.1270001 0.52399999
-3.2839999 3.1129999 0.50400001
-3.283 3.109 0.484
-3.2850001 3.1129999 0.46399999
-3.283 3.109 0.44400001
-3.2839999 3.109 0.42399999
-3.28 3.0999999 0.40400001
-3.2839999 3.1099999 0.384
-3.286 3.1140001 0.36399999
-3.2880001 3.119 0.34400001
-3.2809999 3.0999999 0.324
-3.283 3.105 0.30399999
-3.283 3.105 0.28400001
-3.2869999 3.1140001 0.264
-3.2850001 3.1099999 0.244
-3.283 3.105 0.22400001
-3.2820001 3.0999999 0.204
-3.2850001 3.109 0.184
-3.2850001 3.109 0.164
-3.2839999 3.1040001 0.14399999
-3.2869999 3.1129999 0.124
-3.28 3.0940001 0.104
-3.2820001 3.098 0.083999999
-3.2820001 3.098 0.064000003
-3.2750001 3.079 0.045000002
-3.2820001 3.0969999 0.024
-3.322 3.21 2.997
-3.3139999 3.188 2.97
-3.3180001 3.2 2.9519999
-3.3099999 3.155 1.9630001
-3.309 3.1530001 1.943
-3.3139999 3.165 1.924
-3.3080001 3.1489999 1.901
-3.309 3.152 1.881
-3.3099999 3.154 1.8609999
-3.313 3.161 1.841
-3.3110001 3.155 1.8200001
-3.313 3.1619999 1.801
-3.3039999 3.1359999 1.777
-3.3150001 3.1670001 1.76
-3.306 3.141 1.737
-3.3069999 3.1429999 1.716
-3.312 3.155 1.698
-3.3069999 3.1429999 1.676
-3.312 3.155 1.6569999
-3.309 3.148 1.636
-3.3069999 3.141 1.614
-3.302 3.1289999 1.5930001
-3.3080001 3.1440001 1.574
-3.3099999 3.1470001 1.554
-3.3050001 3.135 1.5319999
-3.3080001 3.141 1.513
-3.3069999 3.1389999 1.492
-3.3099999 3.145 1.473
-3.309 3.1429999 1.452
-3.3010001 3.122 1.4299999
-3.303 3.128 1.41
-3.3010001 3.1210001 1.3890001
-3.3050001 3.131 1.37
-3.306 3.1329999 1.35
-3.3039999 3.1259999 1.329
-3.303 3.1229999 1.309
-3.3050001 3.1289999 1.289
-3.309 3.1389999 1.27
-3.3069999 3.1329999 1.249
-3.3099999 3.142 1.23
-3.3080001 3.1359999 1.209
-3.3069999 3.132 1.188
-3.306 3.1289999 1.168
-3.3050001 3.1259999 1.147
-3.302 3.118 1.127
-3.3080001 3.1329999 1.108
-3.303 3.1199999 1.087
-3.302 3.1170001 1.066
-3.299 3.109 1.046
-3.3050001 3.1240001 1.027
-3.302 3.1159999 1.006
-3.3039999 3.122 0.986
-3.3010001 3.1140001 0.96600002
-3.3069999 3.1289999 0.94599998
-3.3010001 3.1110001 0.92500001
-3.3069999 3.1259999 0.90600002
-3.3 3.108 0.88499999
-3.3039999 3.118 0.86500001
-3.3080001 3.1289999 0.84600002
-3.309 3.1300001 0.82599998
-3.3069999 3.1240001 0.80500001
-3.302 3.1129999 0.78500003
-3.3010001 3.109 0.76499999
-3.303 3.1140001 0.745
-3.3039999 3.115 0.72500002
-3.3099999 3.1289999 0.70499998
-3.303 3.1110001 0.685
-3.3069999 3.1210001 0.66500002
-3.3 3.1029999 0.64399999
-3.303 3.108 0.62400001
-3.3099999 3.1270001 0.60500002
-3.303 3.109 0.58399999
-3.3039999 3.1099999 0.56400001
-3.3069999 3.119 0.54500002
-3.299 3.096 0.52399999
-3.3080001 3.1199999 0.505
-3.3080001 3.1199999 0.48500001
-3.3 3.0969999 0.46399999
-3.3050001 3.112 0.44400001
-3.3050001 3.112 0.42399999
-3.302 3.1029999 0.40400001
-3.3039999 3.1070001 0.384
-3.3039999 3.1070001 0.36399999
-3.3010001 3.098 0.34400001
-3.3050001 3.108 0.324
-3.2980001 3.089 0.30399999
-3.306 3.1110001 0.28400001
-3.299 3.0929999 0.264
-3.3 3.0929999 0.244
-3.302 3.098 0.22400001
-3.3 3.0929999 0.204
-3.3 3.0929999 0.184
-3.3 3.0929999 0.164
-3.2980001 3.0880001 0.14399999
-3.3 3.092 0.124
-3.2980001 3.0869999 0.104
-3.3 3.092 0.083999999
-3.3039999 3.1010001 0.064000003
-3.302 3.095 0.044
-3.302 3.095 0.024
-3.339 3.198 2.9960001
-3.336 3.1900001 2.973
-3.3310001 3.155 1.985
-3.3299999 3.152 1.964
-3.335 3.165 1.946
-3.3269999 3.1440001 1.9220001
-3.3280001 3.1470001 1.902
-3.3310001 3.154 1.883
-3.336 3.1659999 1.864
-3.332 3.154 1.842
-3.3280001 3.1429999 1.8200001
-3.329 3.145 1.799
-3.3299999 3.148 1.779
-3.3310001 3.1500001 1.7589999
-3.325 3.1340001 1.737
-3.329 3.1459999 1.7180001
-3.322 3.125 1.6950001
-3.3280001 3.141 1.676
-3.325 3.1340001 1.655
-3.3299999 3.145 1.636
-3.3269999 3.138 1.615
-3.325 3.131 1.594
-3.3269999 3.138 1.574
-3.3269999 3.135 1.554
-3.326 3.132 1.533
-3.3269999 3.1340001 1.513
-3.322 3.122 1.4910001
-3.3269999 3.1340001 1.472
-3.3210001 3.1170001 1.45
-3.3280001 3.1370001 1.432
-3.326 3.1300001 1.411
-3.325 3.1270001 1.391
-3.3329999 3.1470001 1.373
-3.3299999 3.1400001 1.352
-3.325 3.1270001 1.33
-3.3299999 3.138 1.311
-3.3269999 3.131 1.29
-3.326 3.1289999 1.27
-3.325 3.1259999 1.249
-3.3239999 3.122 1.229
-3.3269999 3.1289999 1.209
-3.3269999 3.1300001 1.189
-3.3239999 3.1210001 1.168
-3.3340001 3.1459999 1.15
-3.3239999 3.1199999 1.128
-3.3210001 3.112 1.107
-3.3269999 3.1270001 1.0880001
-3.326 3.1240001 1.067
-3.3210001 3.1110001 1.046
-3.322 3.112 1.026
-3.3239999 3.1159999 1.007
-3.3340001 3.1429999 0.98799998
-3.3280001 3.125 0.96700001
-3.323 3.112 0.94599998
-3.3239999 3.1129999 0.926
-3.3210001 3.105 0.90499997
-3.326 3.1199999 0.88599998
-3.3269999 3.1210001 0.866
-3.3239999 3.112 0.84600002
-3.3169999 3.0940001 0.82499999
-3.3210001 3.1040001 0.80500001
-3.3269999 3.119 0.78600001
-3.3269999 3.1199999 0.76599997
-3.3239999 3.1110001 0.745
-3.319 3.098 0.72500002
-3.323 3.108 0.70499998
-3.322 3.1040001 0.685
-3.326 3.1140001 0.66500002
-3.326 3.115 0.64499998
-3.332 3.128 0.625
-3.325 3.1110001 0.60500002
-3.3269999 3.1159999 0.58499998
-3.326 3.112 0.565
-3.3239999 3.108 0.54500002
-3.325 3.108 0.52499998
-3.325 3.108 0.505
-3.325 3.109 0.48500001
-3.3269999 3.1140001 0.465
-3.3199999 3.0940001 0.44400001
-3.322 3.0999999 0.42399999
-3.3210001 3.095 0.40400001
-3.323 3.0999999 0.384
-3.3210001 3.096 0.36399999
-3.3210001 3.096 0.34400001
-3.329 3.115 0.324
-3.3269999 3.1099999 0.30399999
-3.3239999 3.1010001 0.28400001
-3.322 3.096 0.264
-3.3239999 3.0999999 0.244
-3.322 3.096 0.22400001
-3.3150001 3.0769999 0.204
-3.322 3.095 0.184
-3.326 3.1040001 0.164
-3.3239999 3.099 0.14399999
-3.3210001 3.0899999 0.124
-3.3210001 3.0899999 0.104
-3.323 3.0940001 0.083999999
-3.3239999 3.098 0.064000003
-3.3239999 3.098 0.044
-3.323 3.0929999 0.024
-3.3599999 3.198 2.9979999
-3.3529999 3.178 2.9719999
-3.3540001 3.1619999 2.0079999
-3.3529999 3.1589999 1.987
-3.348 3.1459999 1.965
-3.3529999 3.158 1.946
-3.3540001 3.1600001 1.926
-3.352 3.154 1.904
-3.3529999 3.1559999 1.8839999
-3.3559999 3.164 1.865
-3.352 3.152 1.842
-3.3529999 3.154 1.822
-3.3559999 3.1619999 1.803
-3.3540001 3.155 1.7819999
-3.3529999 3.152 1.761
-3.349 3.141 1.739
-3.352 3.148 1.719
-3.346 3.132 1.697
-3.348 3.138 1.677
-3.355 3.155 1.659
-3.3570001 3.161 1.6390001
-3.3510001 3.145 1.617
-3.349 3.138 1.596
-3.348 3.135 1.575
-3.349 3.1370001 1.5549999
-3.3499999 3.1389999 1.535
-3.345 3.1270001 1.513
-3.346 3.1289999 1.493
-3.352 3.145 1.475
-3.3499999 3.138 1.454
-3.349 3.135 1.433
-3.346 3.1270001 1.4119999
-3.3510001 3.1389999 1.393
-3.3529999 3.145 1.373
-3.3499999 3.1370001 1.352
-3.349 3.1340001 1.332
-3.345 3.122 1.3099999
-3.346 3.1240001 1.29
-3.348 3.1300001 1.271
-3.349 3.131 1.25
-3.3499999 3.1329999 1.23
-3.3469999 3.1259999 1.21
-3.346 3.1229999 1.189
-3.3469999 3.1240001 1.169
-3.352 3.1389999 1.15
-3.348 3.1270001 1.1289999
-3.3469999 3.1240001 1.108
-3.3510001 3.1340001 1.089
-3.3469999 3.122 1.068
-3.3529999 3.1370001 1.049
-3.3410001 3.105 1.027
-3.348 3.125 1.008
-3.3529999 3.1359999 0.98799998
-3.346 3.118 0.96700001
-3.3499999 3.128 0.94800001
-3.3540001 3.1389999 0.92799997
-3.349 3.1259999 0.90700001
-3.346 3.1170001 0.88700002
-3.3469999 3.118 0.86699998
-3.346 3.115 0.84600002
-3.3499999 3.125 0.82700002
-3.3429999 3.1070001 0.80599999
-3.349 3.122 0.78600001
-3.342 3.1040001 0.76499999
-3.3440001 3.109 0.74599999
-3.3429999 3.105 0.72500002
-3.3469999 3.115 0.70599997
-3.345 3.1099999 0.685
-3.348 3.1159999 0.66600001
-3.346 3.112 0.64499998
-3.352 3.1270001 0.62599999
-3.3510001 3.1229999 0.60600001
-3.3440001 3.105 0.58499998
-3.3440001 3.105 0.565
-3.3440001 3.105 0.54500002
-3.3499999 3.1199999 0.52499998
-3.345 3.1059999 0.505
-3.345 3.1059999 0.48500001
-3.345 3.1070001 0.465
-3.349 3.1159999 0.44499999
-3.346 3.1070001 0.42500001
-3.346 3.1070001 0.405
-3.3410001 3.0929999 0.38499999
-3.345 3.1029999 0.36500001
-3.3469999 3.108 0.345
-3.345 3.1029999 0.32499999
-3.3440001 3.098 0.30500001
-3.339 3.0840001 0.285
-3.3440001 3.098 0.26499999
-3.3429999 3.0929999 0.245
-3.3440001 3.098 0.22400001
-3.3429999 3.0929999 0.204
-3.345 3.098 0.184
-3.3410001 3.0880001 0.16500001
-3.348 3.1059999 0.14399999
-3.3499999 3.1110001 0.124
-3.352 3.115 0.104
-3.348 3.105 0.083999999
-3.348 3.105 0.064000003
-3.3469999 3.0999999 0.044
-3.348 3.1040001 0.024
-3.378 3.1670001 2.0309999
-3.3789999 3.1700001 2.0109999
-3.3710001 3.1500001 1.987
-3.3759999 3.1619999 1.9680001
-3.375 3.1600001 1.947
-3.3770001 3.1630001 1.927
-3.3759999 3.1600001 1.906
-3.3740001 3.154 1.885
-3.375 3.1559999 1.865
-3.3740001 3.154 1.844
-3.375 3.1570001 1.824
-3.3759999 3.1589999 1.804
-3.372 3.148 1.7819999
-3.375 3.155 1.762
-3.372 3.148 1.7410001
-3.3699999 3.141 1.719
-3.3729999 3.148 1.7
-3.372 3.145 1.679
-3.3710001 3.1429999 1.659
-3.3740001 3.1500001 1.6390001
-3.3710001 3.1429999 1.618
-3.3629999 3.122 1.595
-3.368 3.1329999 1.576
-3.369 3.135 1.556
-3.368 3.132 1.535
-3.369 3.1340001 1.515
-3.372 3.141 1.495
-3.3670001 3.128 1.474
-3.372 3.1400001 1.455
-3.369 3.1329999 1.434
-3.372 3.1389999 1.414
-3.3670001 3.1270001 1.392
-3.368 3.1289999 1.372
-3.365 3.1210001 1.351
-3.3699999 3.132 1.332
-3.369 3.1289999 1.312
-3.369 3.131 1.2920001
-3.372 3.1370001 1.272
-3.369 3.1289999 1.251
-3.372 3.135 1.2309999
-3.369 3.128 1.21
-3.3640001 3.1159999 1.189
-3.365 3.1170001 1.169
-3.369 3.1270001 1.15
-3.3699999 3.128 1.13
-3.3670001 3.1210001 1.109
-3.368 3.1229999 1.089
-3.368 3.1240001 1.069
-3.369 3.125 1.049
-3.372 3.131 1.029
-3.3640001 3.109 1.007
-3.368 3.119 0.98799998
-3.3670001 3.1159999 0.96799999
-3.3670001 3.1170001 0.94800001
-3.368 3.118 0.92699999
-3.368 3.119 0.90700001
-3.372 3.1289999 0.88800001
-3.3670001 3.1159999 0.86699998
-3.368 3.1170001 0.847
-3.3629999 3.1040001 0.82599998
-3.369 3.118 0.80699998
-3.3659999 3.1099999 0.78600001
-3.3710001 3.1240001 0.76700002
-3.3740001 3.1300001 0.74699998
-3.3670001 3.112 0.72600001
-3.369 3.1170001 0.70599997
-3.3640001 3.1040001 0.68599999
-3.3740001 3.128 0.66600001
-3.365 3.105 0.64600003
-3.3670001 3.1099999 0.62599999
-3.3659999 3.1059999 0.60600001
-3.368 3.1110001 0.58600003
-3.365 3.1029999 0.565
-3.3659999 3.1059999 0.54500002
-3.3670001 3.108 0.52499998
-3.368 3.1110001 0.505
-3.3670001 3.108 0.48500001
-3.3640001 3.0999999 0.465
-3.3659999 3.1040001 0.44499999
-3.3659999 3.105 0.42500001
-3.365 3.099 0.405
-3.365 3.099 0.38499999
-3.365 3.0999999 0.36500001
-3.3670001 3.105 0.345
-3.369 3.1099999 0.32499999
-3.369 3.1099999 0.30500001
-3.368 3.105 0.285
-3.3659999 3.0999999 0.26499999
-3.3640001 3.096 0.245
-3.3629999 3.0910001 0.22499999
-3.362 3.0899999 0.205
-3.3629999 3.0899999 0.185
-3.3610001 3.086 0.16500001
-3.359 3.0799999 0.145
-3.3659999 3.098 0.124
-3.3670001 3.1010001 0.104
-3.3699999 3.108 0.083999999
-3.365 3.0929999 0.064000003
-3.365 3.0929999 0.044
-3.3629999 3.0880001 0.024
-3.3959999 3.1600001 2.052
-3.395 3.1559999 2.03
-3.3970001 3.161 2.0109999
-3.3929999 3.152 1.989
-3.398 3.164 1.97
-3.398 3.1619999 1.949
-3.3989999 3.165 1.929
-3.3889999 3.1389999 1.905
-3.3940001 3.151 1.886
-3.3989999 3.1630001 1.867
-3.398 3.161 1.846
-3.3940001 3.1500001 1.824
-3.395 3.152 1.804
-3.3959999 3.154 1.784
-3.388 3.1340001 1.76
-3.3959999 3.155 1.743
-3.3940001 3.148 1.721
-3.4000001 3.164 1.7029999
-3.392 3.1429999 1.6799999
-3.395 3.1500001 1.66
-3.3940001 3.1470001 1.64
-3.3940001 3.145 1.619
-3.395 3.1470001 1.599
-3.3970001 3.154 1.579
-3.3929999 3.142 1.558
-3.3940001 3.1440001 1.5369999
-3.391 3.1359999 1.516
-3.3889999 3.1289999 1.495
-3.395 3.145 1.477
-3.3940001 3.142 1.456
-3.3889999 3.1300001 1.434
-3.392 3.1370001 1.415
-3.391 3.1340001 1.3940001
-3.3940001 3.1400001 1.374
-3.3889999 3.128 1.353
-3.395 3.1440001 1.334
-3.3940001 3.141 1.314
-3.3970001 3.1470001 1.294
-3.398 3.148 1.274
-3.395 3.141 1.253
-3.3940001 3.1370001 1.232
-3.3959999 3.1440001 1.2130001
-3.3940001 3.1359999 1.192
-3.392 3.1329999 1.171
-3.391 3.1289999 1.151
-3.3959999 3.1400001 1.131
-3.3929999 3.132 1.1109999
-3.3929999 3.1329999 1.09
-3.3940001 3.135 1.0700001
-3.3929999 3.131 1.05
-3.3970001 3.141 1.03
-3.3929999 3.1289999 1.0089999
-3.3929999 3.1300001 0.98900002
-3.391 3.122 0.96899998
-3.391 3.1229999 0.949
-3.392 3.1240001 0.92799997
-3.3900001 3.1210001 0.90799999
-3.3959999 3.135 0.889
-3.388 3.1129999 0.86699998
-3.3900001 3.119 0.84799999
-3.392 3.1240001 0.82800001
-3.395 3.1300001 0.80800003
-3.392 3.1210001 0.787
-3.3900001 3.118 0.76700002
-3.3889999 3.1140001 0.74699998
-3.3929999 3.1240001 0.727
-3.388 3.1099999 0.70599997
-3.3900001 3.1159999 0.68699998
-3.3989999 3.1400001 0.667
-3.3940001 3.1259999 0.64700001
-3.3889999 3.1129999 0.62599999
-3.388 3.108 0.60600001
-3.3900001 3.1140001 0.58600003
-3.392 3.119 0.56599998
-3.385 3.0999999 0.546
-3.391 3.115 0.52600002
-3.3900001 3.1099999 0.50599998
-3.3859999 3.1010001 0.48500001
-3.388 3.1059999 0.465
-3.392 3.1159999 0.44600001
-3.3829999 3.0929999 0.42500001
-3.3870001 3.102 0.405
-3.3929999 3.1159999 0.38499999
-3.3889999 3.1070001 0.36500001
-3.3900001 3.1070001 0.345
-3.388 3.1029999 0.32499999
-3.388 3.1029999 0.30500001
-3.3900001 3.1070001 0.285
-3.3870001 3.098 0.26499999
-3.385 3.0929999 0.245
-3.3889999 3.102 0.22499999
-3.3829999 3.0880001 0.205
-3.3889999 3.102 0.185
-3.3829999 3.0880001 0.16500001
-3.3840001 3.0880001 0.145
-3.3840001 3.0869999 0.125
-3.3840001 3.0869999 0.105
-3.3870001 3.096 0.083999999
-3.3929999 3.1099999 0.064000003
-3.3770001 3.0680001 0.045000002
-3.378 3.0699999 0.025
-3.4230001 3.174 2.076
-3.421 3.168 2.0539999
-3.4219999 3.171 2.0339999
-3.4130001 3.1470001 2.01
-3.424 3.1760001 1.994
-3.4219999 3.1700001 1.972
-3.4159999 3.155 1.949
-3.4219999 3.168 1.931
-3.4189999 3.1600001 1.909
-3.4130001 3.1440001 1.886
-3.4189999 3.1600001 1.868
-3.415 3.1489999 1.846
-3.4159999 3.152 1.826
-3.421 3.1630001 1.807
-3.4170001 3.152 1.785
-3.4159999 3.1500001 1.7640001
-3.4170001 3.152 1.744
-3.4159999 3.1500001 1.723
-3.421 3.161 1.704
-3.4219999 3.1630001 1.684
-3.418 3.152 1.6619999
-3.4219999 3.1630001 1.643
-3.421 3.161 1.622
-3.4130001 3.1400001 1.599
-3.414 3.142 1.579
-3.4189999 3.1530001 1.5599999
-3.414 3.141 1.538
-3.415 3.1429999 1.518
-3.418 3.1500001 1.498
-3.4170001 3.1470001 1.478
-3.4200001 3.154 1.4579999
-3.4170001 3.1459999 1.437
-3.414 3.1389999 1.416
-3.4189999 3.1500001 1.397
-3.4159999 3.142 1.376
-3.4200001 3.1530001 1.3559999
-3.418 3.1459999 1.335
-3.4130001 3.1329999 1.314
-3.4100001 3.1259999 1.293
-3.4159999 3.141 1.274
-3.4189999 3.1470001 1.2539999
-3.4130001 3.1300001 1.233
-3.415 3.1359999 1.2130001
-3.4100001 3.1240001 1.192
-3.4089999 3.1210001 1.171
-3.415 3.1359999 1.152
-3.418 3.142 1.132
-3.415 3.1340001 1.1109999
-3.414 3.131 1.091
-3.411 3.1229999 1.0700001
-3.4130001 3.1289999 1.05
-3.4089999 3.1170001 1.029
-3.415 3.131 1.01
-3.415 3.132 0.99000001
-3.4159999 3.1329999 0.97000003
-3.4159999 3.1340001 0.94999999
-3.415 3.131 0.92900002
-3.4130001 3.125 0.90899998
-3.4130001 3.1240001 0.889
-3.4119999 3.1199999 0.86799997
-3.411 3.1159999 0.84799999
-3.411 3.1170001 0.82800001
-3.4119999 3.118 0.80800003
-3.4100001 3.1140001 0.78799999
-3.414 3.1240001 0.76800001
-3.411 3.1159999 0.74699998
-3.415 3.1259999 0.72799999
-3.414 3.122 0.70700002
-3.411 3.1129999 0.68699998
-3.4130001 3.118 0.667
-3.4130001 3.119 0.64700001
-3.4119999 3.115 0.62699997
-3.4159999 3.125 0.60699999
-3.414 3.1199999 0.58700001
-3.4070001 3.0999999 0.56599998
-3.4130001 3.1170001 0.546
-3.408 3.1029999 0.52600002
-3.4100001 3.108 0.50599998
-3.4089999 3.1040001 0.486
-3.4089999 3.1040001 0.46599999
-3.4130001 3.1129999 0.44600001
-3.411 3.109 0.426
-3.4100001 3.1040001 0.40599999
-3.4100001 3.105 0.38499999
-3.4119999 3.109 0.36500001
-3.414 3.1140001 0.345
-3.4159999 3.119 0.32499999
-3.4100001 3.105 0.30500001
-3.418 3.1240001 0.285
-3.4130001 3.109 0.26499999
-3.411 3.105 0.245
-3.4070001 3.095 0.22499999
-3.4130001 3.109 0.205
-3.4130001 3.109 0.185
-3.4059999 3.0899999 0.16500001
-3.408 3.0940001 0.145
-3.4059999 3.0899999 0.125
-3.4100001 3.099 0.105
-3.3989999 3.0699999 0.085000001
-3.4030001 3.082 0.064999998
-3.398 3.0680001 0.045000002
-3.391 3.0480001 0.025
-3.4449999 3.178 2.099
-3.4430001 3.1719999 2.0769999
-3.4460001 3.1789999 2.0580001
-3.4400001 3.1630001 2.0339999
-3.4449999 3.175 2.016
-3.4389999 3.161 1.993
-3.437 3.154 1.971
-3.444 3.171 1.9529999
-3.4389999 3.1600001 1.931
-3.434 3.1440001 1.908
-3.4400001 3.1600001 1.89
-3.4430001 3.1670001 1.87
-3.441 3.161 1.849
-3.4419999 3.1630001 1.8279999
-3.4430001 3.165 1.808
-3.4389999 3.154 1.786
-3.4400001 3.1559999 1.766
-3.4389999 3.154 1.745
-3.4400001 3.1559999 1.725
-3.441 3.1589999 1.705
-3.441 3.1559999 1.684
-3.4419999 3.158 1.664
-3.437 3.1470001 1.642
-3.438 3.1489999 1.622
-3.4389999 3.151 1.602
-3.4330001 3.135 1.579
-3.4389999 3.1500001 1.561
-3.4349999 3.1389999 1.539
-3.438 3.145 1.5190001
-3.4389999 3.1470001 1.499
-3.438 3.1440001 1.478
-3.4389999 3.1459999 1.4579999
-3.441 3.1530001 1.439
-3.437 3.141 1.4170001
-3.4389999 3.1470001 1.397
-3.437 3.1400001 1.376
-3.4389999 3.1459999 1.357
-3.438 3.1429999 1.336
-3.4349999 3.135 1.3150001
-3.438 3.142 1.295
-3.4349999 3.1340001 1.274
-3.4360001 3.135 1.2539999
-3.4349999 3.132 1.234
-3.437 3.1370001 1.214
-3.4360001 3.135 1.193
-3.4430001 3.151 1.174
-3.4360001 3.1329999 1.153
-3.4330001 3.125 1.132
-3.4360001 3.131 1.112
-3.434 3.128 1.092
-3.4330001 3.125 1.071
-3.434 3.1259999 1.051
-3.4360001 3.132 1.031
-3.4319999 3.119 1.01
-3.438 3.1340001 0.991
-3.438 3.135 0.97100002
-3.437 3.132 0.94999999
-3.4360001 3.128 0.93000001
-3.431 3.1159999 0.90899998
-3.437 3.1300001 0.88999999
-3.437 3.131 0.87
-3.434 3.122 0.84899998
-3.4349999 3.1229999 0.829
-3.437 3.1289999 0.80900002
-3.434 3.1210001 0.78799999
-3.4360001 3.1259999 0.76800001
-3.4330001 3.118 0.74800003
-3.437 3.1270001 0.72799999
-3.434 3.119 0.708
-3.4330001 3.115 0.68699998
-3.4289999 3.1070001 0.667
-3.437 3.1259999 0.648
-3.4319999 3.112 0.62699997
-3.438 3.1270001 0.60699999
-3.4330001 3.1129999 0.58700001
-3.4349999 3.118 0.56699997
-3.431 3.1099999 0.546
-3.4319999 3.1099999 0.52600002
-3.431 3.105 0.50599998
-3.441 3.1329999 0.48699999
-3.438 3.125 0.46599999
-3.437 3.1199999 0.44600001
-3.4319999 3.1059999 0.426
-3.434 3.1110001 0.40599999
-3.4319999 3.1070001 0.38600001
-3.434 3.1110001 0.366
-3.431 3.102 0.345
-3.431 3.102 0.32499999
-3.4289999 3.098 0.30500001
-3.4289999 3.098 0.285
-3.4330001 3.1070001 0.26499999
-3.4349999 3.1110001 0.245
-3.428 3.0929999 0.22499999
-3.4319999 3.102 0.205
-3.4349999 3.1110001 0.185
-3.434 3.1059999 0.16500001
-3.4300001 3.0969999 0.145
-3.434 3.1059999 0.125
-3.428 3.0910001 0.105
-3.4260001 3.086 0.085000001
-3.4319999 3.0999999 0.064000003
-3.418 3.063 0.045000002
-3.411 3.0450001 0.026000001
-3.461 3.1630001 2.118
-3.4590001 3.1570001 2.0969999
-3.4660001 3.1730001 2.079
-3.46 3.158 2.0550001
-3.4590001 3.1559999 2.0350001
-3.461 3.1589999 2.0139999
-3.457 3.1489999 1.992
-3.46 3.1559999 1.973
-3.4579999 3.1489999 1.951
-3.4660001 3.1700001 1.934
-3.4619999 3.1589999 1.911
-3.4660001 3.171 1.893
-3.4660001 3.1689999 1.872
-3.4649999 3.1670001 1.851
-3.464 3.165 1.83
-3.457 3.1440001 1.806
-3.467 3.1700001 1.789
-3.4619999 3.158 1.767
-3.4619999 3.1559999 1.747
-3.4590001 3.1489999 1.725
-3.4619999 3.1559999 1.706
-3.4630001 3.158 1.6849999
-3.4619999 3.1559999 1.665
-3.461 3.1530001 1.6440001
-3.457 3.142 1.622
-3.4649999 3.1619999 1.604
-3.457 3.141 1.581
-3.46 3.148 1.561
-3.461 3.1500001 1.541
-3.4619999 3.152 1.521
-3.4590001 3.1440001 1.5
-3.464 3.1559999 1.4809999
-3.457 3.1389999 1.459
-3.4549999 3.132 1.437
-3.4630001 3.152 1.419
-3.464 3.154 1.399
-3.457 3.1370001 1.377
-3.46 3.1429999 1.357
-3.4590001 3.1400001 1.337
-3.46 3.141 1.316
-3.4560001 3.131 1.295
-3.4579999 3.1359999 1.275
-3.4590001 3.1370001 1.255
-3.4630001 3.148 1.2359999
-3.464 3.1500001 1.216
-3.457 3.132 1.194
-3.4549999 3.125 1.173
-3.4590001 3.135 1.154
-3.4579999 3.132 1.133
-3.4619999 3.1429999 1.114
-3.457 3.1300001 1.092
-3.4579999 3.131 1.072
-3.4530001 3.118 1.051
-3.457 3.1289999 1.0319999
-3.46 3.135 1.012
-3.457 3.1270001 0.991
-3.457 3.128 0.97100002
-3.4619999 3.138 0.95099998
-3.451 3.1110001 0.93000001
-3.457 3.1259999 0.91000003
-3.461 3.1359999 0.89099997
-3.451 3.1099999 0.86900002
-3.4530001 3.115 0.84899998
-3.457 3.125 0.829
-3.4530001 3.1129999 0.80900002
-3.451 3.109 0.78799999
-3.461 3.132 0.76899999
-3.454 3.115 0.74800003
-3.4549999 3.1159999 0.72799999
-3.4579999 3.125 0.708
-3.457 3.1210001 0.68800002
-3.454 3.1129999 0.66799998
-3.451 3.1040001 0.64700001
-3.4619999 3.132 0.62800002
-3.4549999 3.115 0.60699999
-3.4549999 3.115 0.58700001
-3.461 3.1289999 0.56699997
-3.4579999 3.1210001 0.54699999
-3.4560001 3.1159999 0.52700001
-3.4549999 3.112 0.50700003
-3.4590001 3.122 0.48699999
-3.4549999 3.1129999 0.46599999
-3.454 3.108 0.44600001
-3.4560001 3.112 0.426
-3.4560001 3.1129999 0.40599999
-3.454 3.109 0.38600001
-3.4549999 3.109 0.366
-3.4579999 3.118 0.34599999
-3.4530001 3.1040001 0.32600001
-3.4519999 3.0999999 0.30599999
-3.457 3.1140001 0.285
-3.4549999 3.109 0.26499999
-3.4590001 3.118 0.245
-3.454 3.1040001 0.22499999
-3.4489999 3.0899999 0.205
-3.4560001 3.108 0.185
-3.4530001 3.099 0.16500001
-3.4530001 3.098 0.145
-3.447 3.0840001 0.125
-3.4530001 3.0969999 0.105
-3.457 3.1070001 0.083999999
-3.451 3.0929999 0.064999998
-3.4430001 3.072 0.045000002
-3.4360001 3.053 0.025
-3.4690001 3.1270001 2.1340001
-3.4779999 3.151 2.118
-3.48 3.154 2.098
-3.4879999 3.175 2.0799999
-3.4879999 3.1730001 2.059
-3.487 3.1719999 2.0380001
-3.483 3.161 2.016
-3.4860001 3.168 1.997
-3.484 3.1619999 1.975
-3.4849999 3.164 1.955
-3.483 3.1589999 1.933
-3.4820001 3.1570001 1.9119999
-3.487 3.1670001 1.893
-3.4849999 3.1619999 1.872
-3.4909999 3.177 1.854
-3.487 3.1670001 1.831
-3.484 3.1600001 1.8099999
-3.4879999 3.1670001 1.79
-3.4849999 3.1600001 1.7690001
-3.483 3.1530001 1.747
-3.4779999 3.141 1.725
-3.483 3.1530001 1.706
-3.4820001 3.151 1.686
-3.483 3.1530001 1.665
-3.4809999 3.1459999 1.6440001
-3.4849999 3.1570001 1.625
-3.4809999 3.145 1.603
-3.484 3.152 1.5829999
-3.483 3.1500001 1.563
-3.4860001 3.1559999 1.543
-3.4849999 3.154 1.522
-3.4820001 3.1459999 1.501
-3.487 3.1570001 1.482
-3.4860001 3.155 1.461
-3.483 3.1470001 1.4400001
-3.484 3.1489999 1.42
-3.483 3.1459999 1.399
-3.4820001 3.1429999 1.3789999
-3.477 3.131 1.357
-3.4779999 3.1329999 1.337
-3.4860001 3.1530001 1.318
-3.483 3.145 1.2970001
-3.48 3.138 1.276
-3.4790001 3.135 1.256
-3.4820001 3.141 1.2359999
-3.4790001 3.1329999 1.215
-3.4779999 3.1300001 1.194
-3.4879999 3.154 1.176
-3.4779999 3.128 1.154
-3.4820001 3.1389999 1.1339999
-3.4790001 3.131 1.113
-3.4790001 3.1300001 1.0930001
-3.484 3.142 1.074
-3.483 3.1389999 1.053
-3.474 3.1170001 1.0319999
-3.477 3.1229999 1.012
-3.4790001 3.1289999 0.99199998
-3.48 3.1300001 0.972
-3.484 3.1400001 0.95200002
-3.477 3.122 0.93099999
-3.48 3.128 0.91100001
-3.4779999 3.1240001 0.89099997
-3.473 3.1110001 0.87
-3.4790001 3.1259999 0.85000002
-3.4779999 3.122 0.82999998
-3.4779999 3.1229999 0.81
-3.4790001 3.1240001 0.79000002
-3.4760001 3.1159999 0.76899999
-3.48 3.1259999 0.74900001
-3.48 3.1259999 0.72899997
-3.477 3.118 0.70899999
-3.4790001 3.1210001 0.68900001
-3.4760001 3.1140001 0.66799998
-3.4779999 3.119 0.648
-3.4760001 3.1140001 0.62800002
-3.4790001 3.1199999 0.60799998
-3.477 3.1159999 0.588
-3.48 3.1210001 0.56800002
-3.474 3.108 0.54699999
-3.477 3.1140001 0.52700001
-3.477 3.1140001 0.50700003
-3.4790001 3.118 0.48699999
-3.4719999 3.1010001 0.46700001
-3.4809999 3.1229999 0.447
-3.4779999 3.115 0.42699999
-3.473 3.1010001 0.40599999
-3.483 3.1270001 0.38600001
-3.4719999 3.0969999 0.366
-3.474 3.102 0.34599999
-3.4779999 3.1110001 0.32600001
-3.4779999 3.1099999 0.30599999
-3.4779999 3.1110001 0.28600001
-3.4820001 3.119 0.266
-3.4749999 3.1010001 0.245
-3.473 3.0969999 0.22499999
-3.473 3.096 0.205
-3.477 3.1059999 0.185
-3.473 3.095 0.16500001
-3.477 3.1040001 0.145
-3.473 3.095 0.125
-3.4790001 3.109 0.105
-3.4749999 3.099 0.085000001
-3.48 3.1099999 0.064000003
-3.467 3.076 0.045000002
-3.457 3.053 0.025
-3.4860001 3.1170001 2.155
-3.494 3.1359999 2.1370001
-3.5020001 3.1559999 2.1199999
-3.5090001 3.174 2.102
-3.5090001 3.1719999 2.0810001
-3.5079999 3.171 2.0599999
-3.5079999 3.1689999 2.039
-3.5050001 3.1630001 2.0179999
-3.507 3.165 1.997
-3.5039999 3.1589999 1.976
-3.5090001 3.171 1.957
-3.51 3.1730001 1.937
-3.506 3.1619999 1.914
-3.507 3.165 1.8940001
-3.51 3.1719999 1.875
-3.503 3.152 1.851
-3.5039999 3.155 1.831
-3.503 3.1530001 1.8099999
-3.5079999 3.164 1.791
-3.5090001 3.1670001 1.771
-3.503 3.1500001 1.748
-3.5079999 3.1619999 1.729
-3.5090001 3.164 1.709
-3.506 3.1570001 1.688
-3.5 3.141 1.665
-3.5009999 3.1429999 1.645
-3.507 3.1589999 1.626
-3.5050001 3.152 1.605
-3.506 3.154 1.585
-3.503 3.1470001 1.563
-3.5039999 3.1489999 1.543
-3.507 3.1559999 1.524
-3.5039999 3.148 1.502
-3.4990001 3.1359999 1.4809999
-3.506 3.152 1.462
-3.4979999 3.131 1.439
-3.5 3.1370001 1.42
-3.5009999 3.1389999 1.399
-3.5039999 3.145 1.38
-3.5050001 3.1470001 1.359
-3.5 3.135 1.3380001
-3.5009999 3.1359999 1.318
-3.5020001 3.138 1.298
-3.503 3.1400001 1.277
-3.5020001 3.1370001 1.257
-3.503 3.138 1.237
-3.5020001 3.135 1.216
-3.4990001 3.1270001 1.1950001
-3.5050001 3.142 1.176
-3.5 3.1300001 1.155
-3.503 3.1359999 1.135
-3.5050001 3.142 1.115
-3.4979999 3.1240001 1.0930001
-3.506 3.1429999 1.075
-3.507 3.1459999 1.054
-3.5020001 3.132 1.033
-3.5009999 3.1289999 1.013
-3.503 3.135 0.99299997
-3.5020001 3.132 0.972
-3.4990001 3.1229999 0.95200002
-3.5009999 3.1289999 0.93199998
-3.506 3.141 0.912
-3.503 3.131 0.89200002
-3.4960001 3.1129999 0.87
-3.4979999 3.119 0.85000002
-3.5020001 3.1289999 0.83099997
-3.4990001 3.1210001 0.81
-3.503 3.131 0.79000002
-3.493 3.1040001 0.76899999
-3.5 3.1229999 0.75
-3.5009999 3.1229999 0.72899997
-3.5009999 3.1240001 0.70899999
-3.5020001 3.125 0.68900001
-3.5039999 3.1300001 0.66900003
-3.497 3.112 0.648
-3.4990001 3.1170001 0.62800002
-3.4990001 3.1170001 0.60799998
-3.5 3.118 0.588
-3.4949999 3.105 0.56800002
-3.5020001 3.122 0.54799998
-3.4990001 3.115 0.528
-3.5009999 3.119 0.50800002
-3.5050001 3.1289999 0.48800001
-3.497 3.1070001 0.46700001
-3.4949999 3.1029999 0.447
-3.4979999 3.1110001 0.42699999
-3.4949999 3.1029999 0.40700001
-3.503 3.1210001 0.38699999
-3.5009999 3.1170001 0.366
-3.5 3.112 0.34599999
-3.4990001 3.112 0.32600001
-3.497 3.1029999 0.30599999
-3.497 3.1029999 0.28600001
-3.493 3.0940001 0.266
-3.497 3.1029999 0.24600001
-3.5009999 3.112 0.22499999
-3.4960001 3.098 0.205
-3.503 3.1159999 0.185
-3.5050001 3.1199999 0.16500001
-3.5050001 3.1199999 0.145
-3.497 3.0999999 0.125
-3.5 3.1070001 0.105
-3.4960001 3.096 0.085000001
-3.5 3.1059999 0.064000003
-3.4860001 3.0710001 0.045000002
-3.48 3.0550001 0.025
-3.5020001 3.1029999 2.174
-3.507 3.1159999 2.1559999
-3.5150001 3.135 2.1389999
-3.5220001 3.1530001 2.1210001
-3.5320001 3.1760001 2.1040001
-3.5309999 3.174 2.0829999
-3.529 3.168 2.0610001
-3.53 3.171 2.0409999
-3.5309999 3.174 2.0209999
-3.5309999 3.1719999 2
-3.5320001 3.174 1.98
-3.5320001 3.1719999 1.959
-3.529 3.1659999 1.937
-3.523 3.1500001 1.914
-3.5280001 3.1619999 1.895
-3.529 3.164 1.875
-3.527 3.158 1.853
-3.5280001 3.1600001 1.8329999
-3.526 3.154 1.812
-3.529 3.161 1.7920001
-3.526 3.155 1.77
-3.5309999 3.1659999 1.752
-3.5280001 3.1589999 1.73
-3.5239999 3.148 1.7079999
-3.5250001 3.1500001 1.688
-3.5280001 3.1570001 1.668
-3.527 3.154 1.647
-3.5220001 3.1429999 1.625
-3.527 3.154 1.6059999
-3.5239999 3.1470001 1.585
-3.5250001 3.1489999 1.5650001
-3.523 3.142 1.543
-3.5220001 3.1389999 1.523
-3.523 3.141 1.503
-3.5239999 3.1429999 1.482
-3.5250001 3.145 1.462
-3.5250001 3.1470001 1.442
-3.523 3.1389999 1.421
-3.527 3.1500001 1.401
-3.5209999 3.1329999 1.3789999
-3.523 3.1400001 1.36
-3.5239999 3.141 1.339
-3.5250001 3.1429999 1.319
-3.5280001 3.1489999 1.299
-3.523 3.1370001 1.278
-3.5220001 3.1340001 1.257
-3.5250001 3.1400001 1.238
-3.523 3.1370001 1.217
-3.5220001 3.1329999 1.196
-3.5209999 3.131 1.176
-3.5239999 3.1370001 1.156
-3.5239999 3.138 1.136
-3.5220001 3.1300001 1.115
-3.5239999 3.1359999 1.095
-3.5250001 3.1370001 1.075
-3.5239999 3.1340001 1.054
-3.526 3.1389999 1.034
-3.52 3.122 1.013
-3.5239999 3.132 0.99299997
-3.5239999 3.132 0.97299999
-3.523 3.1300001 0.95300001
