ply
format ascii 1.0
comment PCL generated
element vertex 671
property float x
property float y
property float z
element camera 1
property float view_px
property float view_py
property float view_pz
property float x_axisx
property float x_axisy
property float x_axisz
property float y_axisx
property float y_axisy
property float y_axisz
property float z_axisx
property float z_axisy
property float z_axisz
property float focal
property float scalex
property float scaley
property float centerx
property float centery
property int viewportx
property int viewporty
property float k1
property float k2
end_header
2.7875426 10.568944 0.016285714
2.8517714 10.560484 0.047132365
2.9484038 10.559016 0.050130758
3.0198674 10.563251 0.075483337
3.5687609 10.581065 0.032293584
3.6504383 10.584217 0.049062517
3.7513766 10.583573 0.047868408
3.81955 10.570891 0.045669734
4.3749413 10.578986 0.07022091
4.4463229 10.571921 0.045970134
4.5488834 10.563238 0.047844712
4.6215625 10.561375 0.025770834
2.7861028 10.642843 0.013862068
2.8481979 10.674611 0.047963575
2.9488511 10.686068 0.049801439
3.0177345 10.677065 0.074234359
3.5534825 10.649813 0.04991072
3.6461668 10.608251 0.066791669
3.7544999 10.615499 0.071500003
3.8182003 10.640501 0.044500005
4.3753204 10.648769 0.073909096
4.4394207 10.666715 0.041522183
4.5491171 10.679347 0.048623517
4.6175666 10.672199 0.021766668
2.7926669 10.706 0.0086666672
2.8504155 10.703944 0.053584903
2.9358799 10.703879 0.05963999
3.0179999 10.702 0.090000004
3.5715804 10.75239 0.048202202
3.6509755 10.782721 0.050666668
3.7488763 10.77542 0.050516397
3.827188 10.765589 0.048992489
4.5573335 10.703334 0.037
3.5772221 10.806334 0.012333333
3.6326001 10.803599 0.0032000002
3.7 10.8 0.021
2.8797922 10.5669 0.12486111
2.94906 10.560696 0.14999618
3.0458033 10.562572 0.15382507
3.1133599 10.56968 0.18076001
3.5781276 10.591779 0.1477091
3.6568804 10.590506 0.14828667
3.7515237 10.584264 0.14777435
3.8178921 10.570955 0.14691401
4.2818041 10.584482 0.17537497
4.3486099 10.577164 0.14591554
4.4518156 10.566916 0.14845246
4.530169 10.567689 0.13055843
2.8794026 10.651668 0.1252165
2.9465203 10.680429 0.14939761
3.0485806 10.686104 0.15118885
3.1128211 10.682285 0.18307146
3.5734999 10.645142 0.14907956
3.6381223 10.605445 0.14895947
3.7328463 10.606539 0.15653847
3.8214443 10.638445 0.14966667
4.2812743 10.645794 0.18173529
4.3398929 10.66536 0.14367001
4.4497404 10.681371 0.1487072
4.5230803 10.67732 0.12413997
2.8888004 10.703402 0.12313334
2.9480846 10.705159 0.15593618
3.0298812 10.704548 0.16390476
3.1085 10.702499 0.18200001
3.5838251 10.751642 0.15131287
3.6510937 10.784534 0.14899218
3.7492635 10.778537 0.14978877
3.8229749 10.76961 0.14688429
4.3470001 10.703001 0.14044446
4.4934998 10.7045 0.12549999
4.5 10.706 0.156
3.5901666 10.800834 0.14266667
3.6375 10.801499 0.1655
3.7 10.801 0.186
2.9708161 10.567406 0.23150004
3.0475495 10.563279 0.25174156
3.142122 10.570277 0.2564733
3.2084167 10.575417 0.29158336
3.575403 10.591386 0.25122812
3.6566923 10.591148 0.25118592
3.7519996 10.587185 0.24889338
3.8168211 10.575916 0.24749477
4.1860003 10.587786 0.28678569
4.2514701 10.581286 0.25095496
4.3493948 10.570662 0.24909194
4.4335866 10.56984 0.23462072
2.9702973 10.653385 0.23631884
3.0468171 10.685348 0.24872072
3.1429374 10.685077 0.25456259
3.207875 10.682626 0.29175001
3.5738263 10.643141 0.24863511
3.6342108 10.60538 0.24717107
3.7295558 10.60361 0.24727777
3.8145454 10.631272 0.25727272
4.1899042 10.647288 0.28805768
4.2426176 10.660053 0.248133
4.3494587 10.683348 0.25006482
4.4290962 10.676207 0.22998782
2.9791739 10.707171 0.22380434
3.0473309 10.705796 0.25617319
3.131578 10.704465 0.26517779
3.5834205 10.754148 0.25012037
3.6498151 10.787668 0.24837963
3.7490602 10.781464 0.24862657
3.8231711 10.775237 0.24948359
4.2612 10.7091 0.26300001
4.4353333 10.704 0.22133335
3.5904002 10.802268 0.25766668
3.6297002 10.804001 0.26579997
3.7130001 10.802 0.264
3.8269999 10.801 0.28999999
3.0650945 10.567862 0.34037772
3.1495993 10.570151 0.35053122
3.2334363 10.574636 0.36031795
3.5730784 10.593076 0.35089067
3.6558478 10.591402 0.34841698
3.7522793 10.588761 0.34893012
3.8161905 10.580715 0.34786901
4.0906367 10.590093 0.38845453
4.1522365 10.582939 0.35306835
4.2464871 10.575685 0.34978309
4.3352556 10.57115 0.33860335
3.0611763 10.65464 0.34443536
3.153239 10.692496 0.34288079
3.238795 10.685756 0.35141844
3.3010001 10.687 0.39700001
3.571857 10.643672 0.34960347
3.6386254 10.605141 0.35512501
3.7361307 10.605043 0.35943475
3.8133082 10.634846 0.3418462
4.0914288 10.640858 0.39385715
4.148963 10.657223 0.35160658
4.2492104 10.687002 0.3503513
4.3330889 10.679089 0.33583325
3.0732355 10.707913 0.33523655
3.14781 10.706563 0.35477766
3.2297735 10.706677 0.36901191
3.5814767 10.751253 0.35110039
3.6502256 10.790108 0.34794557
3.7504218 10.784319 0.34945142
3.8231463 10.776809 0.35114545
4.1478181 10.703227 0.36840913
4.223 10.70225 0.34750003
4.3292003 10.7038 0.33200002
3.5889199 10.803159 0.33967999
3.6467171 10.803476 0.3606739
3.7280002 10.803 0.35666665
3.8264999 10.801001 0.3635
3.096 10.58 0.405
3.1564047 10.573874 0.44195905
3.2475784 10.576929 0.44940978
3.3253844 10.580564 0.46647474
3.5728297 10.592679 0.44595748
3.6565521 10.592346 0.44870093
3.75226 10.588874 0.44934252
3.8138602 10.579195 0.44938904
3.9902501 10.592751 0.48774999
4.0576129 10.586895 0.45681769
4.1497211 10.579542 0.4478111
4.2419858 10.573101 0.44133803
4.3086672 10.576334 0.41033334
3.0907502 10.630751 0.40849999
3.1425154 10.651564 0.44871268
3.2573993 10.686301 0.44030002
3.333544 10.67737 0.45986959
3.5699961 10.640832 0.45003748
3.639951 10.606597 0.45262197
3.7359354 10.606518 0.45680642
3.8108997 10.628499 0.46470004
3.9990001 10.613 0.48300001
4.0570998 10.657059 0.45303661
4.1504254 10.687835 0.44960827
4.2397842 10.685594 0.43916216
4.3049998 10.667 0.41260001
3.164233 10.711638 0.43944907
3.2471473 10.710803 0.45125824
3.3251874 10.708064 0.46714997
3.5781074 10.750646 0.44894677
3.6493633 10.791335 0.45123532
3.7499499 10.786795 0.45107242
3.8231144 10.781195 0.44992036
4.0637083 10.704042 0.46637499
4.1391463 10.703219 0.43987799
4.2345505 10.7024 0.43820006
3.585392 10.808176 0.44884309
3.646322 10.802628 0.44616127
3.7212734 10.802364 0.43954548
3.829 10.802999 0.42750001
3.1888521 10.578222 0.51370376
3.2524462 10.577371 0.54606301
3.3462918 10.580019 0.55074549
3.4171572 10.584471 0.57449007
3.5733333 10.593665 0.55219442
3.6577094 10.592776 0.54999989
3.7523785 10.590527 0.54943943
3.8136981 10.581924 0.54490578
3.9706941 10.587027 0.55441439
4.0498629 10.581868 0.54890776
4.1472411 10.575629 0.5432772
4.2133121 10.577625 0.51049995
3.1862431 10.642137 0.51400006
3.232904 10.653643 0.56149572
3.3562922 10.668829 0.53846341
3.4240415 10.669459 0.56095833
3.5687053 10.640431 0.54900688
3.640625 10.60681 0.54982162
3.7321997 10.605572 0.55337143
3.8254669 10.6164 0.55793339
3.9628327 10.652563 0.55732274
4.0423875 10.67795 0.53920221
4.1444554 10.685912 0.5412069
4.2214546 10.654274 0.51190913
3.1947501 10.707251 0.50650001
3.2566762 10.713432 0.54299074
3.3467071 10.711516 0.55127448
3.4196115 10.710204 0.57533324
3.5764692 10.750998 0.54927713
3.651787 10.793448 0.54881412
3.7502089 10.788744 0.54862368
3.8215566 10.780949 0.55072153
3.9722779 10.705307 0.57263899
4.0362687 10.70364 0.54550737
4.1357918 10.702501 0.54933333
4.2010002 10.7 0.51499999
3.5853055 10.806739 0.5508225
3.6439788 10.804811 0.5517686
3.735348 10.802872 0.55356526
3.8269999 10.802 0.505
3.2804704 10.581608 0.62409806
3.3494911 10.581264 0.64804721
3.4403417 10.583367 0.65364015
3.5468183 10.590787 0.65333331
3.6608012 10.592934 0.64283007
3.7521091 10.591388 0.64995825
3.8566246 10.590236 0.66421258
3.9505899 10.583058 0.6498735
4.0482001 10.577081 0.64904487
4.1160269 10.575029 0.62013519
3.2781768 10.649396 0.62638235
3.3218424 10.653213 0.67378575
3.4572971 10.635624 0.6418919
3.5659373 10.64261 0.65057135
3.6362183 10.60883 0.65614301
3.744978 10.604204 0.65295446
3.8706994 10.643228 0.65142
3.9396956 10.678539 0.63800555
4.0467014 10.690876 0.64657861
4.1182609 10.67087 0.61334789
3.2862053 10.715735 0.61632359
3.3511498 10.717793 0.64732426
3.4461684 10.71534 0.65414792
3.5674531 10.745115 0.64837605
3.6512191 10.793582 0.64882851
3.7534981 10.790376 0.64927268
3.8315003 10.771029 0.65261817
3.9451873 10.70449 0.64642715
4.0391321 10.704717 0.64226413
4.1025 10.702499 0.61600006
3.5854921 10.807095 0.64758742
3.6479859 10.805476 0.65058106
3.7293952 10.802341 0.65026319
3.8210001 10.801 0.611
3.3728704 10.584311 0.72954553
3.44754 10.585496 0.74760622
3.5335534 10.590051 0.75607896
3.6598885 10.593493 0.74965429
3.7518656 10.590873 0.74869859
3.8522649 10.587605 0.75136733
3.9514704 10.580653 0.75147712
4.0222507 10.574684 0.72741669
3.3681157 10.643656 0.73934281
3.4315617 10.634055 0.76994741
3.5660093 10.626596 0.73133337
3.6411247 10.612374 0.74971026
3.7400689 10.604413 0.75468963
3.8564446 10.622666 0.74033338
3.9542556 10.689103 0.74155825
4.0242276 10.668364 0.72400004
3.3783805 10.720581 0.72569615
3.4504049 10.721581 0.74892509
3.5513988 10.738986 0.75121683
3.6492696 10.795559 0.7396667
3.8395727 10.762856 0.75009304
3.9436471 10.705163 0.7469908
4.0105715 10.705787 0.71571428
3.5859129 10.81114 0.74605274
3.6510787 10.80805 0.752639
3.7320683 10.804776 0.75348598
3.816 10.8 0.764
3.4698367 10.589184 0.8363477
3.5492272 10.589971 0.84779
3.6469915 10.590492 0.85552537
3.7548366 10.59234 0.85043746
3.8496101 10.585943 0.85018861
3.9298 10.578598 0.82797498
3.457581 10.640153 0.84444857
3.5441501 10.611503 0.84767503
3.6573949 10.616024 0.83965433
3.7376986 10.605449 0.84736854
3.8717499 10.6411 0.84864998
3.9313946 10.68 0.82347357
4.0029998 10.601 0.81199998
3.4721658 10.724874 0.83614957
3.5484955 10.742074 0.84936148
3.6509426 10.794944 0.84097135
3.9188464 10.706616 0.82511544
3.5858312 10.810619 0.84871829
3.7328413 10.806958 0.85456455
3.8225 10.803601 0.87260002
3.4949999 10.58 0.90100002
3.5620348 10.590816 0.9379999
3.6482737 10.59138 0.9500736
3.7502325 10.57443 0.94431007
3.8333206 10.579272 0.93337035
3.4889998 10.624667 0.90266669
3.5462697 10.63884 0.9581117
3.6456339 10.605439 0.95202428
3.730921 10.60629 0.94826317
3.8335004 10.628536 0.94882143
3.5754998 10.596499 1.0113
3.656311 10.590755 1.0417459
3.7514327 10.591374 1.0450373
3.5630181 10.640404 1.0499594
3.6343226 10.608736 1.0556465
3.8110585 10.59094 1.3465883
3.6478078 10.614305 1.3487414
3.7477856 10.612798 1.350674
3.8138795 10.613334 1.3491213
3.687 10.598 1.449
3.7734673 10.594934 1.4336668
3.810462 10.590769 1.4474617
3.5620565 10.644777 1.4483665
3.6471963 10.617468 1.4485431
3.7492878 10.615581 1.4515826
3.8138285 10.611944 1.454057
3.6210001 10.599 1.528
3.7594445 10.596444 1.5323335
3.8106003 10.5944 1.5438
3.5628476 10.646762 1.5503306
3.648838 10.620127 1.548701
3.7531731 10.617635 1.5508177
3.8136139 10.614703 1.5490683
3.5623877 10.750787 1.547924
3.6029999 10.722 1.5599999
3.7938004 10.7318 1.5484
3.8100526 10.751265 1.5528423
3.5763817 10.823533 1.5517484
3.7774999 10.59775 1.6289999
3.8059998 10.591999 1.6509999
3.560848 10.648249 1.6502815
3.6475911 10.622554 1.6475661
3.7501669 10.620299 1.6514435
3.8118398 10.618441 1.64814
3.5624859 10.750825 1.6494143
3.7932861 10.738429 1.6620001
3.8144443 10.763776 1.6494999
3.5739355 10.828154 1.6499932
3.6482799 10.829821 1.6492046
3.750282 10.821468 1.6486068
3.8137107 10.81042 1.6548685
3.7980001 10.596 1.7410001
3.8076 10.5927 1.7544001
3.5607388 10.649784 1.7490853
3.648505 10.62555 1.7485913
3.7509816 10.621434 1.7488782
3.8125005 10.614799 1.7470502
3.5608058 10.750084 1.7489696
3.7853751 10.726375 1.75975
3.8060908 10.768182 1.7597274
3.5723927 10.830066 1.7496827
3.6483965 10.834967 1.7483045
3.7495787 10.824855 1.7467417
3.8121214 10.813317 1.7483903
3.7939999 10.584 1.895
3.8060002 10.59475 1.859875
3.5593638 10.649706 1.8494405
3.648957 10.626844 1.8484268
3.7533793 10.623294 1.8502433
3.8148503 10.616626 1.843825
3.5585661 10.750349 1.8509392
3.5543334 10.576667 1.941
3.6930001 10.596 1.903
3.7903335 10.584333 1.9620001
3.8067145 10.594001 1.9402858
3.5594976 10.652131 1.9490798
3.6489227 10.626938 1.9492549
3.7527907 10.620872 1.9490408
3.8107164 10.617487 1.9503075
3.5578661 10.748802 1.9505244
3.5633514 10.582797 2.0813782
3.6486661 10.580373 2.0827279
3.7515001 10.593 2.0409999
3.8042221 10.595222 2.040889
3.5562277 10.642778 2.0456865
3.6519732 10.621827 2.0388846
3.7535062 10.623421 2.0473878
3.8111815 10.616212 2.0576367
3.5571487 10.749654 2.0507593
3.560766 10.48048 2.1852598
3.6463299 10.481216 2.1795571
3.7162499 10.476 2.1950002
3.5533998 10.545206 2.1464815
3.6508727 10.533319 2.1361177
3.7353334 10.564239 2.1589527
3.5402758 10.649135 2.1443946
3.6819999 10.604201 2.1486001
3.7674527 10.623867 2.1437564
3.8102307 10.61905 2.1494615
3.5511055 10.750338 2.1474402
3.7917001 10.7382 2.1480999
3.5742335 10.833695 2.1502023
3.5559552 10.383181 2.2815397
3.6467674 10.380273 2.2801011
3.5463026 10.445968 2.2456038
3.6490233 10.433893 2.234319
3.7189231 10.451577 2.2538846
3.535378 10.548343 2.2488232
3.6817892 10.543054 2.2452631
3.7529228 10.560462 2.2342308
3.806 10.597 2.2125001
3.5440128 10.65001 2.2515452
3.6772499 10.607 2.2460001
3.7767165 10.630717 2.2393832
3.8113751 10.621042 2.2402916
3.471909 10.787909 2.2646365
3.5490894 10.753679 2.2478909
3.7878129 10.750876 2.2361875
3.8056667 10.796 2.2540002
3.4735508 10.825503 2.2585609
3.5588129 10.8426 2.253063
3.5901821 10.906909 2.2842729
3.5533543 10.281688 2.382781
3.6427307 10.279527 2.3838928
3.5422692 10.343665 2.3444788
3.645632 10.334552 2.3370159
3.71872 10.361839 2.3594797
3.5262439 10.447868 2.3516781
3.6721578 10.445106 2.352263
3.7323751 10.4195 2.3225
3.5344648 10.548604 2.3464966
3.67925 10.544001 2.3460629
3.5474365 10.648768 2.3429506
3.6773999 10.6098 2.3584001
3.7727425 10.646629 2.3461716
3.8165002 10.641751 2.3403749
3.461 10.776 2.309
3.5536926 10.753588 2.3510239
3.7896667 10.752167 2.3531666
3.8065999 10.762401 2.3248003
3.4860001 10.815 2.302
3.5532188 10.85453 2.3458998
3.6925001 10.886499 2.3645
3.770261 10.842377 2.3428979
3.8095605 10.827319 2.3520398
3.5769136 10.922565 2.3599303
3.6484869 10.936954 2.3501675
3.4979999 10.181 2.4990001
3.5504446 10.18165 2.4818122
3.6369495 10.181537 2.4793756
3.4949999 10.254 2.4505
3.5355122 10.244227 2.4444165
3.6445782 10.234377 2.4385328
3.7101109 10.261111 2.4631667
3.497 10.342 2.4860001
3.5158889 10.349217 2.4486761
3.657429 10.347332 2.4515715
3.7186251 10.315501 2.420125
3.5232828 10.446305 2.4482281
3.6698887 10.447835 2.452389
3.5410638 10.536503 2.4335642
3.6617775 10.527222 2.4407778
3.5528667 10.655084 2.4564331
3.643625 10.639625 2.4512498
3.7658 10.648081 2.4442399
3.8187144 10.637571 2.4392858
3.5546913 10.752594 2.4478009
3.7874286 10.745643 2.4477143
3.8173332 10.775001 2.4526668
3.5524998 10.852199 2.4484088
3.6989999 10.889 2.484
3.7773595 10.840559 2.4393799
3.8076468 10.824352 2.4529409
3.5654416 10.952325 2.4497275
3.6508112 10.978694 2.4396722
3.712184 10.960025 2.4369738
3.5850911 11.006545 2.4826365
3.6542425 11.009359 2.483443
3.7045832 11.01425 2.4806666
3.4937503 10.086812 2.5844374
3.5482521 10.08042 2.5810332
3.6318378 10.08281 2.580265
3.4953973 10.152192 2.5613713
3.5391099 10.141514 2.5381448
3.6406991 10.139179 2.5367713
3.7081113 10.172111 2.5681112
3.4966457 10.232162 2.5626452
3.5070224 10.250818 2.54649
3.6529412 10.251824 2.5539999
3.7090001 10.213333 2.5191667
3.4990001 10.307 2.5676668
3.5132828 10.346661 2.5483372
3.6594706 10.344295 2.5596471
3.5312345 10.432505 2.5328827
3.6408179 10.421547 2.5440907
3.5583339 10.534 2.5318334
3.5569324 10.65365 2.5505495
3.6325831 10.636085 2.5644169
3.7692308 10.648269 2.5477695
3.8226669 10.630333 2.5350001
3.5521569 10.747063 2.548697
3.785444 10.740335 2.5512221
3.8210001 10.778 2.5514998
3.5572903 10.847709 2.550195
3.6954999 10.891 2.5355
3.7792609 10.837522 2.5398262
3.8088641 10.8215 2.5527725
3.5540698 10.952871 2.5422797
3.686625 10.95925 2.54775
3.7141113 10.974111 2.5565555
3.5736341 11.014368 2.5311539
3.6576898 11.026257 2.5255692
3.7093337 11.026668 2.541667
3.4870868 9.9846945 2.6838698
3.5470841 9.981699 2.6810513
3.6264687 9.9817009 2.6802557
3.4892316 10.052108 2.6567876
3.5469913 10.035436 2.634517
3.6383007 10.038818 2.6404684
3.4923568 10.145422 2.6492767
3.5070415 10.155293 2.6515837
3.6608751 10.132531 2.6360941
3.7152002 10.1314 2.6383998
3.4958787 10.228032 2.6460171
3.5059352 10.255422 2.6474524
3.6472354 10.248882 2.6501765
3.5220475 10.332917 2.6333573
3.6394 10.328 2.6420002
3.5423334 10.444334 2.6100001
3.551667 10.594334 2.6416669
3.5562365 10.652218 2.6497278
3.6207147 10.627982 2.6576078
3.7712631 10.652105 2.6432631
3.8226669 10.634667 2.645
3.5514045 10.749526 2.6506672
3.7828002 10.739934 2.6498666
3.8257148 10.789 2.6562858
3.5603576 10.846131 2.6405656
3.6849999 10.895 2.6229999
3.7782998 10.838901 2.6407001
3.8100586 10.824647 2.6518233
3.5589631 10.942135 2.6530869
3.6876252 10.9555 2.6597502
3.7088749 10.96125 2.6475003
3.5575926 11.039644 2.6537776
3.692143 11.056571 2.6405714
3.7086666 11.037222 2.6485555
3.5650001 11.101 2.691
3.677 11.105 2.6900001
3.4828999 9.8815994 2.7816999
3.5435998 9.8801336 2.7873335
3.6193123 9.8890009 2.7693748
3.4817607 9.960721 2.7444272
3.5525889 9.9409742 2.7278693
3.6354241 9.9419985 2.7408812
3.484139 10.05128 2.7474072
3.5031433 10.052856 2.7690001
3.6581926 10.02827 2.733
3.7049999 10.036 2.7309999
3.4910336 10.146592 2.7477269
3.5170002 10.160333 2.7617221
3.6480954 10.144191 2.7451429
3.4952354 10.216705 2.7261176
3.5187368 10.239473 2.7379653
3.6310003 10.238454 2.7279093
3.526 10.3225 2.7195001
3.546 10.591 2.7969999
3.5567482 10.647143 2.7480853
3.6297951 10.621169 2.7539396
3.7703636 10.654318 2.7472725
3.8239999 10.644 2.734
3.5508947 10.745488 2.7433648
3.7870555 10.742334 2.7451668
3.8232501 10.77 2.7514999
3.5610733 10.831855 2.7506096
3.6329999 10.867 2.7679999
3.7900002 10.829001 2.7277999
3.8146667 10.821221 2.7550004
3.567441 10.952868 2.7443335
3.6374998 10.952667 2.76
3.7095001 10.976833 2.7413335
3.5577185 11.050128 2.753197
3.6949997 11.070749 2.7465
3.7065001 11.071 2.7635
3.5615003 11.125272 2.7678185
3.7035 11.14075 2.7577498
3.4777145 9.7820005 2.8857143
3.5481 9.7827492 2.8818498
3.6135001 9.777667 2.8876667
3.4743276 9.8538818 2.8493133
3.5535381 9.8355398 2.8344617
3.6293032 9.8451805 2.8444853
3.4763234 9.9495068 2.8476198
3.5082498 9.9624996 2.8612499
3.6464293 9.9409523 2.8332386
3.7060001 9.974 2.813
3.4808991 10.052672 2.845886
3.5186002 10.0872 2.8772001
3.6374617 10.04754 2.8439233
3.4906254 10.128775 2.8245504
3.5325654 10.139391 2.8448691
3.631778 10.127111 2.8311112
3.516 10.2205 2.8134999
3.582 10.589999 2.8631999
3.6053333 10.594667 2.8746669
3.4946663 10.657888 2.8886669
3.5433693 10.638791 2.8481617
3.6392097 10.620334 2.8472474
3.7621498 10.6377 2.8471503
3.8122499 10.66425 2.8777499
3.4952502 10.7225 2.8876247
3.5321627 10.737762 2.8468804
3.7867498 10.750083 2.8401666
3.8171113 10.741666 2.8538888
3.5609207 10.829764 2.845263
3.6463335 10.866 2.8343334
3.7840002 10.842501 2.86375
3.8065 10.823 2.8334999
3.5735261 10.981261 2.8333421
3.6214795 10.97804 2.8412797
3.5602283 11.046913 2.8535559
3.6372309 11.015078 2.8725386
3.7087777 11.051557 2.8516667
3.5611248 11.137732 2.855
3.691 11.154 2.888
3.7090003 11.162572 2.8551431
3.4723332 9.691556 2.9786665
3.5560002 9.6834497 2.9822502
3.6045001 9.6774998 2.9905
3.4669418 9.7532206 2.9527934
3.5547047 9.7346573 2.9369996
3.6226258 9.7540417 2.9527507
3.468442 9.8451939 2.9477668
3.5135 9.8629999 2.9675
3.6267002 9.8459005 2.9394004
3.474797 9.9461527 2.9453218
3.5076666 9.9793339 2.9459999
3.6256874 9.9523745 2.9482498
3.4825935 10.03175 2.9330623
3.5447891 10.040316 2.9383159
3.6201112 10.041999 2.9212222
3.4726865 10.652457 2.9568233
3.5450759 10.628871 2.9461241
3.6452484 10.629447 2.9488556
3.7249033 10.630323 2.9656126
3.8404999 10.648001 2.9500835
3.4681277 10.727919 2.9529998
3.5203333 10.769445 2.9285557
3.7973335 10.791 2.9213333
3.8415558 10.728445 2.9512219
3.471 10.803 2.9779999
3.563417 10.847667 2.9418335
3.6565001 10.867499 2.9484999
3.78775 10.855751 2.96275
3.802 10.832 2.9235001
3.5870004 10.945601 2.9965999
3.620667 10.986667 2.9960001
3.5705068 11.052397 2.9431694
3.6343257 11.031217 2.9559135
3.7076001 11.0732 2.9392002
3.5623796 11.148932 2.9504139
3.7062001 11.155601 2.9516003
0 0 0 1 0 0 0 1 0 0 0 1 0 0 0 0 0 671 1 0 0
