ply
format ascii 1.0
comment PCL generated
element vertex 1916
property float x
property float y
property float z
element camera 0
property float view_px
property float view_py
property float view_pz
property float x_axisx
property float x_axisy
property float x_axisz
property float y_axisx
property float y_axisy
property float y_axisz
property float z_axisx
property float z_axisy
property float z_axisz
property float focal
property float scalex
property float scaley
property float centerx
property float centery
property int viewportx
property int viewporty
property float k1
property float k2
end_header
26.086 3.1789999 1.424
26.087999 3.177 1.415
26.089001 3.175 1.406
26.09 3.1730001 1.397
26.087999 3.174 1.387
26.091999 3.1689999 1.3789999
26.09 3.171 1.368
26.087999 3.1719999 1.358
26.086 3.174 1.347
26.087 3.1719999 1.3380001
26.091 3.1670001 1.33
26.086 3.1719999 1.319
26.069 3.1930001 1.303
26.061001 3.2019999 1.291
26.059 3.204 1.281
26.052999 3.211 1.2690001
26.061001 3.2 1.262
26.056 3.2060001 1.251
26.054001 3.2079999 1.2410001
26.049 3.214 1.23
26.049999 3.2119999 1.221
26.054001 3.207 1.2130001
26.045 3.217 1.2
26.052 3.207 1.193
26.056 3.2019999 1.1849999
26.051001 3.2079999 1.174
26.055 3.2019999 1.166
26.059 3.197 1.158
26.056999 3.1989999 1.148
26.042 3.2160001 1.1339999
26.052 3.2030001 1.128
26.047001 3.2090001 1.117
26.045 3.2119999 1.107
26.048 3.2060001 1.098
26.049 3.2049999 1.089
26.052999 3.1989999 1.081
26.048 3.2049999 1.0700001
26.052 3.2 1.062
26.049 3.2019999 1.052
26.047001 3.2049999 1.0420001
26.051001 3.1989999 1.034
26.042 3.2090001 1.022
26.052 3.197 1.015
26.049999 3.1989999 1.006
26.079 3.1630001 1.0039999
26.089001 3.1500001 0.99699998
26.089001 3.1489999 0.98799998
26.087 3.151 0.97799999
26.097 3.138 0.97100002
26.091 3.145 0.95999998
26.089001 3.1470001 0.94999999
26.099001 3.1340001 0.94300002
26.096001 3.1370001 0.93300003
26.097 3.135 0.92400002
26.087999 3.1459999 0.912
26.086 3.148 0.90200001
26.101999 3.128 0.89700001
26.099001 3.1300001 0.88700002
26.097 3.1329999 0.87699997
26.097 3.131 0.86799997
26.091 3.138 0.85699999
26.091999 3.1370001 0.84799999
26.083 3.1470001 0.83600003
26.09 3.138 0.829
26.09 3.1370001 0.81900001
26.097 3.128 0.81099999
26.084999 3.1429999 0.79900002
26.089001 3.1370001 0.79100001
26.105 3.1170001 0.78500003
26.096001 3.1270001 0.77399999
26.103001 3.118 0.76599997
26.097 3.125 0.755
26.091 3.132 0.745
26.104 3.115 0.73799998
26.094999 3.1259999 0.727
26.098 3.1210001 0.71799999
26.101 3.1170001 0.70899999
26.09 3.1300001 0.69800001
26.093 3.125 0.68900001
26.09 3.128 0.67900002
26.091 3.1270001 0.67000002
26.097 3.119 0.662
26.091999 3.1259999 0.65200001
26.098 3.1170001 0.64300001
26.086 3.131 0.63200003
26.094999 3.1199999 0.62400001
26.105 3.1059999 0.616
26.106001 3.105 0.60699999
26.093 3.1199999 0.59600002
26.084 3.131 0.58499998
26.097 3.1140001 0.57800001
26.094 3.1170001 0.56800002
26.091 3.1199999 0.55800003
26.094 3.1159999 0.55000001
26.091 3.119 0.54000002
26.098 3.1099999 0.53100002
26.094999 3.1129999 0.52200001
26.101 3.105 0.51300001
26.089001 3.1199999 0.50199997
26.099001 3.1070001 0.49399999
26.096001 3.1099999 0.48500001
26.093 3.1140001 0.47499999
26.120001 3.079 0.46799999
26.132999 3.062 0.46000001
26.127001 3.069 0.44999999
26.124001 3.073 0.44100001
26.125999 3.0699999 0.43099999
26.125999 3.069 0.42199999
26.121 3.075 0.412
26.121 3.0739999 0.403
26.127001 3.066 0.39399999
26.127001 3.0650001 0.38499999
26.127001 3.0639999 0.375
26.118 3.075 0.36500001
26.132999 3.0550001 0.35699999
26.118 3.0739999 0.347
26.121 3.0699999 0.33700001
26.118 3.073 0.32800001
26.129999 3.0569999 0.31900001
26.121 3.0680001 0.30899999
26.127001 3.0599999 0.30000001
26.124001 3.0639999 0.29100001
26.122999 3.063 0.28099999
26.122999 3.063 0.27200001
26.118 3.069 0.26199999
26.129 3.0539999 0.25299999
26.120001 3.0650001 0.244
26.125999 3.0569999 0.234
26.131001 3.05 0.22499999
26.125999 3.056 0.21600001
26.132 3.0480001 0.206
26.122 3.0599999 0.197
26.113001 3.0699999 0.18700001
26.110001 3.0739999 0.178
26.108999 3.0739999 0.168
26.094 3.0929999 0.15899999
26.094 3.092 0.15000001
26.097 3.0880001 0.14
26.106001 3.076 0.131
26.083 3.1029999 0.122
26.096001 3.0869999 0.112
26.091999 3.0910001 0.103
26.101 3.079 0.093999997
26.094999 3.0869999 0.083999999
26.101 3.079 0.075000003
26.091 3.0899999 0.066
26.103001 3.075 0.056000002
26.087 3.0940001 0.046999998
26.096001 3.082 0.037999999
26.099001 3.0780001 0.028000001
26.101999 3.0739999 0.018999999
26.115 3.2509999 2.9820001
26.129 3.234 2.983
26.124001 3.24 2.9660001
26.121 3.243 2.9519999
26.127001 3.2349999 2.9460001
26.124001 3.2379999 2.9319999
26.112 3.2509999 2.911
26.121 3.24 2.9059999
26.124001 3.2360001 2.8970001
26.124001 3.2349999 2.8859999
26.121 3.2379999 2.872
26.115 3.244 2.8559999
26.118 3.24 2.8469999
26.120001 3.237 2.8380001
26.114 3.243 2.822
26.114 3.2420001 2.8099999
26.120001 3.2349999 2.803
26.115999 3.2390001 2.789
26.115999 3.2379999 2.7780001
26.113001 3.2409999 2.7639999
26.110001 3.244 2.7509999
26.110001 3.243 2.74
26.118 3.233 2.734
26.115 3.2360001 2.721
26.113001 3.2379999 2.7079999
26.094999 3.2590001 2.684
26.077 3.279 2.6589999
26.070999 3.286 2.6440001
26.073999 3.2820001 2.635
26.068001 3.289 2.619
26.061001 3.2950001 2.6029999
26.073 3.2809999 2.6010001
26.075001 3.2780001 2.592
26.069 3.2850001 2.576
26.070999 3.2809999 2.5669999
26.065001 3.2880001 2.552
26.063999 3.2880001 2.5409999
26.066999 3.2850001 2.5320001
26.069 3.2809999 2.523
26.068001 3.2820001 2.5109999
26.068001 3.2809999 2.5009999
26.066999 3.2809999 2.4890001
26.073 3.2739999 2.483
26.061001 3.2880001 2.464
26.072001 3.2739999 2.461
26.069 3.277 2.448
26.070999 3.2739999 2.4389999
26.079 3.263 2.434
26.083 3.2579999 2.4260001
26.087999 3.2520001 2.418
26.09 3.2479999 2.4100001
26.096001 3.2409999 2.402
26.097 3.2379999 2.3929999
26.089001 3.247 2.3770001
26.1 3.234 2.3740001
26.093 3.2409999 2.359
26.096001 3.237 2.3499999
26.103001 3.2279999 2.3440001
26.103001 3.227 2.3340001
26.097 3.2349999 2.319
26.099001 3.2309999 2.309
26.101 3.2279999 2.3
26.097 3.2320001 2.2869999
26.096001 3.233 2.276
26.104 3.2219999 2.2709999
26.101 3.2260001 2.2579999
26.091 3.237 2.2409999
26.108 3.217 2.2420001
26.101 3.224 2.227
26.103001 3.221 2.2179999
26.108 3.214 2.21
26.094999 3.2290001 2.1919999
26.094 3.23 2.181
26.099001 3.223 2.174
26.091999 3.2309999 2.1589999
26.094 3.2279999 2.1500001
26.09 3.2320001 2.1370001
26.094999 3.2260001 2.1300001
26.094 3.2260001 2.119
26.093 3.227 2.108
26.091999 3.2279999 2.0969999
26.097 3.221 2.0899999
26.1 3.2160001 2.082
26.096001 3.22 2.069
26.09 3.227 2.056
26.091999 3.224 2.0469999
26.084 3.233 2.0320001
26.09 3.2260001 2.0250001
26.094 3.22 2.017
26.093 3.221 2.006
26.086 3.2279999 1.992
26.093 3.2190001 1.9859999
26.086 3.227 1.972
26.082001 3.2309999 1.96
26.076 3.2379999 1.946
26.042 3.2780001 1.918
26.038 3.283 1.906
26.054001 3.2620001 1.905
26.072001 3.24 1.904
26.086 3.223 1.902
26.084999 3.223 1.891
26.087 3.22 1.882
26.089001 3.2179999 1.873
26.087999 3.2179999 1.863
26.093 3.2119999 1.855
26.084999 3.221 1.841
26.094999 3.207 1.836
26.091 3.2119999 1.824
26.094999 3.207 1.816
26.091999 3.21 1.8049999
26.09 3.211 1.794
26.091999 3.2090001 1.785
26.087999 3.2130001 1.773
26.086 3.214 1.762
26.091 3.2079999 1.755
26.08 3.22 1.74
26.094999 3.2019999 1.737
26.096001 3.2 1.728
26.093 3.2030001 1.716
26.083 3.214 1.702
26.086 3.21 1.693
26.086 3.21 1.683
26.080999 3.2149999 1.671
26.084999 3.2090001 1.663
26.080999 3.214 1.652
26.082001 3.2119999 1.642
26.086 3.2060001 1.635
26.082001 3.211 1.623
26.080999 3.2119999 1.613
26.079 3.214 1.602
26.08 3.211 1.5930001
26.091 3.198 1.5880001
26.089001 3.1989999 1.577
26.080999 3.2079999 1.564
26.091999 3.1949999 1.559
26.084 3.204 1.546
26.082001 3.2060001 1.535
26.093 3.1919999 1.53
26.093 3.1919999 1.52
26.083 3.2030001 1.507
26.087 3.198 1.499
26.091 3.1919999 1.4910001
26.082001 3.2019999 1.477
26.096001 3.1849999 1.473
26.084999 3.197 1.459
26.09 3.191 1.451
26.093 3.1860001 1.443
26.084999 3.1960001 1.4299999
26.098 3.1789999 1.426
26.094 3.1830001 1.415
26.1 3.175 1.4069999
26.099001 3.177 1.397
26.094 3.1819999 1.386
26.083 3.194 1.372
26.096001 3.178 1.367
26.091999 3.1830001 1.3559999
26.093 3.181 1.347
26.087999 3.1860001 1.336
26.093 3.1800001 1.3279999
26.080999 3.1930001 1.314
26.073999 3.2019999 1.302
26.068001 3.2079999 1.29
26.063 3.214 1.279
26.058001 3.2190001 1.268
26.065001 3.21 1.261
26.063 3.2119999 1.251
26.07 3.2030001 1.244
26.070999 3.201 1.235
26.077999 3.1919999 1.228
26.063999 3.2090001 1.2130001
26.065001 3.207 1.204
26.066 3.2049999 1.1950001
26.07 3.2 1.187
26.077 3.191 1.1799999
26.065001 3.204 1.1670001
26.063 3.2060001 1.1569999
26.061001 3.2090001 1.146
26.068001 3.1989999 1.1390001
26.069 3.198 1.13
26.054001 3.2149999 1.1160001
26.066999 3.198 1.1109999
26.068001 3.197 1.102
26.066 3.1989999 1.092
26.076 3.1860001 1.085
26.058001 3.2079999 1.071
26.056 3.21 1.061
26.056999 3.2079999 1.052
26.056999 3.207 1.0420001
26.070999 3.1900001 1.0369999
26.065001 3.1960001 1.026
26.069 3.191 1.018
26.080999 3.1760001 1.012
26.094999 3.158 1.006
26.096001 3.1559999 0.99699998
26.097 3.155 0.98699999
26.094 3.1570001 0.977
26.086 3.1670001 0.96600002
26.091999 3.158 0.958
26.087 3.164 0.94700003
26.091 3.1589999 0.93900001
26.101 3.1459999 0.93199998
26.101 3.145 0.92299998
26.101999 3.1440001 0.91399997
26.093 3.154 0.90200001
26.09 3.1570001 0.89200002
26.082001 3.1670001 0.88099998
26.094999 3.1500001 0.87400001
26.086 3.1600001 0.86299998
26.091999 3.152 0.85500002
26.087 3.158 0.84500003
26.097 3.145 0.83700001
26.084999 3.1589999 0.82599998
26.098 3.1429999 0.81900001
26.098 3.142 0.81
26.096001 3.1440001 0.80000001
26.096001 3.1429999 0.79100001
26.097 3.142 0.78100002
26.091 3.1489999 0.77100003
26.098 3.1400001 0.76300001
26.098 3.1389999 0.75400001
26.094999 3.142 0.74400002
26.089001 3.148 0.73299998
26.101999 3.132 0.72600001
26.096001 3.138 0.71600002
26.1 3.1329999 0.70700002
26.1 3.132 0.69800001
26.091 3.1429999 0.68699998
26.094999 3.138 0.67799997
26.094999 3.1370001 0.66900003
26.099001 3.132 0.66000003
26.086 3.1470001 0.64899999
26.089001 3.1429999 0.63999999
26.093 3.1370001 0.63200003
26.1 3.1289999 0.62300003
26.1 3.128 0.61400002
26.1 3.1270001 0.60500002
26.104 3.122 0.59600002
26.094 3.1329999 0.58499998
26.087999 3.1400001 0.57499999
26.094999 3.131 0.56699997
26.091999 3.1340001 0.55699998
26.086 3.141 0.54699999
26.089001 3.1359999 0.53799999
26.093 3.132 0.52899998
26.101999 3.119 0.52100003
26.096001 3.1259999 0.51099998
26.093 3.1289999 0.50199997
26.09 3.1329999 0.49200001
26.09 3.132 0.48300001
26.094 3.1270001 0.47400001
26.094 3.1270001 0.465
26.1 3.118 0.456
26.125 3.086 0.449
26.134001 3.075 0.44100001
26.143999 3.063 0.43200001
26.134001 3.0739999 0.42199999
26.143999 3.0610001 0.41299999
26.131001 3.076 0.403
26.135 3.072 0.39399999
26.138 3.0669999 0.38499999
26.138 3.0669999 0.375
26.141001 3.062 0.366
26.131001 3.073 0.35600001
26.131001 3.073 0.347
26.134001 3.0680001 0.33700001
26.138 3.0639999 0.32800001
26.131001 3.0710001 0.31799999
26.141001 3.059 0.31
26.141001 3.0580001 0.30000001
26.136999 3.062 0.29100001
26.136999 3.0610001 0.28099999
26.131001 3.069 0.271
26.134001 3.0639999 0.26199999
26.139999 3.056 0.25299999
26.146 3.0480001 0.244
26.136999 3.059 0.234
26.146 3.0469999 0.22499999
26.127001 3.0699999 0.215
26.146 3.046 0.206
26.139 3.0539999 0.197
26.125999 3.069 0.18700001
26.124001 3.072 0.177
26.108 3.0910001 0.168
26.112 3.085 0.15899999
26.107 3.0899999 0.149
26.09 3.1110001 0.14
26.097 3.102 0.131
26.103001 3.0940001 0.121
26.097 3.1010001 0.112
26.103001 3.0929999 0.103
26.096001 3.1010001 0.093000002
26.096001 3.1010001 0.083999999
26.096001 3.0999999 0.075000003
26.098 3.096 0.064999998
26.104 3.0880001 0.056000002
26.094999 3.0999999 0.046999998
26.097 3.096 0.037
26.097 3.096 0.028000001
26.080999 3.115 0.018999999
26.134001 3.244 2.9909999
26.131001 3.2460001 2.977
26.134001 3.2420001 2.9679999
26.134001 3.2420001 2.957
26.136999 3.2379999 2.948
26.131001 3.244 2.931
26.134001 3.24 2.9219999
26.134001 3.2390001 2.911
26.131001 3.2420001 2.8970001
26.131001 3.2409999 2.885
26.134001 3.237 2.8759999
26.125 3.247 2.858
26.128 3.243 2.849
26.132999 3.2349999 2.842
26.127001 3.2420001 2.826
26.124001 3.2449999 2.812
26.127001 3.2409999 2.803
26.124001 3.244 2.789
26.129 3.237 2.7820001
26.125999 3.24 2.7690001
26.125999 3.2390001 2.757
26.122999 3.2420001 2.744
26.118 3.2479999 2.7279999
26.105 3.2620001 2.7079999
26.073999 3.299 2.6719999
26.07 3.302 2.6589999
26.076 3.2950001 2.652
26.073 3.2980001 2.6389999
26.075001 3.2950001 2.6300001
26.072001 3.2980001 2.6159999
26.066 3.3050001 2.6010001
26.073999 3.2939999 2.596
26.065001 3.3039999 2.579
26.066999 3.3010001 2.5699999
26.063999 3.3039999 2.556
26.066 3.3010001 2.5469999
26.072001 3.2939999 2.5409999
26.068001 3.2969999 2.527
26.065001 3.3010001 2.5139999
26.076 3.2869999 2.5109999
26.063999 3.3 2.4920001
26.069 3.293 2.4849999
26.066 3.2969999 2.4719999
26.077 3.283 2.4690001
26.070999 3.29 2.454
26.077999 3.28 2.4489999
26.075001 3.2839999 2.4360001
26.084999 3.2709999 2.4319999
26.09 3.2639999 2.425
26.084 3.27 2.411
26.097 3.2550001 2.408
26.097 3.2539999 2.398
26.097 3.253 2.388
26.1 3.2490001 2.3789999
26.110001 3.2360001 2.375
26.112 3.233 2.3659999
26.112 3.233 2.355
26.113001 3.2309999 2.345
26.111 3.233 2.3329999
26.108999 3.234 2.322
26.115 3.227 2.3150001
26.108 3.234 2.3
26.107 3.234 2.289
26.108999 3.2309999 2.28
26.112 3.2279999 2.2709999
26.111 3.2290001 2.26
26.115999 3.2219999 2.2520001
26.103001 3.237 2.234
26.101999 3.237 2.223
26.115999 3.22 2.221
26.112 3.224 2.2079999
26.111 3.224 2.197
26.110001 3.2249999 2.1860001
26.108999 3.2249999 2.175
26.096001 3.24 2.1570001
26.101 3.234 2.1500001
26.103001 3.2309999 2.141
26.091 3.244 2.1229999
26.103001 3.23 2.1199999
26.1 3.233 2.108
26.099001 3.233 2.0969999
26.107 3.223 2.0910001
26.103001 3.2279999 2.079
26.108999 3.2190001 2.072
26.106001 3.2219999 2.0599999
26.105 3.223 2.05
26.115999 3.21 2.0450001
26.108999 3.2179999 2.0309999
26.096001 3.2320001 2.0139999
26.110001 3.2149999 2.0109999
26.103001 3.223 1.997
26.110001 3.214 1.9910001
26.1 3.2249999 1.975
26.105 3.2190001 1.9680001
26.070999 3.2590001 1.939
26.034 3.302 1.909
26.042 3.293 1.904
26.059999 3.27 1.903
26.072001 3.2539999 1.9
26.1 3.221 1.905
26.105 3.214 1.897
26.104 3.2149999 1.887
26.1 3.2190001 1.875
26.098 3.22 1.864
26.094 3.2249999 1.852
26.101999 3.2149999 1.846
26.094 3.224 1.831
26.091999 3.2260001 1.8200001
26.1 3.2160001 1.8150001
26.094999 3.22 1.803
26.104 3.21 1.7970001
26.101 3.2119999 1.786
26.101999 3.21 1.776
26.101999 3.21 1.766
26.098 3.2149999 1.7539999
26.110001 3.1989999 1.75
26.084999 3.2290001 1.728
26.103001 3.2060001 1.727
26.1 3.2090001 1.716
26.094999 3.2149999 1.7029999
26.1 3.2079999 1.696
26.098 3.21 1.6849999
26.094 3.214 1.674
26.108 3.197 1.67
26.087999 3.22 1.651
26.094999 3.211 1.645
26.09 3.2160001 1.633
26.098 3.2060001 1.627
26.093 3.211 1.615
26.091999 3.2130001 1.604
26.09 3.214 1.594
26.097 3.2049999 1.587
26.089001 3.214 1.574
26.097 3.204 1.567
26.094999 3.2060001 1.557
26.096001 3.204 1.548
26.098 3.201 1.539
26.096001 3.2030001 1.528
26.099001 3.198 1.52
26.094 3.204 1.508
26.091 3.207 1.497
26.091999 3.2049999 1.488
26.094 3.2019999 1.479
26.091 3.2060001 1.4680001
26.093 3.2030001 1.459
26.091 3.204 1.449
26.096001 3.198 1.441
26.094 3.2 1.431
26.083 3.2130001 1.4170001
26.094999 3.197 1.4119999
26.099001 3.1919999 1.404
26.089001 3.2030001 1.39
26.087 3.2049999 1.38
26.094999 3.1960001 1.373
26.083 3.2090001 1.359
26.1 3.188 1.3559999
26.097 3.191 1.345
26.105 3.1800001 1.339
26.091 3.197 1.324
26.08 3.21 1.311
26.083 3.2049999 1.302
26.079 3.21 1.291
26.08 3.2079999 1.2819999
26.068001 3.221 1.2690001
26.082001 3.2049999 1.2640001
26.083 3.2030001 1.255
26.076 3.21 1.243
26.072001 3.214 1.232
26.086 3.198 1.227
26.077 3.207 1.215
26.075001 3.2090001 1.205
26.07 3.2149999 1.194
26.083 3.198 1.189
26.084 3.197 1.179
26.079 3.2030001 1.168
26.073 3.2079999 1.1569999
26.084 3.1949999 1.151
26.075001 3.2049999 1.1390001
26.076 3.204 1.13
26.08 3.198 1.122
26.075001 3.204 1.1109999
26.079 3.1989999 1.102
26.076 3.201 1.092
26.083 3.1919999 1.085
26.075001 3.2019999 1.073
26.075001 3.2 1.064
26.091999 3.1800001 1.059
26.077 3.197 1.046
26.077999 3.1960001 1.036
26.084999 3.187 1.029
26.084999 3.1849999 1.02
26.099001 3.1689999 1.0140001
26.09 3.1789999 1.002
26.097 3.1700001 0.995
26.094 3.1719999 0.98500001
26.098 3.1670001 0.97600001
26.093 3.1730001 0.96600002
26.084 3.1830001 0.954
26.084999 3.1819999 0.94499999
26.091999 3.1730001 0.93699998
26.098 3.164 0.92900002
26.09 3.174 0.91799998
26.077999 3.188 0.90600002
26.097 3.164 0.90100002
26.091 3.1700001 0.88999999
26.094999 3.165 0.88200003
26.089001 3.171 0.87099999
26.093 3.1659999 0.86299998
26.103001 3.154 0.85600001
26.094 3.164 0.84399998
26.087999 3.1700001 0.83399999
26.101 3.154 0.82700002
26.096001 3.1600001 0.81699997
26.093 3.1630001 0.80699998
26.084 3.1730001 0.796
26.082001 3.1760001 0.78600001
26.087999 3.1670001 0.778
26.094999 3.158 0.76999998
26.096001 3.1570001 0.76099998
26.101999 3.1489999 0.75300002
26.096001 3.155 0.74199998
26.093 3.1589999 0.73199999
26.087 3.165 0.722
26.098 3.152 0.71499997
26.091999 3.1589999 0.704
26.098 3.151 0.69599998
26.096001 3.1530001 0.68599999
26.093 3.1559999 0.67699999
26.099001 3.1470001 0.66799998
26.09 3.158 0.65799999
26.1 3.145 0.64999998
26.094 3.152 0.63999999
26.101 3.1429999 0.63099998
26.101 3.142 0.62199998
26.098 3.145 0.61199999
26.091999 3.152 0.602
26.086 3.1589999 0.59200001
26.091999 3.1500001 0.58399999
26.099001 3.142 0.57499999
26.087 3.1559999 0.56400001
26.099001 3.1400001 0.55699998
26.093 3.1470001 0.54699999
26.097 3.142 0.53799999
26.096001 3.142 0.52899998
26.094 3.145 0.51899999
26.097 3.1400001 0.50999999
26.097 3.1389999 0.50099999
26.101 3.135 0.49200001
26.104 3.1300001 0.48300001
26.091 3.145 0.47299999
26.091999 3.1440001 0.463
26.094999 3.1389999 0.454
26.098 3.135 0.44499999
26.098 3.1340001 0.43599999
26.122999 3.1029999 0.42899999
26.145 3.076 0.42199999
26.148001 3.0710001 0.41299999
26.150999 3.0669999 0.40400001
26.142 3.0780001 0.39300001
26.153999 3.0610001 0.38499999
26.142 3.076 0.375
26.142 3.076 0.36500001
26.145 3.0710001 0.35600001
26.148001 3.0669999 0.347
26.158001 3.0550001 0.338
26.145 3.0699999 0.32800001
26.150999 3.0610001 0.31900001
26.150999 3.0610001 0.30899999
26.157 3.053 0.30000001
26.142 3.072 0.28999999
26.153999 3.056 0.28099999
26.135 3.0780001 0.271
26.141001 3.0699999 0.26199999
26.141001 3.0699999 0.252
26.141001 3.069 0.243
26.141001 3.069 0.234
26.15 3.0569999 0.22499999
26.153 3.053 0.215
26.159 3.0450001 0.206
26.15 3.056 0.19599999
26.143 3.0639999 0.18700001
26.128 3.082 0.177
26.125 3.085 0.168
26.115 3.0969999 0.15800001
26.108 3.1040001 0.149
26.108 3.1040001 0.14
26.089001 3.1270001 0.13
26.098 3.1159999 0.121
26.107 3.1029999 0.112
26.094 3.119 0.102
26.094 3.118 0.093000002
26.087999 3.1259999 0.083999999
26.084 3.1300001 0.075000003
26.087 3.1259999 0.064999998
26.096001 3.1140001 0.056000002
26.096001 3.1140001 0.046999998
26.094999 3.1140001 0.037
26.089001 3.1210001 0.028000001
26.079 3.1329999 0.018999999
26.049999 3.168 0.011
26.146999 3.2420001 2.984
26.143999 3.2449999 2.97
26.15 3.2379999 2.964
26.143999 3.244 2.947
26.146999 3.2390001 2.938
26.143999 3.2420001 2.924
26.146999 3.2379999 2.915
26.146999 3.2379999 2.904
26.143999 3.24 2.8900001
26.138 3.2460001 2.8740001
26.138 3.2460001 2.862
26.146 3.2349999 2.858
26.138 3.2449999 2.839
26.136999 3.244 2.8280001
26.143 3.237 2.8210001
26.146 3.233 2.812
26.134001 3.247 2.7909999
26.141001 3.2379999 2.7850001
26.142 3.2360001 2.7750001
26.128 3.2509999 2.753
26.108 3.2750001 2.7260001
26.07 3.319 2.6860001
26.077999 3.3080001 2.681
26.069 3.3180001 2.6630001
26.066 3.322 2.6500001
26.070999 3.3150001 2.6429999
26.077 3.3069999 2.6359999
26.068001 3.3180001 2.619
26.066999 3.3169999 2.6070001
26.07 3.3139999 2.598
26.075001 3.3069999 2.592
26.063 3.3210001 2.572
26.063 3.3210001 2.5610001
26.059999 3.323 2.5480001
26.076 3.303 2.549
26.07 3.3099999 2.5339999
26.066999 3.313 2.5209999
26.063 3.3169999 2.507
26.069 3.309 2.5009999
26.070999 3.3069999 2.4920001
26.073999 3.303 2.483
26.063999 3.313 2.4660001
26.077999 3.296 2.4649999
26.084999 3.2869999 2.4590001
26.097 3.2720001 2.457
26.087 3.283 2.4389999
26.091999 3.277 2.4319999
26.101999 3.2650001 2.428
26.106001 3.2590001 2.4200001
26.1 3.266 2.405
26.101 3.263 2.3959999
26.113001 3.2490001 2.3929999
26.118 3.2420001 2.3859999
26.122999 3.2349999 2.3789999
26.122999 3.2349999 2.368
26.134001 3.2219999 2.3640001
26.124001 3.2320001 2.3469999
26.129 3.2260001 2.3399999
26.120001 3.2360001 2.3239999
26.118999 3.2360001 2.313
26.125999 3.227 2.3069999
26.124001 3.23 2.2939999
26.128 3.224 2.2869999
26.128 3.223 2.276
26.121 3.2309999 2.2609999
26.125999 3.224 2.2539999
26.122 3.2279999 2.2409999
26.118 3.2320001 2.2279999
26.122999 3.2260001 2.221
26.125 3.223 2.2119999
26.121 3.227 2.1989999
26.117001 3.2309999 2.1860001
26.115999 3.2309999 2.175
26.118 3.2279999 2.1659999
26.120001 3.2249999 2.1570001
26.094999 3.2550001 2.131
26.097 3.2520001 2.122
26.101999 3.2449999 2.115
26.089001 3.26 2.0969999
26.106001 3.2390001 2.0969999
26.099001 3.247 2.082
26.110001 3.234 2.0780001
26.118 3.223 2.073
26.128 3.211 2.0680001
26.120001 3.2190001 2.0539999
26.117001 3.223 2.0420001
26.118999 3.22 2.0320001
26.115 3.224 2.02
26.117001 3.221 2.0109999
26.115 3.2219999 2
26.115 3.223 1.989
26.110001 3.227 1.977
26.106001 3.2320001 1.964
26.052 3.296 1.924
26.032 3.319 1.904
26.049 3.2980001 1.903
26.069 3.2739999 1.904
26.084999 3.2539999 1.903
26.111 3.223 1.906
26.108999 3.2249999 1.895
26.110001 3.2219999 1.886
26.107 3.2249999 1.874
26.106001 3.2260001 1.864
26.110001 3.22 1.8559999
26.108999 3.221 1.845
26.114 3.2149999 1.8380001
26.106001 3.223 1.824
26.114 3.2130001 1.818
26.108999 3.2179999 1.806
26.105 3.223 1.793
26.106001 3.221 1.784
26.114 3.211 1.778
26.108999 3.2160001 1.766
26.106001 3.22 1.7539999
26.115 3.2079999 1.749
26.105 3.2190001 1.734
26.103001 3.221 1.723
26.108999 3.214 1.716
26.112 3.2079999 1.7079999
26.111 3.21 1.697
26.104 3.2179999 1.684
26.099001 3.223 1.6720001
26.103001 3.217 1.664
26.108 3.211 1.6569999
26.115999 3.201 1.65
26.104 3.214 1.635
26.106001 3.211 1.626
26.098 3.22 1.613
26.1 3.2179999 1.604
26.1 3.217 1.594
26.110001 3.204 1.589
26.108999 3.2049999 1.579
26.098 3.217 1.564
26.103001 3.211 1.557
26.103001 3.21 1.5470001
26.101999 3.211 1.5369999
26.106001 3.2060001 1.529
26.101 3.211 1.517
26.108999 3.201 1.511
26.106001 3.204 1.5
26.104 3.2049999 1.489
26.101 3.2090001 1.478
26.101 3.2079999 1.469
26.099001 3.21 1.4579999
26.108999 3.198 1.452
26.096001 3.2130001 1.438
26.1 3.207 1.4299999
26.110001 3.194 1.424
26.108 3.1960001 1.414
26.107 3.197 1.404
26.104 3.1989999 1.393
26.105 3.198 1.3839999
26.091999 3.2130001 1.369
26.105 3.1960001 1.365
26.103001 3.198 1.354
26.096001 3.207 1.342
26.087 3.2160001 1.329
26.098 3.2030001 1.324
26.09 3.2130001 1.311
26.094 3.207 1.303
26.089001 3.2119999 1.2920001
26.093 3.207 1.284
26.091 3.2090001 1.274
26.091999 3.207 1.265
26.096001 3.2019999 1.256
26.097 3.2 1.247
26.094999 3.201 1.237
26.087 3.211 1.225
26.087999 3.2090001 1.216
26.091999 3.204 1.207
26.09 3.2060001 1.197
26.094 3.2 1.189
26.091 3.2030001 1.179
26.083 3.2119999 1.1670001
26.094999 3.198 1.161
26.097 3.194 1.152
26.091999 3.2 1.141
26.09 3.2019999 1.131
26.087 3.204 1.1210001
26.101 3.187 1.1160001
26.076 3.2160001 1.099
26.087 3.2030001 1.0930001
26.091 3.198 1.085
26.087999 3.2 1.075
26.089001 3.1989999 1.0650001
26.087 3.201 1.0549999
26.084 3.2030001 1.045
26.091 3.194 1.038
26.094999 3.1889999 1.03
26.093 3.191 1.0190001
26.097 3.1860001 1.011
26.094 3.188 1.001
26.089001 3.1949999 0.99000001
26.096001 3.1860001 0.98299998
26.099001 3.1800001 0.97399998
26.094 3.187 0.96399999
26.098 3.181 0.95499998
26.094 3.1849999 0.94499999
26.087999 3.1919999 0.93400002
26.099001 3.178 0.92699999
26.1 3.1760001 0.91799998
26.094 3.1830001 0.90799999
26.1 3.175 0.89999998
26.086 3.191 0.88700002
26.094999 3.1800001 0.88
26.094 3.181 0.87
26.09 3.184 0.86000001
26.098 3.175 0.85299999
26.098 3.174 0.84299999
26.096001 3.1760001 0.833
26.093 3.1789999 0.824
26.084 3.1889999 0.81199998
26.1 3.1689999 0.80599999
26.084999 3.187 0.79400003
26.091999 3.178 0.78600001
26.089001 3.181 0.77600002
26.09 3.1800001 0.76700002
26.09 3.1789999 0.75800002
26.077999 3.1930001 0.74599999
26.091 3.1760001 0.74000001
26.101 3.164 0.73199999
26.091999 3.174 0.72100002
26.101999 3.1619999 0.71399999
26.086 3.1800001 0.70200002
26.096001 3.1670001 0.69400001
26.093 3.1700001 0.68400002
26.083 3.1819999 0.67299998
26.094 3.168 0.66600001
26.098 3.164 0.65700001
26.087999 3.174 0.64700001
26.082001 3.181 0.63599998
26.094999 3.165 0.62900001
26.089001 3.171 0.61900002
26.099001 3.1589999 0.611
26.103001 3.154 0.602
26.093 3.165 0.59200001
26.09 3.168 0.58200002
26.091 3.1670001 0.57300001
26.1 3.155 0.565
26.094 3.161 0.55500001
26.101 3.1530001 0.546
26.091 3.164 0.53600001
26.089001 3.1670001 0.52600002
26.089001 3.1659999 0.51700002
26.091999 3.161 0.50800002
26.091999 3.161 0.49900001
26.099001 3.152 0.491
26.101999 3.148 0.48199999
26.089001 3.1619999 0.47099999
26.099001 3.1500001 0.463
26.099001 3.1489999 0.454
26.099001 3.1489999 0.44400001
26.093 3.1559999 0.435
26.093 3.155 0.42500001
26.099001 3.1470001 0.417
26.136999 3.0999999 0.41100001
26.152 3.0799999 0.403
26.156 3.076 0.39300001
26.156 3.075 0.384
26.167999 3.059 0.37599999
26.159 3.0699999 0.366
26.153 3.0769999 0.35600001
26.159 3.069 0.347
26.165001 3.0610001 0.338
26.156 3.072 0.32800001
26.149 3.079 0.31799999
26.155001 3.0710001 0.30899999
26.159 3.0669999 0.30000001
26.146 3.082 0.28999999
26.155001 3.069 0.28099999
26.155001 3.069 0.271
26.152 3.073 0.26199999
26.155001 3.0680001 0.252
26.160999 3.0599999 0.243
26.155001 3.0680001 0.234
26.158001 3.063 0.22400001
26.150999 3.0710001 0.215
26.164 3.0550001 0.206
26.16 3.0580001 0.19599999
26.150999 3.0699999 0.186
26.146999 3.073 0.177
26.135 3.0880001 0.167
26.132 3.0910001 0.15800001
26.125 3.099 0.149
26.122 3.102 0.139
26.118 3.1059999 0.13
26.099001 3.1289999 0.121
26.098 3.1289999 0.111
26.101 3.125 0.102
26.091999 3.1359999 0.093000002
26.094999 3.132 0.083999999
26.098 3.128 0.074000001
26.101 3.1240001 0.064999998
26.094 3.131 0.056000002
26.1 3.1240001 0.046
26.093 3.131 0.037
26.08 3.1470001 0.028000001
26.055 3.177 0.02
26.045 3.1889999 0.011
26.159 3.2420001 2.9879999
26.165001 3.2349999 2.9809999
26.150999 3.25 2.9579999
26.16 3.2390001 2.954
26.157 3.2420001 2.9400001
26.157 3.2409999 2.9289999
26.153999 3.244 2.915
26.150999 3.247 2.901
26.153999 3.243 2.892
26.157 3.2390001 2.8829999
26.157 3.2379999 2.8710001
26.145 3.2509999 2.8499999
26.148001 3.247 2.8410001
26.150999 3.244 2.832
26.153 3.24 2.823
26.15 3.243 2.809
26.141001 3.253 2.79
26.132 3.263 2.7720001
26.108999 3.289 2.743
26.075001 3.329 2.7049999
26.075001 3.3280001 2.694
26.08 3.3210001 2.688
26.073999 3.3280001 2.6719999
26.062 3.3410001 2.652
26.066999 3.3340001 2.645
26.07 3.3310001 2.6359999
26.07 3.3310001 2.625
26.063 3.3369999 2.6099999
26.072001 3.3269999 2.605
26.068001 3.3299999 2.592
26.068001 3.3299999 2.5799999
26.065001 3.3329999 2.5680001
26.065001 3.3329999 2.5569999
26.066999 3.329 2.5480001
26.072001 3.323 2.54
26.066 3.329 2.5250001
26.065001 3.3299999 2.5139999
26.065001 3.329 2.503
26.07 3.322 2.4960001
26.07 3.322 2.4849999
26.073999 3.316 2.4779999
26.079 3.3099999 2.471
26.09 3.2969999 2.4679999
26.091 3.2950001 2.4579999
26.094 3.29 2.4489999
26.098 3.2850001 2.441
26.094 3.289 2.428
26.096001 3.2850001 2.4189999
26.104 3.2750001 2.414
26.120001 3.256 2.414
26.105 3.273 2.3929999
26.118999 3.256 2.392
26.125 3.2479999 2.3859999
26.132999 3.237 2.3800001
26.145 3.224 2.3770001
26.139999 3.2279999 2.3640001
26.136999 3.2320001 2.3510001
26.136 3.2320001 2.339
26.136 3.2320001 2.329
26.125999 3.243 2.312
26.132999 3.233 2.306
26.132999 3.233 2.296
26.132999 3.2320001 2.2850001
26.145 3.2179999 2.2820001
26.139 3.223 2.2679999
26.142 3.22 2.2590001
26.141001 3.22 2.2479999
26.128 3.2349999 2.23
26.127001 3.2349999 2.2190001
26.141001 3.2179999 2.217
26.131001 3.23 2.2
26.129999 3.23 2.1889999
26.132999 3.2260001 2.1800001
26.129 3.2309999 2.1670001
26.104 3.26 2.142
26.097 3.2679999 2.1270001
26.097 3.267 2.1170001
26.094999 3.2690001 2.1059999
26.097 3.266 2.0969999
26.101 3.26 2.089
26.106001 3.253 2.082
26.114 3.243 2.076
26.122999 3.2320001 2.0710001
26.136 3.2160001 2.0680001
26.131001 3.2219999 2.0550001
26.124001 3.2290001 2.0409999
26.125999 3.2260001 2.0320001
26.122 3.23 2.0190001
26.129 3.221 2.013
26.136999 3.211 2.0079999
26.125 3.2249999 1.9910001
26.129999 3.2190001 1.983
26.072001 3.2869999 1.941
26.037001 3.3269999 1.913
26.039 3.325 1.904
26.052999 3.3080001 1.901
26.07 3.2869999 1.9
26.104 3.2449999 1.909
26.124001 3.221 1.909
26.122 3.223 1.898
26.138 3.2030001 1.896
26.125 3.2179999 1.88
26.118 3.2260001 1.8660001
26.118999 3.224 1.857
26.122 3.22 1.848
26.118 3.224 1.836
26.118999 3.2219999 1.827
26.108999 3.234 1.811
26.120001 3.22 1.807
26.118 3.2219999 1.796
26.115999 3.223 1.785
26.127001 3.2090001 1.781
26.114 3.2249999 1.7640001
26.118 3.22 1.756
26.125999 3.2090001 1.75
26.117001 3.2190001 1.7359999
26.114 3.2219999 1.725
26.124001 3.2090001 1.72
26.120001 3.214 1.7079999
26.124001 3.2090001 1.7
26.122999 3.2090001 1.6900001
26.125 3.2060001 1.6799999
26.125999 3.204 1.671
26.108999 3.224 1.654
26.122999 3.207 1.65
26.112 3.2190001 1.635
26.113001 3.217 1.626
26.115 3.2149999 1.617
26.107 3.224 1.604
26.114 3.214 1.597
26.118 3.2090001 1.589
26.115999 3.211 1.5779999
26.121 3.2049999 1.571
26.115999 3.21 1.559
26.114 3.211 1.548
26.110001 3.217 1.5369999
26.120001 3.204 1.531
26.108999 3.2160001 1.517
26.107 3.2179999 1.506
26.118 3.204 1.502
26.110001 3.2130001 1.489
26.111 3.211 1.479
26.127001 3.191 1.476
26.118999 3.201 1.4630001
26.120001 3.1989999 1.454
26.115 3.204 1.442
26.113001 3.2060001 1.432
26.112 3.207 1.4220001
26.115999 3.2019999 1.413
26.111 3.2060001 1.402
26.107 3.211 1.391
26.110001 3.2060001 1.383
26.112 3.204 1.374
26.110001 3.2049999 1.363
26.111 3.204 1.354
26.097 3.22 1.339
26.104 3.211 1.332
26.108 3.2049999 1.324
26.106001 3.207 1.314
26.101 3.2130001 1.303
26.111 3.2 1.2970001
26.103001 3.2090001 1.284
26.107 3.204 1.276
26.111 3.198 1.268
26.094 3.2179999 1.253
26.098 3.2130001 1.245
26.108 3.2 1.239
26.091 3.221 1.223
26.107 3.201 1.219
26.108 3.1989999 1.21
26.103001 3.204 1.199
26.110001 3.1960001 1.192
26.112 3.1919999 1.183
26.111 3.1919999 1.173
26.107 3.197 1.1619999
26.108 3.1960001 1.153
26.101999 3.2019999 1.142
26.106001 3.1960001 1.1339999
26.101 3.2030001 1.123
26.094999 3.2090001 1.112
26.099001 3.2030001 1.103
26.103001 3.198 1.095
26.098 3.204 1.084
26.101999 3.1989999 1.076
26.108999 3.1889999 1.069
26.097 3.2030001 1.056
26.094999 3.2049999 1.046
26.096001 3.204 1.0369999
26.09 3.21 1.026
26.091 3.2090001 1.017
26.091 3.207 1.007
26.089001 3.21 0.99800003
26.098 3.197 0.991
26.099001 3.1960001 0.98100001
26.097 3.1989999 0.97100002
26.091 3.2049999 0.96100003
26.097 3.197 0.95300001
26.089001 3.2060001 0.94199997
26.087 3.2079999 0.93199998
26.104 3.187 0.926
26.098 3.1930001 0.91600001
26.094999 3.1960001 0.90600002
26.093 3.1989999 0.89600003
26.1 3.1900001 0.88800001
26.087999 3.204 0.87599999
26.094999 3.1949999 0.86799997
26.098 3.1900001 0.86000001
26.099001 3.188 0.85100001
26.094999 3.1930001 0.84100002
26.101999 3.184 0.833
26.082001 3.2079999 0.81900001
26.091999 3.1949999 0.81199998
26.098 3.1860001 0.80400002
26.091999 3.1930001 0.79400003
26.098 3.1860001 0.78600001
26.09 3.194 0.77499998
26.096001 3.187 0.76700002
26.091 3.1919999 0.75599998
26.084999 3.1989999 0.74599999
26.091999 3.1900001 0.73799998
26.094999 3.1860001 0.72899997
26.093 3.188 0.72000003
26.103001 3.175 0.71200001
26.097 3.1819999 0.70200002
26.1 3.178 0.69300002
26.094 3.184 0.68300003
26.1 3.1760001 0.67500001
26.096001 3.1800001 0.66500002
26.087999 3.1889999 0.65399998
26.094999 3.181 0.64600003
26.110001 3.1619999 0.639
26.09 3.1860001 0.62699997
26.094999 3.1789999 0.61799997
26.096001 3.177 0.60900003
26.1 3.1719999 0.60100001
26.087999 3.1860001 0.58999997
26.087999 3.1849999 0.57999998
26.094999 3.177 0.57200003
26.091999 3.1800001 0.56300002
26.091 3.1800001 0.55299997
26.091999 3.178 0.54400003
26.099001 3.1700001 0.53600001
26.099001 3.1689999 0.52700001
26.087 3.184 0.51599997
26.093 3.175 0.50700003
26.093 3.174 0.498
26.097 3.1700001 0.48899999
26.093 3.1730001 0.47999999
26.09 3.1760001 0.47
26.103001 3.1600001 0.46200001
26.094 3.171 0.45199999
26.094 3.1700001 0.44299999
26.1 3.1619999 0.43399999
26.097 3.165 0.42500001
26.1 3.1600001 0.41600001
26.091 3.171 0.40599999
26.108999 3.148 0.398
26.136999 3.1140001 0.391
26.142 3.108 0.382
26.146999 3.0999999 0.373
26.163 3.0799999 0.36500001
26.157 3.0869999 0.35499999
26.156 3.0880001 0.34599999
26.156 3.0869999 0.336
26.166 3.075 0.32699999
26.153999 3.089 0.317
26.163 3.0769999 0.308
26.153 3.0880001 0.29899999
26.166 3.072 0.28999999
26.156 3.0829999 0.28
26.153 3.0869999 0.27000001
26.156 3.082 0.26100001
26.152 3.0869999 0.252
26.153 3.085 0.242
26.162001 3.073 0.233
26.153 3.085 0.223
26.162001 3.073 0.214
26.152 3.0840001 0.205
26.155001 3.0799999 0.19499999
26.160999 3.072 0.186
26.160999 3.0710001 0.177
26.150999 3.0829999 0.167
26.142 3.0929999 0.15800001
26.136 3.1010001 0.148
26.125999 3.112 0.139
26.132 3.1040001 0.13
26.129 3.108 0.12
26.115999 3.1229999 0.111
26.106001 3.1340001 0.102
26.104 3.1359999 0.092
26.107 3.132 0.082999997
26.099001 3.142 0.074000001
26.094999 3.145 0.064999998
26.091999 3.1489999 0.056000002
26.098 3.141 0.046
26.077999 3.164 0.037
26.054001 3.194 0.028999999
26.037001 3.214 0.02
26.042999 3.2060001 0.011
26.181999 3.2290001 2.9890001
26.174999 3.237 2.9719999
26.17 3.2420001 2.9560001
26.17 3.2409999 2.944
26.173 3.237 2.9349999
26.17 3.24 2.921
26.160999 3.2490001 2.9030001
26.173 3.2349999 2.901
26.160999 3.2479999 2.8800001
26.17 3.2379999 2.875
26.17 3.237 2.8640001
26.160999 3.247 2.845
26.164 3.243 2.836
26.169001 3.2349999 2.829
26.150999 3.257 2.803
26.108999 3.3050001 2.7590001
26.083 3.335 2.7279999
26.070999 3.349 2.707
26.073 3.345 2.698
26.073 3.345 2.687
26.07 3.348 2.674
26.075001 3.3410001 2.6670001
26.066 3.3510001 2.6489999
26.059999 3.3570001 2.6340001
26.063 3.3540001 2.625
26.065001 3.3499999 2.6159999
26.07 3.3440001 2.609
26.065001 3.349 2.5940001
26.063999 3.349 2.5829999
26.063999 3.349 2.572
26.061001 3.352 2.559
26.065001 3.346 2.552
26.068001 3.342 2.543
26.070999 3.3380001 2.5339999
26.066999 3.342 2.5209999
26.07 3.3380001 2.5120001
26.069 3.339 2.5
26.079 3.326 2.497
26.077 3.3280001 2.4849999
26.089001 3.313 2.483
26.075001 3.329 2.4630001
26.080999 3.3210001 2.4560001
26.094 3.3050001 2.4549999
26.101 3.296 2.4489999
26.091999 3.306 2.4319999
26.104 3.2920001 2.4289999
26.103001 3.2920001 2.418
26.114 3.2780001 2.415
26.131001 3.2579999 2.4159999
26.121 3.2690001 2.3989999
26.129999 3.257 2.3940001
26.129999 3.257 2.3829999
26.138 3.247 2.378
26.146 3.237 2.3729999
26.163 3.2160001 2.3740001
26.146999 3.234 2.3529999
26.146999 3.234 2.3410001
26.149 3.2309999 2.332
26.145 3.2349999 2.319
26.143999 3.2349999 2.3080001
26.15 3.2279999 2.3010001
26.152 3.2249999 2.2920001
26.145 3.2320001 2.277
26.145 3.2320001 2.266
26.143999 3.233 2.2550001
26.146 3.23 2.2460001
26.145 3.23 2.2349999
26.143999 3.2309999 2.224
26.149 3.224 2.2160001
26.148001 3.224 2.2049999
26.141001 3.2320001 2.191
26.155001 3.2149999 2.1889999
26.145 3.2260001 2.1719999
26.114 3.2620001 2.1429999
26.113001 3.263 2.132
26.118 3.256 2.125
26.122999 3.25 2.118
26.107 3.2679999 2.098
26.108999 3.2650001 2.089
26.114 3.2590001 2.082
26.118999 3.253 2.0739999
26.125999 3.243 2.0680001
26.141001 3.2249999 2.0669999
26.142 3.2219999 2.0569999
26.141001 3.223 2.046
26.146 3.217 2.039
26.142 3.221 2.026
26.135 3.2290001 2.0120001
26.136 3.2260001 2.003
26.143999 3.2160001 1.997
26.136999 3.2249999 1.983
26.07 3.3039999 1.936
26.039 3.3399999 1.909
26.046 3.3310001 1.903
26.059999 3.3139999 1.901
26.077 3.293 1.9
26.113001 3.25 1.909
26.118999 3.2420001 1.902
26.132999 3.2249999 1.9
26.138 3.2179999 1.892
26.136 3.2190001 1.881
26.122999 3.234 1.864
26.132999 3.2219999 1.86
26.135 3.2190001 1.85
26.128 3.227 1.837
26.135 3.2179999 1.831
26.134001 3.2190001 1.8200001
26.129999 3.223 1.808
26.135 3.217 1.8
26.129999 3.221 1.788
26.134001 3.2160001 1.78
26.139 3.2090001 1.773
26.138 3.21 1.762
26.129999 3.2190001 1.748
26.135 3.2130001 1.7410001
26.136 3.211 1.7309999
26.135 3.2119999 1.721
26.132999 3.2130001 1.71
26.132 3.214 1.7
26.125 3.2219999 1.686
26.128 3.217 1.678
26.131001 3.214 1.669
26.132 3.2119999 1.66
26.129999 3.2130001 1.65
26.122999 3.2219999 1.636
26.124001 3.2190001 1.627
26.135 3.2060001 1.622
26.129999 3.211 1.61
26.131001 3.2090001 1.601
26.122999 3.2179999 1.5880001
26.122 3.2190001 1.577
26.129 3.21 1.571
26.129999 3.2079999 1.562
26.129 3.2090001 1.551
26.129 3.2079999 1.5420001
26.128 3.2090001 1.531
26.122999 3.214 1.52
26.129999 3.2049999 1.513
26.125 3.21 1.501
26.121 3.2149999 1.489
26.134001 3.1989999 1.485
26.125999 3.2079999 1.472
26.128 3.2049999 1.4630001
26.125 3.2079999 1.4529999
26.122999 3.2090001 1.442
26.121 3.211 1.432
26.122999 3.2079999 1.423
26.121 3.21 1.4119999
26.110001 3.223 1.398
26.122999 3.2060001 1.3940001
26.125 3.204 1.385
26.110001 3.221 1.37
26.114 3.2149999 1.362
26.122 3.2060001 1.355
26.117001 3.211 1.344
26.118 3.2090001 1.334
26.122 3.204 1.326
26.122999 3.2019999 1.317
26.118 3.2079999 1.306
26.125 3.198 1.299
26.114 3.2119999 1.285
26.111 3.214 1.275
26.131001 3.1889999 1.272
26.117001 3.2060001 1.258
26.121 3.201 1.249
26.128 3.191 1.242
26.115999 3.2049999 1.229
26.114 3.207 1.219
26.115 3.2049999 1.21
26.114 3.2060001 1.2
26.115 3.204 1.191
26.127001 3.1889999 1.1849999
26.115999 3.201 1.1720001
26.114 3.2030001 1.1619999
26.115 3.2019999 1.153
26.106001 3.2119999 1.141
26.117001 3.1989999 1.1339999
26.111 3.2049999 1.123
26.108999 3.207 1.113
26.115999 3.198 1.1059999
26.114 3.2 1.096
26.142 3.1659999 1.094
26.143999 3.1619999 1.086
26.118999 3.1919999 1.069
26.110001 3.2019999 1.057
26.108 3.204 1.0470001
26.108999 3.2019999 1.038
26.112 3.1989999 1.029
26.104 3.207 1.018
26.108 3.2019999 1.01
26.103001 3.2079999 0.99900001
26.106001 3.2030001 0.99000001
26.110001 3.198 0.98199999
26.098 3.211 0.97000003
26.111 3.1949999 0.96399999
26.106001 3.201 0.95300001
26.091 3.2190001 0.94
26.098 3.21 0.93199998
26.111 3.1930001 0.926
26.108 3.1960001 0.91600001
26.103001 3.2019999 0.90600002
26.097 3.2079999 0.89499998
26.110001 3.1930001 0.88800001
26.094999 3.21 0.87599999
26.105 3.198 0.86900002
26.104 3.197 0.85900003
26.106001 3.194 0.85000002
26.112 3.187 0.84200001
26.103001 3.197 0.83099997
26.107 3.1919999 0.82300001
26.110001 3.187 0.81400001
26.108 3.1900001 0.80400002
26.108999 3.188 0.79500002
26.1 3.198 0.78399998
26.103001 3.1930001 0.77600002
26.107 3.1889999 0.76700002
26.098 3.198 0.75599998
26.105 3.1900001 0.74800003
26.105 3.1889999 0.73900002
26.1 3.1949999 0.72899997
26.106001 3.187 0.72000003
26.103001 3.1900001 0.71100003
26.112 3.178 0.70300001
26.097 3.1949999 0.69099998
26.107 3.184 0.68300003
26.104 3.187 0.67400002
26.111 3.177 0.66600001
26.117001 3.1689999 0.65700001
26.108 3.1800001 0.64700001
26.118 3.1670001 0.639
26.1 3.1889999 0.62699997
26.113001 3.1719999 0.62
26.112 3.1730001 0.61000001
26.106001 3.1789999 0.60000002
26.103001 3.1819999 0.58999997
26.101999 3.1830001 0.58099997
26.106001 3.177 0.57200003
26.107 3.1760001 0.56300002
26.108 3.175 0.55400002
26.096001 3.188 0.54299998
26.104 3.178 0.53500003
26.101999 3.1789999 0.52600002
26.097 3.1849999 0.51599997
26.094 3.1889999 0.50599998
26.104 3.1760001 0.498
26.094 3.188 0.48800001
26.097 3.1830001 0.479
26.094 3.1860001 0.46900001
26.108999 3.1670001 0.46200001
26.097 3.1819999 0.45100001
26.1 3.178 0.442
26.103001 3.1730001 0.43399999
26.110001 3.165 0.42500001
26.108999 3.165 0.41600001
26.091 3.1860001 0.405
26.103001 3.171 0.39700001
26.115999 3.155 0.38800001
26.125999 3.142 0.38
26.164 3.095 0.37400001
26.164 3.095 0.36399999
26.160999 3.0969999 0.35499999
26.160999 3.0969999 0.345
26.164 3.092 0.336
26.158001 3.0999999 0.32600001
26.160999 3.095 0.317
26.167 3.0869999 0.308
26.158001 3.098 0.29800001
26.152 3.105 0.28799999
26.164 3.089 0.28
26.163 3.0899999 0.27000001
26.149 3.1070001 0.25999999
26.155001 3.099 0.25099999
26.145 3.1099999 0.241
26.150999 3.102 0.23199999
26.145 3.109 0.223
26.157 3.0940001 0.214
26.16 3.0899999 0.204
26.159 3.0899999 0.19499999
26.15 3.0999999 0.185
26.156 3.0929999 0.176
26.167999 3.0769999 0.167
26.153 3.095 0.15700001
26.139999 3.1110001 0.148
26.149 3.099 0.139
26.143 3.1059999 0.12899999
26.136 3.1140001 0.12
26.129 3.1210001 0.111
26.104 3.152 0.101
26.104 3.152 0.092
26.1 3.155 0.082999997
26.093 3.1630001 0.074000001
26.103001 3.151 0.064000003
26.096001 3.1589999 0.055
26.08 3.178 0.046
26.065001 3.1960001 0.037999999
26.056999 3.2049999 0.028999999
26.059999 3.201 0.018999999
26.049999 3.2119999 0.011
26.184999 3.2409999 2.9849999
26.191999 3.2309999 2.98
26.195 3.227 2.97
26.188 3.2349999 2.9530001
26.174 3.25 2.9300001
26.186001 3.2360001 2.928
26.18 3.2420001 2.9119999
26.177 3.2449999 2.898
26.174 3.247 2.8840001
26.18 3.24 2.8770001
26.177 3.243 2.8629999
26.174 3.2460001 2.8499999
26.174 3.2449999 2.8380001
26.104 3.326 2.7720001
26.076 3.359 2.7379999
26.07 3.365 2.723
26.072001 3.3610001 2.714
26.066 3.368 2.698
26.066 3.368 2.687
26.073999 3.3570001 2.6819999
26.059 3.3740001 2.6600001
26.070999 3.3599999 2.658
26.07 3.3599999 2.6470001
26.062 3.369 2.6289999
26.061001 3.369 2.618
26.059999 3.369 2.6070001
26.066 3.362 2.6010001
26.063 3.365 2.5869999
26.065001 3.362 2.5780001
26.062 3.365 2.5650001
26.073 3.3510001 2.563
26.066999 3.358 2.5469999
26.069 3.3540001 2.5380001
26.069 3.3540001 2.527
26.070999 3.3510001 2.5179999
26.077999 3.342 2.513
26.084 3.335 2.506
26.087999 3.329 2.4990001
26.096001 3.319 2.493
26.087999 3.3280001 2.477
26.094 3.3199999 2.471
26.096001 3.3169999 2.461
26.094999 3.3169999 2.45
26.105 3.306 2.4460001
26.103001 3.3069999 2.434
26.117001 3.2909999 2.4330001
26.124001 3.2809999 2.428
26.129999 3.273 2.421
26.138 3.263 2.4159999
26.146999 3.2520001 2.411
26.146 3.253 2.4000001
26.142 3.257 2.3870001
26.146 3.2509999 2.3789999
26.15 3.247 2.3699999
26.160999 3.2320001 2.3670001
26.164 3.2290001 2.358
26.16 3.233 2.345
26.159 3.233 2.3340001
26.158001 3.233 2.323
26.166 3.224 2.3169999
26.166 3.224 2.306
26.162001 3.227 2.293
26.160999 3.2279999 2.2820001
26.157 3.2320001 2.2690001
26.157 3.2309999 2.2579999
26.163 3.223 2.2520001
26.155001 3.2320001 2.2360001
26.166 3.2190001 2.2320001
26.159 3.2260001 2.2179999
26.155001 3.23 2.2049999
26.16 3.224 2.198
26.15 3.2349999 2.181
26.143 3.243 2.1670001
26.136 3.25 2.152
26.132 3.2539999 2.1389999
26.128 3.2590001 2.1270001
26.118 3.27 2.1099999
26.122 3.2639999 2.1029999
26.118999 3.2679999 2.0899999
26.136 3.247 2.0899999
26.122999 3.2620001 2.072
26.131001 3.2509999 2.0669999
26.145 3.234 2.0650001
26.136999 3.243 2.05
26.148001 3.2290001 2.046
26.138 3.2409999 2.03
26.139999 3.2379999 2.0209999
26.145 3.2309999 2.013
26.141001 3.2360001 2.0009999
26.142 3.233 1.992
26.087999 3.2969999 1.951
26.038 3.3559999 1.914
26.042 3.3499999 1.9069999
26.037001 3.3559999 1.8940001
26.072001 3.313 1.903
26.09 3.2909999 1.903
26.124001 3.25 1.911
26.124001 3.2509999 1.901
26.142 3.2279999 1.9
26.153999 3.2130001 1.896
26.143 3.2249999 1.881
26.150999 3.2149999 1.875
26.156 3.2090001 1.867
26.145 3.221 1.852
26.143999 3.2219999 1.841
26.142 3.223 1.83
26.141001 3.224 1.8200001
26.139999 3.2249999 1.809
26.142 3.2219999 1.8
26.146 3.217 1.7920001
26.149 3.2130001 1.783
26.143 3.2190001 1.771
26.143999 3.217 1.761
26.146 3.214 1.752
26.145 3.2149999 1.742
26.146 3.2130001 1.733
26.145 3.214 1.722
26.143 3.2149999 1.711
26.142 3.2160001 1.701
26.146 3.21 1.693
26.145 3.2119999 1.682
26.131001 3.227 1.666
26.142 3.214 1.661
26.143 3.211 1.652
26.139 3.2160001 1.64
26.146 3.207 1.6339999
26.145 3.2079999 1.623
26.143 3.21 1.613
26.138 3.2149999 1.601
26.146 3.2049999 1.594
26.141001 3.21 1.582
26.136 3.2160001 1.5700001
26.128 3.2249999 1.557
26.129999 3.2219999 1.548
26.136999 3.2130001 1.541
26.135 3.214 1.531
26.132999 3.2160001 1.521
26.138 3.21 1.513
26.142 3.2049999 1.5039999
26.136999 3.21 1.493
26.145 3.2 1.4859999
26.136999 3.2090001 1.473
26.129 3.2179999 1.46
26.139 3.2049999 1.455
26.131001 3.214 1.442
26.129 3.2160001 1.432
26.127001 3.2179999 1.421
26.134001 3.2079999 1.414
26.136 3.2060001 1.405
26.134001 3.2079999 1.395
26.132 3.21 1.3839999
26.139 3.201 1.378
26.134001 3.2060001 1.3660001
26.129 3.2119999 1.355
26.127001 3.2130001 1.344
26.134001 3.204 1.337
26.138 3.1989999 1.329
26.132999 3.204 1.318
26.128 3.21 1.306
26.129 3.2079999 1.2970001
26.129999 3.2060001 1.288
26.128 3.2079999 1.278
26.129 3.2060001 1.2690001
26.129999 3.2049999 1.2589999
26.131001 3.2030001 1.25
26.129 3.2049999 1.24
26.122999 3.211 1.229
26.134001 3.198 1.223
26.132 3.2 1.212
26.129 3.2019999 1.202
26.124001 3.2079999 1.191
26.125 3.2060001 1.182
26.125999 3.204 1.173
26.121 3.2090001 1.1619999
26.131001 3.197 1.155
26.135 3.1919999 1.147
26.124001 3.204 1.1339999
26.125 3.2030001 1.125
26.122 3.2049999 1.115
26.125999 3.2 1.1059999
26.124001 3.2019999 1.096
26.142 3.1789999 1.092
26.141001 3.181 1.082
26.129999 3.194 1.0700001
26.132999 3.188 1.061
26.118 3.2060001 1.048
26.108999 3.2160001 1.036
26.117001 3.207 1.029
26.125999 3.194 1.022
26.118 3.204 1.01
26.118999 3.2019999 1.001
26.125 3.194 0.99299997
26.127001 3.1919999 0.98400003
26.117001 3.2030001 0.972
26.118 3.201 0.963
26.112 3.2079999 0.95200002
26.118999 3.1989999 0.94499999
26.121 3.197 0.93599999
26.120001 3.197 0.926
26.121 3.1949999 0.917
26.118 3.198 0.90700001
26.122 3.1930001 0.89899999
26.117001 3.198 0.88800001
26.112 3.204 0.87800002
26.115 3.1989999 0.86900002
26.115 3.198 0.86000001
26.110001 3.204 0.84899998
26.120001 3.1919999 0.84200001
26.122999 3.188 0.833
26.114 3.197 0.82200003
26.114 3.197 0.81300002
26.127001 3.181 0.80599999
26.113001 3.198 0.79400003
26.115999 3.1930001 0.78600001
26.117001 3.1919999 0.77600002
26.113001 3.1949999 0.76599997
26.118 3.1889999 0.75800002
26.105 3.204 0.74599999
26.113001 3.194 0.73900002
26.118999 3.1860001 0.73000002
26.115999 3.1889999 0.72100002
26.111 3.1949999 0.70999998
26.115999 3.188 0.70200002
26.120001 3.1819999 0.69400001
26.114 3.1900001 0.68300003
26.108999 3.1949999 0.67299998
26.120001 3.181 0.66600001
26.106001 3.197 0.65399998
26.115 3.1860001 0.64600003
26.115999 3.1849999 0.63700002
26.115999 3.184 0.62800002
26.114 3.1860001 0.61799997
26.125 3.171 0.611
26.105 3.1960001 0.59899998
26.122999 3.1730001 0.59200001
26.111 3.1860001 0.58099997
26.105 3.1930001 0.57099998
26.124001 3.1700001 0.56400001
26.115 3.181 0.55400002
26.121 3.1719999 0.54500002
26.118 3.1760001 0.53600001
26.122999 3.1689999 0.52700001
26.118999 3.174 0.51700002
26.111 3.1830001 0.50700003
26.117001 3.174 0.49900001
26.110001 3.1830001 0.48800001
26.111 3.181 0.479
26.108 3.184 0.47
26.115 3.1760001 0.461
26.108 3.1830001 0.45100001
26.098 3.194 0.44100001
26.104 3.187 0.433
26.108999 3.181 0.42399999
26.101999 3.188 0.414
26.111 3.177 0.40599999
26.108 3.1789999 0.396
26.115999 3.1700001 0.38800001
26.106001 3.181 0.37799999
26.159 3.1159999 0.37200001
26.163 3.1110001 0.36300001
26.165001 3.1070001 0.354
26.156 3.1170001 0.34400001
26.163 3.109 0.33500001
26.16 3.1129999 0.32499999
26.159 3.112 0.31600001
26.165001 3.105 0.30700001
26.159 3.1110001 0.29699999
26.165001 3.1040001 0.28799999
26.162001 3.1059999 0.27900001
26.167 3.0999999 0.27000001
