ply
format ascii 1.0
comment PCL generated
element vertex 666
property float x
property float y
property float z
element camera 1
property float view_px
property float view_py
property float view_pz
property float x_axisx
property float x_axisy
property float x_axisz
property float y_axisx
property float y_axisy
property float y_axisz
property float z_axisx
property float z_axisy
property float z_axisz
property float focal
property float scalex
property float scaley
property float centerx
property float centery
property int viewportx
property int viewporty
property float k1
property float k2
end_header
1.4069999 10.491 0.055
-0.32291311 10.552377 0.024985509
-0.25078112 10.554052 0.050875541
-0.14792693 10.556896 0.050033223
-0.089562491 10.571438 0.08524999
0.46448296 10.575765 0.048658539
0.55179846 10.570541 0.050009433
0.64904958 10.572023 0.048497077
1.1836635 10.546747 0.062401876
1.2499441 10.539054 0.052045554
1.3500199 10.52854 0.050890639
1.4260173 10.545684 0.030919541
-0.31945834 10.665543 0.027708335
-0.24161759 10.688591 0.044367645
-0.14240067 10.660751 0.044185422
-0.085211128 10.643679 0.080955572
0.42007694 10.625385 0.041384615
0.68293381 10.647299 0.049887761
1.1846522 10.635522 0.082304358
1.2583055 10.646864 0.056986898
1.350415 10.641558 0.04836455
1.4227552 10.633034 0.028555555
-0.32602093 10.712063 0.025708331
-0.27200007 10.710217 0.064985521
-0.19260001 10.7058 0.090400003
0.47255421 10.780966 0.048175674
0.54776847 10.761012 0.050556909
0.65918642 10.746736 0.050035488
0.70523083 10.729846 0.044692308
0.46800005 10.80275 0.017416667
1.249 10.497 0.19
1.362 10.496 0.109
-0.23070911 10.55728 0.13427272
-0.15044399 10.556342 0.15015076
-0.053768951 10.566452 0.15389889
0.0046666665 10.582001 0.19316667
0.46601555 10.579757 0.14838019
0.55013722 10.575774 0.14953919
0.64888966 10.574009 0.14882514
1.0910589 10.542354 0.1894706
1.1549582 10.54222 0.15478037
1.2500464 10.530952 0.15108065
1.3324951 10.539648 0.13944814
-0.22497143 10.669545 0.13408573
-0.14492197 10.688583 0.14520563
-0.04415549 10.657896 0.14867975
0.0089090914 10.647342 0.18911362
0.45566666 10.627334 0.13566667
0.56099999 10.6 0.131
0.68231064 10.650275 0.14998959
1.09425 10.629499 0.19325
1.1597372 10.647442 0.15958762
1.249436 10.64365 0.15108153
1.3297669 10.631934 0.13603771
-0.22823998 10.713733 0.13736001
-0.1681356 10.708492 0.16901694
-0.069000006 10.703182 0.18099999
0.47168431 10.775483 0.14921805
0.54891998 10.764213 0.14874402
0.65868968 10.749246 0.14871597
0.70594996 10.73315 0.15089999
0.461 10.8035 0.155
1.2423333 10.488889 0.22622223
-0.20550001 10.561501 0.20200001
-0.13899347 10.559869 0.23696114
-0.049474783 10.557415 0.24920158
0.038131677 10.568575 0.25770786
0.46650013 10.580543 0.24822399
0.55063641 10.576846 0.24792273
0.64730638 10.575027 0.24845004
0.99650002 10.541 0.2965
1.0606843 10.545266 0.25881362
1.150014 10.533152 0.2506507
1.2404217 10.537916 0.24226889
1.3048 10.5674 0.2086
-0.13086112 10.680333 0.23666665
-0.044479724 10.688783 0.24333104
0.046281986 10.653921 0.25234592
0.1074 10.662801 0.28840002
0.46399999 10.61925 0.25912499
0.53299999 10.604 0.25466669
0.68047202 10.650498 0.24912688
1.0679289 10.647157 0.26388088
1.1499403 10.646845 0.24940994
1.2383006 10.63477 0.24088082
1.3 10.609 0.20100001
-0.20299999 10.703 0.20100001
-0.13357145 10.712191 0.23914289
-0.068883337 10.708049 0.26714998
0.03125 10.702875 0.28562498
0.46989223 10.769827 0.25077704
0.55123127 10.766881 0.24889921
0.65908927 10.749397 0.24987838
0.70260006 10.740133 0.23999999
0.463 10.805 0.20999999
1.123 10.496 0.39500001
-0.10785715 10.565857 0.31000003
-0.043716583 10.560099 0.34228349
0.052760277 10.558333 0.34575284
0.12878686 10.565438 0.36332488
0.46666676 10.585879 0.34835976
0.55147249 10.580054 0.34920532
0.64803421 10.57688 0.34978515
0.89200002 10.561 0.39399999
0.9634847 10.546707 0.3618584
1.0495464 10.536313 0.34896892
1.1433097 10.534939 0.34513554
1.2105151 10.570636 0.31472734
-0.11800001 10.61025 0.31099999
-0.039911777 10.675412 0.33744124
0.062902607 10.684011 0.33660394
0.13803768 10.651074 0.35766667
0.2 10.656 0.396
0.46094733 10.613262 0.36373684
0.54185718 10.603572 0.38
0.67999995 10.64752 0.34831578
0.97479123 10.647672 0.37479109
1.051295 10.649339 0.35141009
1.1466289 10.634606 0.34595653
1.208842 10.618527 0.31431577
-0.10533334 10.706001 0.30400002
-0.040627908 10.714999 0.34548062
0.033629216 10.707101 0.36514607
0.11033334 10.704166 0.37216669
0.46855843 10.770642 0.35035056
0.55069792 10.768068 0.34906381
0.65902245 10.749814 0.35001692
0.705091 10.733638 0.34836364
0.456 10.802 0.37
1.049 10.492 0.48500001
1.118 10.494 0.41299999
-0.014359999 10.569199 0.41808
0.050904304 10.566756 0.4463205
0.15352976 10.561694 0.44663632
0.22032174 10.573791 0.47249562
0.46419013 10.587402 0.44871506
0.55122471 10.582376 0.4496035
0.64756137 10.578403 0.44853827
0.86841214 10.555783 0.47050679
0.94881177 10.540583 0.44967538
1.0481395 10.534099 0.44778985
1.1173607 10.556606 0.42186886
-0.020285714 10.640858 0.41671428
0.059972219 10.676862 0.43980551
0.16878214 10.670017 0.43459883
0.2288696 10.653573 0.46452174
0.38699999 10.648 0.49700001
0.46194285 10.620258 0.45939997
0.54918754 10.60225 0.45537493
0.67820323 10.649218 0.45141709
0.87637931 10.637657 0.48013791
0.95338947 10.652445 0.45358008
1.0496531 10.639503 0.44914338
1.11766 10.62378 0.42126003
-0.0086666662 10.721446 0.41144446
0.053575747 10.715718 0.44661805
0.13822621 10.706356 0.45705941
0.21359999 10.7022 0.47700006
0.46669471 10.771957 0.45224673
0.54948664 10.769265 0.44941235
0.65860021 10.752148 0.44934204
0.70610529 10.729632 0.44489473
0.4576667 10.801666 0.4316667
0.080297872 10.566277 0.52057439
0.15235424 10.566661 0.54775977
0.25050163 10.568125 0.54949528
0.31030002 10.583598 0.5819
0.46599418 10.588321 0.54852337
0.55154794 10.580215 0.54826713
0.64578587 10.579197 0.54934424
0.78401595 10.560046 0.57577771
0.85199404 10.5458 0.55096358
0.94979465 10.532524 0.54982293
1.0243169 10.546503 0.53014636
0.078000002 10.647301 0.52439994
0.1625814 10.684652 0.53665113
0.26521662 10.666393 0.53583413
0.32129192 10.652871 0.57552445
0.45892107 10.619893 0.55286843
0.55346161 10.602922 0.57053846
0.67632657 10.649165 0.54787284
0.78429997 10.6412 0.58450001
0.85682529 10.659713 0.55492592
0.94787365 10.646993 0.55021185
1.0236224 10.626377 0.53228569
0.082369566 10.720739 0.52247834
0.14819233 10.715445 0.55217594
0.23650001 10.706705 0.5689559
0.31200001 10.702334 0.55766672
0.46790078 10.768262 0.5490213
0.55191112 10.772756 0.54842228
0.6576758 10.752557 0.55083954
0.70440012 10.7288 0.54366666
0.46799999 10.806 0.51250005
0.17409785 10.574326 0.63395661
0.25070474 10.565123 0.64936507
0.34105536 10.572697 0.65732807
0.46586999 10.590294 0.64953429
0.55166334 10.58215 0.64811796
0.6456691 10.580256 0.6510402
0.75733465 10.5498 0.65594417
0.84931135 10.535207 0.64988089
0.93112701 10.544876 0.63730937
0.1655294 10.641648 0.63976467
0.26548651 10.684837 0.64327031
0.35707214 10.665985 0.63860798
0.4382405 10.625634 0.66267073
0.5346154 10.606077 0.6498462
0.67411357 10.642362 0.64707041
0.75932163 10.656736 0.65520471
0.85086733 10.658923 0.65057272
0.93329453 10.63124 0.63781589
0.17883332 10.726568 0.62801403
0.24537316 10.716703 0.65191543
0.33588341 10.707368 0.67219996
0.46713766 10.768087 0.65030432
0.55094725 10.774777 0.6501447
0.65500963 10.753765 0.64808726
0.70324999 10.717375 0.62099999
0.838 10.496 0.74599999
0.26765242 10.575328 0.73891503
0.35246682 10.567931 0.74940699
0.44512644 10.581988 0.75172389
0.5498119 10.584081 0.74574995
0.65536863 10.560848 0.74702537
0.75020719 10.536537 0.75022203
0.83861405 10.540622 0.73930502
0.91075003 10.572001 0.708
0.25429413 10.64253 0.74323523
0.36713338 10.683601 0.72980005
0.4534058 10.614362 0.74144918
0.56193942 10.612304 0.76936376
0.6633358 10.652862 0.75402188
0.75057387 10.662797 0.74962592
0.84199017 10.638498 0.74243343
0.90425003 10.615749 0.70274997
0.27146289 10.727277 0.73292601
0.34619632 10.716769 0.75185055
0.46440542 10.770219 0.74919593
0.55059028 10.777126 0.74997783
0.64924324 10.760865 0.74918616
0.59549999 10.493999 0.88749999
0.60100001 10.497 0.89700001
0.73100001 10.499 0.87199998
0.29299998 10.585376 0.81037503
0.35992348 10.574792 0.84032643
0.45151067 10.567695 0.84931076
0.54740131 10.567161 0.85501099
0.64917731 10.539957 0.85133344
0.74331576 10.536053 0.84372193
0.8111763 10.577175 0.8164705
0.29250002 10.621 0.80550003
0.33829165 10.645042 0.84379166
0.48699999 10.60425 0.80900002
0.5502221 10.623277 0.83101845
0.67956132 10.669499 0.85170412
0.74673903 10.644058 0.84649998
0.81139135 10.617218 0.81317395
0.29800001 10.726 0.80000001
0.36617601 10.727042 0.83499211
0.45715755 10.768167 0.85267884
0.55040449 10.778357 0.84923655
0.64808393 10.763725 0.84935343
0.45074999 10.80175 0.89024997
0.66299999 10.8 0.87599999
0.59600008 10.491 0.90799999
0.61371422 10.494429 0.9177143
0.38707143 10.584215 0.91692859
0.45795619 10.567932 0.94520938
0.54892051 10.546076 0.95148176
0.64679456 10.534952 0.9489097
0.71739399 10.56106 0.91400003
0.38916668 10.642 0.91250002
0.42735001 10.635151 0.96470004
0.50300002 10.602 0.97000003
0.67560309 10.65378 0.95396817
0.71793872 10.630305 0.92069399
0.39199999 10.717 0.90100002
0.46225888 10.777859 0.95075828
0.54974532 10.778717 0.94939911
0.65045446 10.762116 0.9515928
0.4491111 10.804222 0.93866664
0.56400001 10.8 0.98699999
0.46551144 10.587828 1.0477294
0.5532161 10.542176 1.0472063
0.63921213 10.572179 1.0488693
0.45006058 10.615547 1.0548637
0.52587503 10.60525 1.0707499
0.66834778 10.648544 1.0499569
0.46311033 10.780412 1.0488635
0.65645039 10.758754 1.0494943
0.69999999 10.736 1.0190001
0.45749998 10.804667 1.050611
0.4667522 10.592144 1.148896
0.55390519 10.582397 1.1489277
0.63897759 10.583035 1.1498299
0.45072335 10.612756 1.1521599
0.54397786 10.605734 1.1624668
0.66513395 10.650151 1.1488867
0.46714064 10.592138 1.2481407
0.55314273 10.589804 1.2493551
0.6374619 10.583804 1.2478172
0.45150572 10.617137 1.2522184
0.53506672 10.605317 1.25175
0.66422027 10.645628 1.2485271
0.46322942 10.592157 1.3537862
0.55249083 10.58936 1.3484589
0.63842213 10.585575 1.3483217
0.45317936 10.614067 1.3448491
0.53949082 10.604781 1.3459092
0.66063964 10.644526 1.3469516
0.46595111 10.59003 1.4513566
0.55332887 10.589444 1.4509171
0.63697922 10.58553 1.4477121
0.396 10.602 1.465
0.45016208 10.616621 1.4481894
0.53598392 10.604742 1.4460647
0.6595782 10.64621 1.4485936
0.44621432 10.735216 1.4437144
0.46137285 10.590936 1.5474638
0.54967117 10.586429 1.5492557
0.63520449 10.585592 1.5482105
0.45154831 10.614022 1.5544729
0.54809761 10.606001 1.5504391
0.65877247 10.646442 1.5489366
0.43206251 10.745313 1.5481249
0.65316457 10.765425 1.5483551
0.45775002 10.804501 1.54575
0.63218176 10.802274 1.5633637
0.46152592 10.591453 1.6523628
0.55116057 10.587728 1.6485558
0.63370544 10.584863 1.6481166
0.45014459 10.612144 1.6441927
0.54247057 10.605736 1.6543826
0.65661389 10.646656 1.6497445
0.46657997 10.786918 1.65688
0.55161279 10.790087 1.6501549
0.6541124 10.765094 1.6481752
0.4692857 10.804144 1.6609428
0.53616667 10.803056 1.6492498
0.6251111 10.802445 1.6355555
0.46278986 10.590714 1.7491685
0.55019474 10.588969 1.7487608
0.6319049 10.587197 1.7485896
0.45306581 10.609541 1.7471185
0.5376364 10.606205 1.7498187
0.65413016 10.645576 1.7501593
0.46317497 10.791265 1.7444375
0.55588156 10.791355 1.7504672
0.65055931 10.763276 1.750523
0.4571692 10.80677 1.7579385
0.53066665 10.802794 1.7476413
0.61549997 10.8005 1.7255001
0.46057278 10.593218 1.8502274
0.55114758 10.5899 1.8474238
0.6325255 10.585917 1.8472692
0.45207685 10.61178 1.8498131
0.54026932 10.605848 1.8513463
0.65271491 10.648159 1.8485402
0.396 10.766 1.8839999
0.45070001 10.785175 1.8436251
0.55940175 10.790976 1.8469921
0.65030694 10.765851 1.8499099
0.46250516 10.806566 1.8533912
0.52983588 10.804626 1.8561046
0.6454286 10.802858 1.8479999
0.45411894 10.592202 1.9532859
0.55120397 10.590313 1.9471682
0.63144618 10.586498 1.9483089
0.45315835 10.617377 1.9469306
0.53657496 10.605651 1.9484249
0.65054321 10.645646 1.9487655
0.38200003 10.744572 1.9575715
0.44204539 10.774252 1.9487274
0.55654871 10.793283 1.947911
0.65106869 10.763863 1.9505128
0.46172455 10.807082 1.9504391
0.53626758 10.803929 1.9552395
0.62742865 10.803144 1.9398571
0.39700001 10.583 2.099
0.45323604 10.566597 2.056839
0.54756665 10.571453 2.0557401
0.62902451 10.585424 2.0473824
0.39118186 10.648455 2.0777276
0.43781638 10.627532 2.0381634
0.53973681 10.604473 2.0300002
0.64928746 10.6457 2.0490263
0.38850001 10.757 2.0345001
0.42700002 10.769398 2.0533545
0.55522013 10.792042 2.0505328
0.64894378 10.765414 2.0480123
0.46237382 10.808254 2.0444438
0.53603947 10.804444 2.0516849
0.63682353 10.803883 2.0630002
0.39222223 10.460889 2.1851113
0.4486317 10.466705 2.1658874
0.53504211 10.470924 2.1661441
0.39177778 10.537778 2.1584444
0.44710392 10.523631 2.121496
0.55985045 10.541827 2.1371646
0.62570274 10.585872 2.1498113
0.38849998 10.606501 2.1500001
0.41672733 10.648591 2.1490004
0.64652038 10.64744 2.1483583
0.38278949 10.766368 2.1538422
0.43301815 10.777527 2.1392725
0.55536652 10.794612 2.1488001
0.6479823 10.763177 2.1473849
0.38800001 10.802999 2.1775
0.45518965 10.810706 2.1548462
0.54235232 10.805965 2.1556253
0.63081819 10.803227 2.1459088
0.39450002 10.367407 2.2648752
0.44869867 10.370383 2.2672286
0.52898461 10.37084 2.2726033
0.39254549 10.440183 2.2349999
0.44936052 10.421729 2.2229724
0.54332793 10.434618 2.2387314
0.60000002 10.498 2.2390001
0.389375 10.537126 2.2622499
0.41250002 10.556572 2.241786
0.57443768 10.55792 2.2495153
0.62659293 10.580821 2.2483802
0.39750004 10.62675 2.2160001
0.42430004 10.645502 2.2532501
0.59399998 10.659 2.2839999
0.64240414 10.646657 2.2490988
0.37577781 10.771778 2.2336667
0.4104546 10.741818 2.249182
0.58041024 10.792232 2.2505896
0.6459083 10.761456 2.2494915
0.38705558 10.827001 2.2595003
0.45023251 10.839928 2.2496665
0.54338199 10.830859 2.2507885
0.62203842 10.803423 2.2416153
0.38778839 10.270404 2.3730576
0.4483757 10.271635 2.3729308
0.52236533 10.276057 2.3737402
0.3908824 10.322529 2.3269413
0.44726098 10.324819 2.3269517
0.53658998 10.341403 2.3430595
0.39750001 10.4775 2.3729999
0.40985715 10.457144 2.3340001
0.55673075 10.447398 2.3459358
0.39383334 10.551167 2.3286667
0.42550001 10.547874 2.3420002
0.57139266 10.569758 2.3479252
0.62518269 10.583613 2.3500102
0.398 10.695 2.355
0.42260867 10.648304 2.348
0.57999998 10.607 2.3935001
0.64245069 10.64793 2.3490067
0.38475001 10.7605 2.33325
0.41119996 10.734301 2.3450999
0.58013892 10.792279 2.3506668
0.64423573 10.759871 2.3493714
0.38070965 10.852001 2.347903
0.44848377 10.878888 2.3356717
0.55166811 10.862759 2.3422153
0.62331235 10.803248 2.351594
0.39899999 10.904 2.3940001
0.44919482 10.911872 2.3764415
0.53080767 10.908903 2.3761346
0.38326666 10.187267 2.458533
0.44272 10.191179 2.45294
0.51907146 10.190073 2.4602144
0.38604915 10.227884 2.4306717
0.44968623 10.225946 2.4275749
0.52850521 10.246503 2.4398611
0.39128575 10.341144 2.4377146
0.40200001 10.3605 2.4309998
0.54410249 10.346739 2.4504662
0.3888 10.4188 2.4556
0.40500003 10.473 2.4166667
0.55065709 10.440286 2.4372005
0.419 10.5975 2.4505
0.56536448 10.583337 2.4495001
0.62310535 10.586135 2.4477682
0.41708332 10.653126 2.4473333
0.57033336 10.620001 2.4563334
0.6385985 10.648416 2.4503498
0.39400002 10.779399 2.4308002
0.41769996 10.728 2.4491003
0.58050001 10.795499 2.4508331
0.63875622 10.76139 2.4479265
0.37374997 10.872937 2.4341877
0.40766668 10.862333 2.4565001
0.5726217 10.841996 2.4477301
0.62686038 10.806278 2.4561861
0.3823846 10.914386 2.4650772
0.4502601 10.943732 2.4492109
0.5408712 10.939756 2.4509511
0.60500002 10.981 2.493
0.48500001 11 2.4489999
0.36466667 10.082335 2.5871668
0.44380003 10.0862 2.5781999
0.51150006 10.084167 2.5819998
0.37572229 10.14139 2.5576665
0.45653847 10.14477 2.5246923
0.52127272 10.154931 2.5545683
0.37990001 10.2406 2.5558
0.45566666 10.232333 2.5653334
0.52892303 10.253831 2.5469997
0.37700003 10.329144 2.5597143
0.40333337 10.337667 2.5040002
0.54018968 10.336656 2.5350516
0.53933334 10.434668 2.53
0.55565512 10.585749 2.5523722
0.62228888 10.585465 2.5490112
0.42178574 10.653644 2.5387146
0.55994737 10.60358 2.5468948
0.6384517 10.648537 2.5490816
0.39499998 10.747499 2.5495
0.41641665 10.750334 2.5466669
0.58346671 10.7932 2.5533335
0.63890088 10.757922 2.5469449
0.39899999 10.871 2.523
0.41133329 10.844001 2.5460835
0.57179999 10.841284 2.547509
0.62931043 10.807603 2.5498447
0.3868438 10.960407 2.5448749
0.44752765 10.980922 2.5351739
0.54845297 10.96893 2.5420442
0.39324999 11.005 2.5922501
0.44980904 11.01172 2.5757079
0.53368282 11.009048 2.5741949
0.35816669 9.9863338 2.6901665
0.45425001 9.9862499 2.68625
0.50266671 9.9923344 2.6750002
0.36246154 10.048731 2.6549616
0.46406245 10.037562 2.6393123
0.51117641 10.060412 2.6555295
0.35912499 10.147418 2.6500001
0.48740003 10.1452 2.6674001
0.52026182 10.151477 2.6493576
0.3651818 10.235364 2.6608181
0.48888889 10.231778 2.6733334
0.52280861 10.242511 2.6387868
0.37900001 10.308 2.6289999
0.495 10.312 2.6159999
0.54699999 10.311 2.6159999
0.49433327 10.57811 2.6747777
0.54900014 10.583847 2.649406
0.62231582 10.585221 2.6499338
0.42033336 10.611334 2.632
0.57599998 10.605947 2.6593161
0.63662475 10.647318 2.6491318
0.42250001 10.7755 2.6382499
0.56145453 10.795635 2.6445456
0.6389479 10.752726 2.6497996
0.43400002 10.841637 2.642
0.57107306 10.82878 2.6476984
0.62498385 10.808368 2.6440637
0.37433335 10.981667 2.6620002
0.40727273 10.948729 2.6516366
0.56709385 10.932185 2.6264999
0.39127272 11.010818 2.6309998
0.43818748 11.030313 2.6292505
0.55240005 11.0465 2.6497998
0.347 9.8754997 2.7969999
0.47075 9.8811264 2.7850001
0.35544822 9.9474478 2.75669
0.48251426 9.9487429 2.7474003
0.50108337 9.9781666 2.7509999
0.3463333 10.056049 2.7561905
0.48177779 10.053668 2.7408888
0.51039469 10.05379 2.7487891
0.35133335 10.147334 2.745095
0.46254998 10.157351 2.7641997
0.51538891 10.143558 2.7384443
0.36650002 10.223 2.7125001
0.465 10.211667 2.7106667
0.50400001 10.2115 2.714
0.377 10.587 2.786
0.48419344 10.584935 2.7383225
0.55022568 10.582279 2.7255058
0.62138462 10.586667 2.7280259
0.57675004 10.61475 2.7597499
0.63728565 10.650035 2.7507286
0.57000005 10.796 2.7160001
0.63806593 10.74576 2.7437692
0.458 10.883 2.72
0.56357497 10.814224 2.7242754
0.62886369 10.806682 2.7253184
0.3955 10.9785 2.7375002
0.41166666 10.952443 2.7478888
0.54833335 10.949223 2.7487781
0.39633334 11.047999 2.7606668
0.42185712 11.062667 2.7545717
0.56118184 11.055272 2.7525456
0.39700001 11.102 2.737
0.44814286 11.119429 2.7711427
0.36374998 9.7952499 2.888
0.4445 9.7875004 2.8895001
0.34816131 9.8476105 2.8503544
0.47270465 9.8532038 2.8512046
0.33543333 9.9476347 2.8527999
0.49008819 9.9432344 2.8507941
0.50066668 9.9956675 2.8376665
0.34928572 10.049239 2.8530002
0.46231994 10.051199 2.8628001
0.50783998 10.04424 2.83744
0.3585 10.118 2.822
0.44530001 10.1119 2.8175001
0.50999999 10.108 2.8039999
0.37733334 10.588333 2.8266666
0.47649997 10.585501 2.8604999
0.56266665 10.583334 2.8538332
0.62872726 10.588274 2.8328183
0.35600001 10.606 2.8970001
0.54775 10.6075 2.8287501
0.65301728 10.639035 2.8279314
0.70200002 10.695 2.8940001
0.35499999 10.717 2.8800001
0.63706899 10.76 2.8375859
0.574 10.812 2.8039999
0.63390005 10.8225 2.8398001
0.39899999 10.967 2.806
0.43277779 10.974 2.8588889
0.54279995 10.957999 2.8416002
0.39566669 11.061333 2.8570001
0.41287503 11.054 2.8500624
0.55730003 11.0698 2.8634
0.39899999 11.107 2.8699999
0.34100002 9.684 2.9976668
0.44100001 9.6837511 2.992125
0.33254543 9.7565002 2.9558637
0.45854175 9.7538967 2.9549377
0.32404 9.8493996 2.9466403
0.47887805 9.8490953 2.949805
0.34677422 9.9584188 2.9526122
0.47135293 9.9528427 2.9473732
0.50599998 9.9809999 2.9979999
0.36016667 10.0225 2.9126668
0.46137503 10.017125 2.9097502
0.51100004 10.01 2.9120002
0.068000004 10.575667 2.9623334
0.29000002 10.5965 2.9705
0.3775 10.591 2.9435
0.48199999 10.585 2.9260001
0.55500001 10.588 2.9289999
0.63833332 10.573 2.9596667
0.704 10.589 2.983
0.28371429 10.649428 2.9807146
0.32949999 10.657001 2.9302499
0.458 10.602 2.973
0.56220001 10.6122 2.9535999
0.65261108 10.619167 2.9351668
0.72072732 10.635818 2.9705455
0.289 10.716499 2.9805
0.31133336 10.716666 2.9370003
0.66066664 10.728667 2.9216666
0.71799999 10.706 2.987
0.53600001 10.861 2.967
0.62099999 10.81 2.9130001
0.46833333 10.990667 2.9456668
0.5535 10.938999 2.9825001
0.6034444 10.975111 2.9844444
0.396 11.065 2.983
0.41726664 11.064934 2.9420002
0.57397145 11.053683 2.9608002
0.60380006 11.056133 2.9826002
0.39300001 11.167 2.9419999
0.42049998 11.153457 2.9517918
0.57929826 11.145596 2.9496493
0.60810012 11.153501 2.9746997
0 0 0 1 0 0 0 1 0 0 0 1 0 0 0 0 0 666 1 0 0
