ply
format ascii 1.0
comment PCL generated
element vertex 1898
property float x
property float y
property float z
element camera 0
property float view_px
property float view_py
property float view_pz
property float x_axisx
property float x_axisy
property float x_axisz
property float y_axisx
property float y_axisy
property float y_axisz
property float z_axisx
property float z_axisy
property float z_axisz
property float focal
property float scalex
property float scaley
property float centerx
property float centery
property int viewportx
property int viewporty
property float k1
property float k2
end_header
22.646999 3.053 2.5339999
22.665001 3.0420001 2.4960001
22.635 3.056 2.451
22.659 3.0420001 2.4130001
22.622 3.0610001 2.368
22.660999 3.039 2.332
22.636 3.0510001 2.2880001
22.641001 3.0469999 2.2479999
22.667 3.0309999 2.211
22.646 3.0409999 2.168
22.695 3.0139999 2.1329999
22.641001 3.0409999 2.086
22.653 3.033 2.0469999
22.649 3.0339999 2.006
22.658001 3.0280001 1.966
22.65 3.0309999 1.925
22.667 3.0209999 1.886
22.656 3.0250001 1.844
22.646 3.029 1.803
22.65 3.0250001 1.763
22.656 3.0209999 1.723
22.657 3.0190001 1.683
22.660999 3.0150001 1.642
22.679001 3.0050001 1.604
22.650999 3.0179999 1.561
22.645 3.02 1.52
22.66 3.0109999 1.48
22.653999 3.0120001 1.4400001
22.650999 3.013 1.399
22.667 3.003 1.36
22.664 3.003 1.319
22.660999 3.003 1.278
22.659 3.003 1.238
22.669001 2.9960001 1.198
22.545 3.0610001 1.149
22.51 3.0780001 1.1059999
22.462999 3.102 1.063
22.462999 3.0999999 1.023
22.422001 3.1199999 0.98100001
22.400999 3.1300001 0.93900001
22.346001 3.158 0.89600003
22.316999 3.1719999 0.85500002
22.290001 3.1849999 0.81400001
22.301001 3.178 0.77499998
22.285999 3.1849999 0.73400003
22.285999 3.1830001 0.69499999
22.309 3.1700001 0.65600002
22.309999 3.168 0.61699998
22.306999 3.168 0.57700002
22.282 3.1800001 0.53600001
22.681 2.967 0.51200002
22.664 2.9749999 0.47099999
22.687 2.961 0.43200001
22.677 2.9649999 0.391
22.669001 2.9679999 0.35100001
22.688 2.957 0.31099999
22.679001 2.96 0.27000001
22.629 3.122 2.9760001
22.627001 3.1210001 2.9349999
22.638 3.1140001 2.8959999
22.664 3.099 2.859
22.643999 3.108 2.8150001
22.650999 3.1040001 2.7750001
22.653 3.1010001 2.7349999
22.657 3.0969999 2.6949999
22.645 3.102 2.652
22.628 3.1099999 2.609
22.636 3.105 2.569
22.642 3.0999999 2.53
22.642 3.098 2.4890001
22.65 3.0929999 2.4489999
22.639999 3.0969999 2.4070001
22.643 3.0940001 2.3670001
22.641001 3.095 2.326
22.634001 3.0969999 2.2850001
22.649 3.0880001 2.2460001
22.645 3.089 2.2049999
22.649 3.085 2.165
22.643 3.0869999 2.1240001
22.645 3.0840001 2.0829999
22.653999 3.079 2.0439999
22.652 3.0780001 2.003
22.658001 3.0739999 1.9630001
22.664 3.069 1.923
22.653999 3.073 1.882
22.655001 3.0710001 1.841
22.658001 3.0680001 1.801
22.652 3.0699999 1.76
22.659 3.0650001 1.72
22.663 3.062 1.6799999
22.674 3.0539999 1.641
22.652 3.0650001 1.598
22.664 3.0569999 1.559
22.653 3.0610001 1.518
22.653999 3.059 1.477
22.653 3.059 1.437
22.660999 3.053 1.397
22.674999 3.0450001 1.358
22.659 3.052 1.316
22.650999 3.0539999 1.275
22.634001 3.062 1.233
22.577 3.0910001 1.189
22.566 3.095 1.148
22.52 3.118 1.105
22.503 3.125 1.064
22.452999 3.151 1.02
22.417999 3.168 0.97799999
22.393999 3.1789999 0.93699998
22.386 3.1819999 0.89700001
22.379999 3.184 0.85600001
22.399 3.1730001 0.81800002
22.377001 3.1830001 0.77700001
22.399 3.1700001 0.73799998
22.398001 3.1689999 0.69800001
22.389 3.1719999 0.65799999
22.667999 3.0239999 0.63099998
22.653 3.0309999 0.58999997
22.672001 3.0190001 0.551
22.67 3.0190001 0.50999999
22.681 3.0109999 0.47
22.663 3.02 0.42899999
22.695999 3.0009999 0.38999999
22.676001 3.01 0.34900001
22.674999 3.01 0.30899999
22.659 3.016 0.26800001
22.677 3.006 0.228
22.658001 3.0150001 0.18799999
22.687 2.9990001 0.148
22.610001 3.177 2.9690001
22.636999 3.161 2.9319999
22.629999 3.164 2.891
22.641001 3.1570001 2.8510001
22.655001 3.148 2.813
22.659 3.145 2.773
22.643 3.152 2.7290001
22.652 3.1459999 2.6900001
22.658001 3.141 2.6500001
22.643 3.1470001 2.6070001
22.653999 3.1400001 2.5680001
22.709 3.1099999 2.5350001
22.652 3.1389999 2.487
22.645 3.141 2.4449999
22.658001 3.1329999 2.4059999
22.634001 3.1440001 2.362
22.638 3.141 2.322
22.671 3.122 2.286
22.643 3.135 2.2420001
22.665001 3.1229999 2.204
22.667 3.1199999 2.164
22.657 3.1240001 2.122
22.653 3.125 2.0810001
22.67 3.1140001 2.0420001
22.643999 3.1270001 1.999
22.658001 3.118 1.96
22.648001 3.122 1.918
22.642 3.1240001 1.877
22.65 3.118 1.8380001
22.66 3.112 1.798
22.663 3.109 1.758
22.657 3.1110001 1.717
22.646 3.115 1.676
22.653999 3.1099999 1.636
22.688 3.0899999 1.599
22.645 3.1110001 1.554
22.656 3.105 1.515
22.649 3.108 1.474
22.667 3.0969999 1.4349999
22.653999 3.1029999 1.3940001
22.658001 3.099 1.354
22.656 3.099 1.313
22.638 3.1070001 1.272
22.615999 3.1170001 1.23
22.575001 3.1370001 1.186
22.554001 3.1470001 1.145
22.521 3.1630001 1.102
22.483 3.181 1.0599999
22.471001 3.1860001 1.0190001
22.459999 3.191 0.97799999
22.448 3.1960001 0.93800002
22.464001 3.1860001 0.89899999
22.473 3.1800001 0.86000001
22.473 3.1789999 0.81999999
22.482 3.1730001 0.77999997
22.504999 3.1589999 0.74199998
22.684 3.0639999 0.70999998
22.676001 3.0669999 0.67000002
22.671 3.0680001 0.62900001
22.67 3.0669999 0.58899999
22.662001 3.0699999 0.54799998
22.67 3.0650001 0.50800002
22.673 3.062 0.46799999
22.691999 3.05 0.42899999
22.688 3.0510001 0.38800001
22.681 3.053 0.34799999
22.677 3.0539999 0.30700001
22.674 3.0539999 0.26699999
22.663 3.059 0.226
22.672001 3.052 0.186
22.674999 3.05 0.146
22.690001 3.04 0.106
22.674 3.0469999 0.066
22.639 3.207 2.9690001
22.662001 3.194 2.9319999
22.643999 3.2019999 2.8889999
22.656 3.194 2.8499999
22.664 3.1889999 2.8099999
22.656 3.1919999 2.7679999
22.655001 3.191 2.727
22.643 3.1960001 2.6849999
22.646999 3.1919999 2.645
22.646 3.191 2.6040001
22.681 3.1719999 2.5680001
22.656 3.184 2.5239999
22.650999 3.1849999 2.483
22.649 3.184 2.4419999
22.65 3.1819999 2.402
22.638 3.187 2.359
22.659 3.175 2.322
22.669001 3.1689999 2.2820001
22.657 3.1730001 2.24
22.649 3.1760001 2.1989999
22.645 3.177 2.158
22.648001 3.174 2.118
22.676001 3.158 2.0799999
22.664 3.1630001 2.039
22.645 3.1719999 1.9960001
22.656 3.164 1.957
22.673 3.154 1.918
22.657 3.1619999 1.876
22.669001 3.154 1.837
22.653999 3.1600001 1.795
22.652 3.1600001 1.7539999
22.662001 3.1530001 1.715
22.66 3.1530001 1.674
22.652 3.1570001 1.633
22.667999 3.1470001 1.594
22.656 3.152 1.553
22.666 3.1459999 1.513
22.666 3.1440001 1.473
22.650999 3.151 1.431
22.67 3.1389999 1.392
22.657 3.145 1.351
22.665001 3.1400001 1.311
22.659 3.141 1.271
22.646 3.1470001 1.229
22.587999 3.1760001 1.1849999
22.555 3.191 1.142
22.548 3.194 1.102
22.542 3.1960001 1.061
22.540001 3.1949999 1.021
22.563 3.1819999 0.98299998
22.572001 3.1760001 0.94300002
22.552999 3.1849999 0.90200001
22.573999 3.1719999 0.86299998
22.681999 3.115 0.829
22.660999 3.1240001 0.78799999
22.68 3.1129999 0.74800003
22.660999 3.1210001 0.70700002
22.67 3.115 0.667
22.656 3.1210001 0.62699997
22.660999 3.1170001 0.58700001
22.667 3.1129999 0.54699999
22.676001 3.1070001 0.50700003
22.673 3.1070001 0.46599999
22.66 3.112 0.426
22.688999 3.096 0.38600001
22.694 3.092 0.34599999
22.672001 3.102 0.30500001
22.68 3.0969999 0.26499999
22.695 3.0869999 0.226
22.68 3.0940001 0.185
22.688999 3.0880001 0.145
22.674999 3.0940001 0.104
22.695999 3.082 0.064999998
22.68 3.089 0.024
22.679001 3.2320001 2.9719999
22.67 3.2349999 2.9300001
22.674999 3.2309999 2.8889999
22.657 3.2390001 2.846
22.674999 3.2279999 2.8080001
22.657 3.237 2.7639999
22.674 3.2260001 2.7260001
22.660999 3.2320001 2.684
22.660999 3.23 2.6429999
22.663 3.2279999 2.6029999
22.639999 3.2390001 2.559
22.632 3.2409999 2.517
22.652 3.23 2.4790001
22.638 3.2360001 2.437
22.639 3.234 2.3970001
22.650999 3.2260001 2.358
22.659 3.22 2.3180001
22.681 3.2079999 2.28
22.646999 3.224 2.2360001
22.667999 3.2119999 2.198
22.664 3.2130001 2.1570001
22.667999 3.2090001 2.1170001
22.662001 3.211 2.075
22.657 3.2119999 2.0339999
22.657 3.211 1.994
22.664 3.2060001 1.954
22.66 3.2060001 1.914
22.663 3.204 1.873
22.686001 3.1900001 1.835
22.687 3.188 1.795
22.688999 3.1860001 1.755
22.663 3.198 1.712
22.676001 3.1900001 1.673
22.676001 3.1900001 1.632
22.687 3.1830001 1.5930001
22.663 3.194 1.55
22.667 3.191 1.51
22.693001 3.1760001 1.472
22.658001 3.1930001 1.429
22.700001 3.1689999 1.392
22.684 3.1760001 1.351
22.667 3.184 1.309
22.664 3.184 1.268
22.631001 3.2 1.226
22.629999 3.1989999 1.1849999
22.636 3.1949999 1.146
22.629999 3.1960001 1.105
22.635 3.1919999 1.0650001
22.65 3.1830001 1.026
22.655001 3.1789999 0.986
22.669001 3.171 0.94700003
22.673 3.1670001 0.90700001
22.67 3.1670001 0.866
22.665001 3.1689999 0.82599998
22.68 3.1589999 0.787
22.677 3.1600001 0.74599999
22.669001 3.1619999 0.70599997
22.667 3.1619999 0.66500002
22.677 3.1559999 0.62599999
22.667 3.1589999 0.58499998
22.681 3.151 0.54500002
22.672001 3.154 0.505
22.681999 3.148 0.465
22.688999 3.1429999 0.42500001
22.676001 3.148 0.384
22.683001 3.1429999 0.34400001
22.672001 3.1470001 0.30399999
22.677 3.1429999 0.264
22.695999 3.132 0.22400001
22.676001 3.141 0.183
22.673 3.142 0.14300001
22.676001 3.138 0.103
22.669001 3.141 0.063000001
22.688999 3.1289999 0.023
22.729 3.2509999 2.9760001
22.735001 3.247 2.9360001
22.75 3.2379999 2.8970001
22.753 3.2349999 2.8570001
22.759001 3.2309999 2.8169999
22.763 3.227 2.777
22.759001 3.2279999 2.7349999
22.75 3.2309999 2.6930001
22.649 3.2820001 2.638
22.648001 3.2809999 2.5969999
22.639 3.2839999 2.5550001
22.642 3.2809999 2.5150001
22.639999 3.2809999 2.474
22.657 3.2709999 2.4360001
22.639999 3.2780001 2.3929999
22.667 3.263 2.3559999
22.723 3.233 2.323
22.731001 3.227 2.283
22.738001 3.223 2.243
22.719999 3.23 2.201
22.726999 3.2249999 2.161
22.735001 3.22 2.1210001
22.738001 3.217 2.0810001
22.749001 3.21 2.0420001
22.752001 3.207 2.0009999
22.737 3.2130001 1.959
22.742001 3.21 1.919
22.738001 3.21 1.878
22.738001 3.2090001 1.8380001
22.763 3.194 1.8
22.746 3.2019999 1.758
22.738001 3.2049999 1.716
22.733 3.2060001 1.675
22.742001 3.2 1.636
22.745001 3.197 1.596
22.732 3.2019999 1.554
22.732 3.201 1.5140001
22.723 3.204 1.472
22.736 3.1960001 1.433
22.745001 3.1900001 1.393
22.723 3.201 1.351
22.721001 3.2 1.311
22.709999 3.2049999 1.2690001
22.702 3.207 1.229
22.724001 3.1960001 1.1900001
22.721001 3.1960001 1.149
22.716999 3.1960001 1.109
22.74 3.1830001 1.0700001
22.725 3.1900001 1.029
22.737 3.1819999 0.98900002
22.722 3.188 0.94800001
22.73 3.1830001 0.90799999
22.729 3.1819999 0.86799997
22.731001 3.1800001 0.82700002
22.747999 3.1700001 0.78799999
22.74 3.1719999 0.74699998
22.728001 3.177 0.70599997
22.738001 3.171 0.667
22.739 3.1689999 0.62599999
22.737 3.168 0.58600003
22.723 3.174 0.54500002
22.736 3.1659999 0.505
22.733 3.1659999 0.465
22.733 3.165 0.42500001
22.705 3.178 0.384
22.718 3.1700001 0.34400001
22.674999 3.191 0.30199999
22.691999 3.181 0.26300001
22.688 3.1819999 0.222
22.695 3.177 0.182
22.67 3.188 0.142
22.672001 3.1860001 0.101
22.68 3.181 0.061000001
22.674 3.1830001 0.021
22.832001 3.244 2.9879999
22.844999 3.2360001 2.9489999
22.832001 3.2420001 2.9059999
22.848 3.2320001 2.8670001
22.834 3.237 2.8239999
22.830999 3.2379999 2.783
22.825001 3.2390001 2.7409999
22.652 3.3269999 2.675
22.653999 3.3239999 2.635
22.643999 3.3280001 2.5929999
22.632999 3.3329999 2.55
22.636999 3.329 2.5109999
22.639 3.3269999 2.47
22.641001 3.325 2.4300001
22.695 3.296 2.3970001
22.756001 3.263 2.3640001
22.837999 3.2190001 2.3340001
22.823999 3.2249999 2.2909999
22.83 3.221 2.2509999
22.833 3.2179999 2.211
22.837999 3.214 2.171
22.827999 3.217 2.1289999
22.836 3.2119999 2.089
22.83 3.214 2.0480001
22.837 3.2079999 2.0079999
22.832001 3.21 1.966
22.837 3.2060001 1.926
22.811001 3.2179999 1.883
22.827 3.2079999 1.844
22.819 3.211 1.802
22.849001 3.194 1.765
22.843 3.1960001 1.724
22.827999 3.2030001 1.682
22.834999 3.198 1.642
22.816999 3.2060001 1.599
22.822001 3.2019999 1.559
22.834 3.1949999 1.52
22.844 3.187 1.48
22.808001 3.2049999 1.436
22.811001 3.2030001 1.396
22.813 3.201 1.3559999
22.806 3.2030001 1.3150001
22.792999 3.2079999 1.273
22.712 3.2479999 1.227
22.818001 3.1919999 1.194
22.795 3.2030001 1.152
22.84 3.178 1.115
22.826 3.184 1.073
22.822001 3.1849999 1.033
22.834999 3.177 0.99299997
22.83 3.178 0.95200002
22.83 3.177 0.912
22.839001 3.171 0.87199998
22.832001 3.1730001 0.83099997
22.844999 3.165 0.79100001
22.830999 3.171 0.75
22.819 3.1760001 0.70899999
22.823999 3.1719999 0.66900003
22.837 3.164 0.62900001
22.829 3.1659999 0.588
22.826 3.1670001 0.54699999
22.834999 3.161 0.50700003
22.823999 3.165 0.46700001
22.816 3.168 0.426
22.823999 3.1619999 0.38600001
22.83 3.158 0.34599999
22.768999 3.188 0.303
22.695 3.2249999 0.26100001
22.691999 3.2249999 0.221
22.697001 3.221 0.18099999
22.681 3.2279999 0.14
22.697001 3.2179999 0.101
22.68 3.2260001 0.059999999
22.673 3.2279999 0.02
22.646 3.3789999 2.7509999
22.652 3.375 2.711
22.653 3.3729999 2.671
22.653999 3.3710001 2.631
22.645 3.3740001 2.589
22.629999 3.3800001 2.546
22.642 3.3729999 2.5079999
22.673 3.3559999 2.471
22.714001 3.3329999 2.4360001
22.771999 3.302 2.4030001
22.879 3.233 1.9680001
22.903 3.2190001 1.9299999
22.902 3.2179999 1.8890001
22.896 3.22 1.848
22.902 3.2149999 1.808
22.896 3.217 1.766
22.927 3.2 1.729
22.903999 3.21 1.686
22.912001 3.2049999 1.646
22.907 3.2060001 1.605
22.906 3.2049999 1.564
22.9 3.207 1.523
22.922001 3.194 1.484
22.91 3.1989999 1.442
22.889999 3.2079999 1.4
22.905001 3.1989999 1.36
22.895 3.2019999 1.319
22.892 3.2030001 1.278
22.871 3.2119999 1.2359999
22.870001 3.211 1.1950001
22.881001 3.204 1.156
22.903 3.1919999 1.117
22.886999 3.2 1.075
22.926001 3.178 1.0369999
22.93 3.175 0.99599999
22.940001 3.168 0.95599997
22.941 3.1670001 0.91600001
22.961 3.154 0.87599999
22.98 3.1429999 0.83700001
22.959 3.1530001 0.79500002
22.926001 3.1689999 0.75300002
22.966 3.1470001 0.71399999
22.926001 3.1659999 0.671
22.919001 3.168 0.63
22.917999 3.1670001 0.58999997
22.922001 3.164 0.54900002
22.909 3.1689999 0.50800002
22.952 3.1459999 0.46900001
22.91 3.1659999 0.42699999
22.91 3.165 0.38699999
22.91 3.1630001 0.34599999
22.907 3.1630001 0.30599999
22.801001 3.217 0.26199999
22.74 3.247 0.22
22.68 3.276 0.17900001
22.683001 3.273 0.139
22.695999 3.2650001 0.098999999
22.684999 3.2690001 0.059
22.669001 3.276 0.017999999
22.632 3.4330001 2.786
22.665001 3.414 2.75
22.648001 3.4219999 2.707
22.642 3.4230001 2.6659999
22.636 3.425 2.6240001
22.639999 3.421 2.585
22.636 3.4219999 2.5439999
22.684999 3.3959999 2.51
22.724001 3.375 2.4749999
22.784 3.3429999 2.4419999
22.971001 3.207 1.2410001
22.968 3.2079999 1.2
22.974001 3.2030001 1.16
22.962 3.2079999 1.118
22.969 3.2030001 1.0779999
22.966 3.204 1.0369999
22.972 3.1989999 0.99699998
22.98 3.1930001 0.95700002
23.021999 3.1700001 0.91799998
23.047001 3.1570001 0.87900001
23.096001 3.1300001 0.84100002
23.127001 3.1129999 0.80199999
23.152 3.099 0.76200002
23.205999 3.0699999 0.72299999
23.266001 3.0380001 0.685
23.371 2.971 0.317
22.816999 3.2520001 0.221
22.75 3.2850001 0.17900001
22.695999 3.3110001 0.138
22.666 3.326 0.097000003
22.681 3.316 0.057
22.688 3.3110001 0.017000001
22.665001 3.4630001 2.8269999
22.653999 3.467 2.7850001
22.650999 3.467 2.744
22.643999 3.47 2.7030001
22.632999 3.474 2.661
22.643999 3.467 2.622
22.665001 3.4549999 2.5840001
22.676001 3.448 2.5450001
22.747999 3.4100001 2.5150001
22.771999 3.3970001 2.477
23.066 3.201 1.123
23.076 3.1960001 1.0829999
23.059 3.2019999 1.041
23.044001 3.2090001 0.99900001
23.035999 3.2119999 0.958
23.066 3.1949999 0.91900003
23.077999 3.187 0.87800002
23.075001 3.188 0.83700001
23.107 3.1700001 0.79799998
23.16 3.142 0.75999999
23.190001 3.125 0.72100002
23.221001 3.108 0.68099999
23.257999 3.0869999 0.64200002
23.341999 3.043 0.60399997
23.412001 2.9979999 0.317
22.816 3.2980001 0.17900001
22.76 3.325 0.13699999
22.698 3.355 0.096000001
22.671 3.368 0.056000002
22.676001 3.3640001 0.016000001
22.657 3.5139999 2.9030001
22.649 3.516 2.862
22.667999 3.507 2.8239999
22.643999 3.517 2.78
22.656 3.51 2.7409999
22.629999 3.5220001 2.697
22.629999 3.52 2.6559999
22.657 3.5050001 2.6199999
22.705999 3.4790001 2.586
22.754999 3.4530001 2.553
23.153999 3.1989999 1.044
23.157 3.1960001 1.0039999
23.142 3.2030001 0.96200001
23.149 3.198 0.921
23.136 3.2030001 0.88
23.145 3.197 0.83899999
23.136999 3.2 0.79799998
23.179001 3.177 0.759
23.198999 3.165 0.71899998
23.225 3.151 0.67900002
23.27 3.1259999 0.63999999
23.298 3.1110001 0.60000002
23.358999 3.0780001 0.56099999
23.386 3.0650001 0.52100003
23.464001 3.0239999 0.48300001
23.482 3.0090001 0.317
22.799999 3.348 0.097000003
22.726 3.385 0.055
22.684999 3.404 0.014
22.677999 3.549 2.9430001
22.659 3.5569999 2.9000001
22.645 3.563 2.8570001
22.638 3.5650001 2.816
22.632999 3.566 2.7739999
22.666 3.549 2.7390001
22.648001 3.556 2.6960001
22.684 3.536 2.661
22.724001 3.5150001 2.6259999
22.761999 3.4949999 2.5910001
23.235001 3.201 0.96499997
23.254999 3.1900001 0.92500001
23.226 3.2030001 0.88200003
23.23 3.2 0.84200001
23.215 3.2060001 0.80000001
23.221001 3.2019999 0.759
23.237 3.1919999 0.71899998
23.235001 3.1919999 0.67799997
23.261 3.178 0.63800001
23.316 3.148 0.59899998
23.341 3.1340001 0.55900002
23.377001 3.1140001 0.51899999
23.415001 3.0940001 0.479
23.462999 3.0680001 0.43900001
23.528 3.0339999 0.40000001
23.554001 3.0179999 0.317
22.819 3.382 0.055
22.764999 3.4070001 0.014
22.643 3.6129999 2.974
22.648001 3.609 2.934
22.639 3.612 2.8929999
22.636 3.612 2.852
22.639 3.6099999 2.812
22.655001 3.5999999 2.7739999
22.658001 3.5969999 2.734
22.669001 3.5899999 2.6949999
22.722 3.562 2.6619999
22.775999 3.5339999 2.6289999
23.326 3.1989999 0.88599998
23.326 3.198 0.84500003
23.334 3.1919999 0.80400002
23.315001 3.2 0.76200002
23.309999 3.201 0.72000003
23.339001 3.1860001 0.68000001
23.334 3.187 0.639
23.330999 3.187 0.59799999
23.371 3.165 0.55800003
23.386 3.1559999 0.51700002
23.407 3.1440001 0.477
23.445 3.1240001 0.43700001
23.485001 3.102 0.39700001
23.552999 3.0669999 0.35699999
23.582001 3.0510001 0.31600001
22.827999 3.421 0.014
22.649 3.655 2.971
22.653999 3.651 2.9319999
22.650999 3.651 2.891
22.636999 3.6559999 2.848
22.646999 3.6500001 2.809
22.641001 3.652 2.7679999
22.687 3.628 2.734
22.738001 3.6010001 2.701
23.417 3.1949999 0.76499999
23.43 3.188 0.72399998
23.417999 3.1919999 0.68199998
23.424 3.188 0.64099997
23.406 3.1949999 0.59899998
23.414 3.1900001 0.55800003
23.422001 3.184 0.51700002
23.434999 3.177 0.47600001
23.475 3.155 0.43599999
23.493999 3.145 0.39500001
23.523001 3.1289999 0.35499999
23.549 3.115 0.31400001
23.577 3.099 0.273
23.642 3.0650001 0.233
23.719 3.026 0.193
22.638 3.704 2.9649999
22.643 3.701 2.9260001
22.652 3.6949999 2.8870001
22.634001 3.7030001 2.8440001
22.652 3.6930001 2.806
22.709999 3.6630001 2.7739999
22.76 3.6370001 2.7409999
23.523001 3.1860001 0.685
23.509001 3.191 0.64300001
23.525 3.1819999 0.602
23.507 3.1889999 0.56
23.499001 3.1919999 0.51800001
23.476999 3.2019999 0.47600001
23.504999 3.1860001 0.435
23.502001 3.187 0.39399999
23.525999 3.1730001 0.35299999
23.558001 3.1559999 0.31200001
23.591 3.1389999 0.27200001
23.622999 3.122 0.23100001
23.667999 3.098 0.19
23.729 3.066 0.15000001
23.775 3.0409999 0.109
22.625 3.7550001 2.9590001
22.634001 3.75 2.9200001
22.652 3.74 2.8829999
22.659 3.7360001 2.8440001
22.708 3.71 2.8110001
22.763 3.6819999 2.7780001
23.606001 3.188 0.56199998
23.593 3.1930001 0.51999998
23.593 3.1919999 0.47799999
23.591999 3.191 0.43599999
23.594 3.188 0.39500001
23.583 3.1919999 0.35299999
23.603001 3.181 0.31200001
23.613001 3.174 0.271
23.659 3.1500001 0.23
23.676001 3.141 0.189
23.715 3.119 0.148
23.747999 3.102 0.107
23.794001 3.0769999 0.066
23.875 3.036 0.025
22.629999 3.8 2.9960001
22.641001 3.793 2.9579999
22.655001 3.7850001 2.9200001
22.674 3.7739999 2.882
22.740999 3.74 2.852
22.768999 3.7249999 2.816
23.705999 3.1819999 0.47999999
23.712999 3.177 0.43900001
23.681999 3.191 0.396
23.663 3.1989999 0.354
23.68 3.1889999 0.31200001
23.681999 3.187 0.271
23.673 3.1900001 0.229
23.701 3.175 0.18799999
23.743 3.1530001 0.147
23.763 3.141 0.105
23.780001 3.131 0.064000003
23.808001 3.1159999 0.022
22.629999 3.8440001 2.9920001
22.643999 3.836 2.954
22.68 3.8169999 2.9200001
22.759001 3.777 2.892
23.768999 3.1949999 0.39700001
23.792 3.1819999 0.35600001
23.785999 3.1830001 0.31400001
23.783001 3.184 0.27200001
23.764 3.1919999 0.229
23.768 3.188 0.18799999
23.82 3.161 0.147
23.788 3.175 0.104
23.797001 3.1689999 0.063000001
23.839001 3.148 0.021
22.672001 3.868 2.9949999
22.697001 3.8540001 2.9590001
22.778999 3.813 2.931
23.854 3.1960001 0.27200001
23.903999 3.1689999 0.23100001
23.870001 3.1849999 0.18799999
23.882 3.177 0.147
23.863001 3.1860001 0.104
23.9 3.1659999 0.063000001
23.879 3.1760001 0.02
22.709999 3.895 2.997
22.773001 3.8629999 2.967
23.969 3.184 0.189
23.973 3.181 0.147
23.968 3.1819999 0.104
23.955999 3.1860001 0.061999999
23.948999 3.188 0.02
24.045 3.1930001 0.104
24.069 3.1800001 0.061999999
24.063999 3.181 0.02
21.783001 3.0220001 0.322
21.778999 3.0179999 0.191
21.948999 3.03 0.38800001
21.854 3.063 0.31999999
21.806999 3.0780001 0.25400001
21.756001 3.095 0.18799999
22.143999 3.039 0.653
22.084999 3.0580001 0.58600003
22.02 3.0799999 0.51800001
21.966999 3.098 0.45100001
21.912001 3.1159999 0.384
21.854 3.135 0.317
21.808001 3.1489999 0.25099999
21.757 3.1659999 0.185
22.298 3.0610001 0.85299999
22.247 3.076 0.78500003
22.177 3.0999999 0.71700001
22.127001 3.1159999 0.64999998
22.077999 3.131 0.58200002
22.035999 3.1440001 0.51499999
21.985001 3.1600001 0.44800001
21.943001 3.1730001 0.382
21.914 3.181 0.31600001
21.91 3.1789999 0.25
21.913 3.175 0.185
21.922001 3.1689999 0.119
21.941 3.1589999 0.054000001
22.672001 3.016 1.398
22.656 3.0190001 1.331
22.648001 3.0190001 1.263
22.665001 3.01 1.197
22.657 3.01 1.13
22.528999 3.0539999 1.058
22.423 3.0910001 0.98699999
22.372 3.1070001 0.91900003
22.305 3.1289999 0.85000002
22.254999 3.1440001 0.78200001
22.184 3.1670001 0.71399999
22.136999 3.184 0.64600003
22.105 3.1930001 0.57999998
22.117001 3.1860001 0.514
22.118999 3.1819999 0.449
22.139 3.1719999 0.38299999
22.15 3.164 0.31799999
22.673 2.967 0.26199999
22.686001 2.96 0.19499999
22.669001 2.9630001 0.12800001
22.674 2.9579999 0.061999999
22.664 3.098 1.528
22.659 3.0969999 1.461
22.665001 3.0910001 1.3940001
22.665001 3.0880001 1.327
22.658001 3.0880001 1.26
22.577 3.115 1.1900001
22.542999 3.125 1.122
22.469 3.1489999 1.052
22.423 3.1630001 0.98400003
22.377001 3.177 0.91600001
22.299999 3.2030001 0.84600002
22.299999 3.2 0.77999997
22.292999 3.1989999 0.71399999
22.304001 3.1919999 0.648
22.316 3.1849999 0.583
22.336 3.175 0.51700002
22.666 3.05 0.45899999
22.677 3.043 0.39300001
22.653999 3.0480001 0.32499999
22.677999 3.0369999 0.259
22.669001 3.0369999 0.192
22.673 3.0320001 0.125
22.674 3.029 0.059
22.655001 3.178 1.6569999
22.656 3.175 1.59
22.667999 3.1670001 1.524
22.67 3.164 1.457
22.653999 3.1670001 1.39
22.650999 3.165 1.323
22.636999 3.1670001 1.255
22.589001 3.1819999 1.187
22.533001 3.1989999 1.117
22.476 3.217 1.049
22.482 3.2119999 0.98199999
22.488001 3.207 0.91600001
22.499001 3.2 0.85000002
22.552 3.178 0.78600001
22.66 3.135 0.72299999
22.67 3.1289999 0.65600002
22.676001 3.1229999 0.58999997
22.676001 3.1199999 0.523
22.667999 3.1199999 0.456
22.672001 3.1159999 0.389
22.681999 3.109 0.32300001
22.712 3.095 0.257
22.68 3.1040001 0.189
22.683001 3.0999999 0.123
22.688999 3.095 0.056000002
22.743999 3.22 1.725
22.726999 3.223 1.6569999
22.716999 3.224 1.59
22.729 3.2160001 1.523
22.715 3.2179999 1.456
22.712 3.2160001 1.3890001
22.705 3.2179999 1.322
22.709 3.2130001 1.255
22.715 3.2079999 1.188
22.709999 3.207 1.1210001
22.718 3.201 1.0549999
22.698999 3.2049999 0.98699999
22.695999 3.204 0.921
22.700001 3.1989999 0.85399997
22.687 3.201 0.787
22.688 3.198 0.72000003
22.688999 3.1949999 0.653
22.698999 3.188 0.58700001
22.695 3.1860001 0.51999998
22.691 3.1849999 0.45300001
22.701 3.178 0.38699999
22.663 3.1889999 0.31900001
22.67 3.184 0.25299999
22.68 3.177 0.186
22.665001 3.1800001 0.119
22.91 3.2379999 1.865
22.922001 3.2309999 1.799
22.93 3.2249999 1.732
22.917 3.227 1.664
22.916 3.224 1.597
22.927 3.2179999 1.53
22.917999 3.2179999 1.4630001
22.895 3.223 1.3940001
22.882 3.2249999 1.327
22.865 3.2279999 1.2589999
22.848 3.2309999 1.191
22.871 3.22 1.125
22.907 3.204 1.059
22.934 3.191 0.99299997
22.945 3.184 0.92699999
22.937 3.184 0.85900003
22.910999 3.191 0.79100001
22.902 3.191 0.72399998
22.913 3.184 0.65700001
22.910999 3.1819999 0.58999997
22.898001 3.184 0.52200001
22.886999 3.1849999 0.45500001
22.885 3.1819999 0.38800001
22.878 3.1819999 0.32100001
22.687 3.2490001 0.25
22.684999 3.2460001 0.183
23.058001 3.224 1.1289999
23.042 3.227 1.061
23.039 3.2249999 0.99400002
23.042999 3.22 0.92699999
23.075001 3.2060001 0.861
23.136 3.181 0.79500002
23.195999 3.1559999 0.73000002
23.254999 3.132 0.66399997
23.313 3.108 0.59799999
23.421 3.066 0.53299999
23.252001 3.217 0.93099999
23.236 3.22 0.86299998
23.221001 3.2219999 0.79500002
23.225 3.2179999 0.727
22.629999 2.789 2.642
22.65 2.7839999 2.5710001
22.632 2.862 2.7119999
22.652 2.858 2.641
22.636999 2.859 2.569
22.643 2.8570001 2.497
21.889999 2.957 0.20200001
22.666 2.8169999 0.139
22.729 2.918 2.717
22.645 2.931 2.6389999
22.635 2.9319999 2.5669999
22.625 2.9330001 2.494
22.622999 2.9319999 2.4230001
22.143999 2.987 0.55599999
22.018 3.0079999 0.48300001
21.941 3.0209999 0.41100001
21.877001 3.0309999 0.34
21.809999 3.0409999 0.26899999
21.747999 3.0510001 0.199
22.646999 3.007 2.852
22.66 3.003 2.7820001
22.656 3.003 2.71
22.648001 3.003 2.6370001
22.636999 3.0039999 2.5650001
22.631001 3.0039999 2.493
22.641001 3.0009999 2.4219999
22.635 3.0009999 2.3499999
22.669001 2.994 2.2809999
22.667 2.9920001 2.1370001
22.66 2.9920001 2.0650001
22.657 2.9920001 1.994
22.666 2.9890001 1.923
22.679001 2.9860001 1.852
22.667 2.9860001 1.78
22.667 2.9849999 1.7079999
22.677999 2.9820001 1.637
22.676001 2.9820001 1.5650001
22.655001 2.984 1.493
22.663 2.9820001 1.4220001
22.657 2.9820001 1.35
22.660999 2.98 1.279
22.65 2.98 1.207
22.677 2.9749999 1.137
22.659 2.977 1.0650001
22.650999 2.977 0.99299997
22.683001 2.97 0.92299998
22.290001 3.0380001 0.83999997
22.233 3.046 0.76800001
22.177 3.0550001 0.69599998
22.108 3.066 0.62400001
22.049999 3.075 0.55299997
21.997999 3.0829999 0.48100001
21.914 3.096 0.41
21.881001 3.1010001 0.33899999
21.811001 3.112 0.26800001
21.773001 3.118 0.198
22.639 3.0799999 2.9219999
22.634001 3.0799999 2.8499999
22.629999 3.079 2.7780001
22.635 3.0769999 2.7060001
22.635 3.076 2.635
22.629 3.076 2.563
22.639 3.073 2.4920001
22.652 3.0699999 2.421
22.642 3.072 2.349
22.639 3.072 2.277
22.650999 3.0669999 2.135
22.653999 3.066 2.063
22.641001 3.0669999 1.9910001
22.672001 3.0599999 1.921
22.656 3.062 1.849
22.653999 3.0610001 1.777
22.646 3.0610001 1.706
22.656 3.059 1.635
22.639 3.0599999 1.562
22.657 3.056 1.492
22.658001 3.0550001 1.42
22.667 3.052 1.349
22.665001 3.0510001 1.278
22.657 3.052 1.206
22.549 3.069 1.131
22.474001 3.0810001 1.057
22.424999 3.0880001 0.98500001
22.361 3.098 0.912
22.282 3.1110001 0.83899999
22.242001 3.1159999 0.76700002
22.159 3.1300001 0.69499999
22.125 3.1340001 0.62300003
22.052999 3.1459999 0.55199999
21.983 3.1570001 0.47999999
21.966999 3.158 0.41
21.934 3.1630001 0.33899999
21.940001 3.161 0.26899999
21.924 3.1619999 0.199
21.940001 3.1589999 0.12899999
22.679001 3.03 0.064999998
22.625999 3.155 2.99
22.631001 3.1530001 2.9189999
22.632 3.152 2.8469999
22.646999 3.1489999 2.777
22.632 3.1500001 2.704
22.632 3.1489999 2.6329999
22.650999 3.1440001 2.562
22.65 3.1440001 2.4909999
22.649 3.1429999 2.4189999
22.66 3.1400001 2.348
22.634001 3.1429999 2.2750001
22.638 3.1400001 2.132
22.642 3.138 2.0610001
22.646 3.1359999 1.99
22.653999 3.1340001 1.919
22.632999 3.1359999 1.846
22.656 3.131 1.776
22.659 3.1300001 1.705
22.662001 3.128 1.633
22.656 3.128 1.562
22.652 3.128 1.49
22.656 3.1259999 1.419
22.653999 3.125 1.347
22.645 3.125 1.276
22.6 3.132 1.2029999
22.562 3.1370001 1.13
22.485001 3.1489999 1.056
22.415001 3.1619999 0.98299998
22.370001 3.168 0.91100001
22.319 3.1760001 0.83899999
22.302 3.178 0.76700002
22.295 3.178 0.69700003
22.309999 3.174 0.62599999
22.316999 3.1719999 0.55599999
22.663 3.112 0.491
22.666 3.1099999 0.41999999
22.679001 3.1070001 0.34900001
22.688999 3.1040001 0.278
22.686001 3.1029999 0.206
22.660999 3.1059999 0.13500001
22.725 3.0940001 0.064000003
22.632999 3.227 2.9890001
22.643 3.224 2.918
22.658001 3.22 2.848
22.648001 3.221 2.7750001
22.629 3.223 2.7019999
22.639 3.22 2.631
22.646 3.2179999 2.5599999
22.658001 3.2149999 2.4890001
22.632999 3.2179999 2.4159999
22.636999 3.2160001 2.345
22.656 3.211 2.2750001
22.655001 3.2090001 2.132
22.664 3.207 2.0610001
22.653 3.2079999 1.989
22.656 3.2060001 1.9170001
22.653999 3.2049999 1.846
22.653 3.204 1.774
22.657 3.204 1.7029999
22.646 3.2049999 1.631
22.672001 3.1989999 1.561
22.676001 3.198 1.49
22.662001 3.1989999 1.418
22.684 3.194 1.347
22.677999 3.194 1.275
22.683001 3.1919999 1.204
22.652 3.1960001 1.132
22.672001 3.1919999 1.061
22.691 3.187 0.99000001
22.719 3.181 0.92000002
22.716 3.181 0.84799999
22.723 3.1789999 0.77700001
22.724001 3.177 0.70599997
22.725 3.1760001 0.634
22.745001 3.171 0.56300002
22.738001 3.171 0.49200001
22.752001 3.168 0.41999999
22.75 3.1670001 0.34900001
22.686001 3.177 0.27700001
22.658001 3.1800001 0.205
22.653999 3.1800001 0.134
22.669001 3.1760001 0.061999999
22.645 3.2909999 2.6300001
22.641001 3.2909999 2.5580001
22.641001 3.2909999 2.487
22.645 3.29 2.415
22.884001 3.2320001 1.2819999
22.775 3.2490001 1.206
23.011 3.2079999 1.143
22.995001 3.21 1.0700001
22.993999 3.2090001 0.99800003
23.034 3.201 0.92799997
23.108999 3.187 0.85799998
23.143 3.181 0.78600001
23.190001 3.1719999 0.71499997
23.273001 3.1570001 0.64499998
23.341999 3.1440001 0.574
23.384001 3.1359999 0.50199997
23.445 3.1240001 0.43099999
23.52 3.1110001 0.359
22.860001 3.22 0.278
22.68 3.2490001 0.204
22.671 3.2490001 0.133
22.671 3.2479999 0.061000001
22.657 3.3629999 2.701
22.643 3.3640001 2.628
22.628 3.365 2.5550001
22.628 3.3640001 2.484
22.795 3.335 2.424
23.417 3.207 0.792
23.455999 3.1989999 0.72100002
23.466 3.1960001 0.648
23.471001 3.194 0.57499999
23.497999 3.1889999 0.50300002
23.513 3.1849999 0.43099999
23.537001 3.1800001 0.35800001
23.599001 3.1689999 0.28600001
23.67 3.1559999 0.214
22.672001 3.3199999 0.132
22.667999 3.319 0.059999999
22.653999 3.4349999 2.77
22.639 3.4360001 2.698
22.621 3.438 2.625
22.639 3.434 2.5539999
23.871 3.198 0.289
23.92 3.1889999 0.21600001
23.921 3.187 0.14300001
22.718 3.3829999 0.059999999
22.646 3.5090001 2.839
22.646 3.5079999 2.7679999
22.646 3.507 2.6960001
22.645 3.506 2.625
22.632 3.5840001 2.98
22.656 3.579 2.9100001
22.636999 3.5810001 2.8369999
22.642 3.579 2.766
22.646999 3.5769999 2.6949999
22.646999 3.6530001 2.9790001
22.643 3.6530001 2.9070001
22.648001 3.651 2.836
22.663 3.648 2.7650001
22.635 3.727 2.9760001
22.629999 3.727 2.904
22.667 3.72 2.836
22.636 3.799 2.974
22.674999 3.7920001 2.9059999
22.684999 3.8629999 2.9760001
22.65 2.586 2.816
22.638 2.589 2.776
22.666 2.6210001 2.8559999
22.645 2.6259999 2.8139999
22.650999 2.625 2.777
22.649 2.625 2.7379999
22.643 2.6259999 2.6989999
22.642 2.6659999 2.813
22.653999 2.664 2.776
22.632999 2.668 2.7349999
22.641001 2.6659999 2.698
22.646999 2.704 2.928
22.658001 2.701 2.891
22.655001 2.7019999 2.852
22.632999 2.707 2.8110001
22.653999 2.7019999 2.7750001
22.643 2.7049999 2.7349999
22.639 2.7060001 2.697
22.645 2.704 2.6589999
22.625 2.747 2.885
22.648001 2.7420001 2.8499999
22.639999 2.744 2.8110001
22.65 2.743 2.7739999
22.652 2.7420001 2.7360001
22.658001 2.7409999 2.698
22.638 2.7460001 2.6570001
22.646999 2.744 2.6199999
22.65 2.743 2.582
22.691999 2.737 0.121
22.700001 2.7349999 0.082999997
22.691 2.737 0.045000002
22.639 2.7839999 2.848
22.658001 2.78 2.812
22.635 2.7850001 2.7709999
22.653 2.7809999 2.7349999
22.634001 2.7850001 2.694
22.655001 2.7809999 2.6589999
22.655001 2.7809999 2.6199999
22.646 2.783 2.5810001
22.645 2.783 2.543
21.837999 2.9590001 0.223
22.677999 2.7780001 0.15800001
21.746 2.9790001 0.113
22.673 2.8150001 2.813
22.631001 2.8239999 2.7690001
22.646 2.8210001 2.733
22.632999 2.8239999 2.6930001
22.632 2.8239999 2.655
22.674 2.8150001 2.622
22.656 2.819 2.5810001
22.653 2.8199999 2.543
22.645 2.8210001 2.5039999
22.054001 2.95 0.37200001
21.826 2.9990001 0.331
21.849001 2.994 0.29499999
21.823 3 0.259
21.805 3.0039999 0.222
21.754 3.0150001 0.186
22.702 2.8469999 2.7780001
22.643999 2.859 2.7320001
22.665001 2.8559999 2.6960001
22.658001 2.8559999 2.6570001
22.66 2.8570001 2.619
22.646 2.8599999 2.579
22.646 2.8599999 2.5409999
22.672001 2.8540001 2.506
22.629999 2.8629999 2.4630001
22.014999 2.9960001 0.48100001
21.974001 3.0050001 0.44299999
21.947001 3.01 0.40599999
21.905001 3.0190001 0.36899999
21.860001 3.029 0.33199999
21.836 3.0339999 0.29499999
21.812 3.039 0.25799999
21.784 3.0450001 0.222
21.764999 3.049 0.186
22.698 2.8870001 2.7379999
22.665001 2.8940001 2.6949999
22.653999 2.8970001 2.6559999
22.646999 2.898 2.6170001
22.643 2.8989999 2.5780001
22.639999 2.9000001 2.539
22.649 2.898 2.5020001
22.638 2.9000001 2.4630001
22.632 2.901 2.424
22.136 3.0079999 0.63099998
22.098 3.016 0.59299999
22.052999 3.0250001 0.55500001
22.014 3.033 0.51700002
22.000999 3.036 0.47999999
21.962 3.0439999 0.44299999
21.943001 3.049 0.40599999
21.895 3.0580001 0.36899999
21.864 3.0650001 0.33199999
21.844 3.069 0.29499999
21.813999 3.076 0.25799999
21.790001 3.0810001 0.222
21.757999 3.0869999 0.186
22.712999 2.9230001 2.701
22.643999 2.937 2.654
22.658001 2.934 2.6170001
22.65 2.9360001 2.5780001
22.653 2.9349999 2.54
22.653 2.9349999 2.5020001
22.652 2.9360001 2.464
22.659 2.934 2.427
22.656 2.9349999 2.388
22.671 2.9330001 0.98699999
22.663 2.934 0.949
22.660999 2.9349999 0.91100001
22.68 2.931 0.875
22.687 2.9289999 0.83700001
22.291 3.0120001 0.78399998
22.222 3.026 0.74400002
22.173 3.0380001 0.70499998
22.139 3.0450001 0.667
22.120001 3.049 0.63
22.084 3.056 0.59200001
22.055 3.062 0.55500001
22.013 3.0710001 0.51700002
21.985001 3.0769999 0.47999999
21.952 3.0840001 0.442
21.917999 3.0910001 0.405
21.914 3.092 0.36899999
21.865 3.102 0.33199999
21.844 3.1059999 0.29499999
21.816999 3.112 0.259
21.802 3.115 0.222
21.771 3.122 0.186
22.693001 2.9660001 2.6589999
22.671 2.97 2.618
22.677 2.9690001 2.5799999
22.652 2.974 2.539
22.658001 2.973 2.5020001
22.636 2.9779999 2.461
22.635 2.9779999 2.4230001
22.648001 2.9749999 2.3859999
22.659 2.973 2.349
22.636999 2.977 2.309
22.686001 2.967 2.276
22.646 2.9760001 2.234
22.645 2.9760001 2.1960001
22.679001 2.9690001 2.161
22.653999 2.974 2.1210001
22.671 2.971 2.0840001
22.669001 2.971 2.046
22.658001 2.973 2.007
22.669001 2.971 1.97
22.674999 2.971 1.933
22.671 2.971 1.895
22.665001 2.973 1.8559999
22.674999 2.971 1.819
22.690001 2.9679999 1.783
22.67 2.9719999 1.743
22.669001 2.9719999 1.705
22.684 2.9690001 1.668
22.664 2.973 1.6289999
22.684 2.9690001 1.592
22.698 2.9660001 1.556
22.684 2.9690001 1.517
22.68 2.97 1.479
22.663 2.974 1.4400001
22.688999 2.9679999 1.404
22.677 2.971 1.365
22.665001 2.973 1.326
22.686001 2.9690001 1.29
22.667999 2.973 1.251
22.676001 2.971 1.214
22.679001 2.97 1.176
22.681 2.97 1.1390001
22.695 2.967 1.102
22.698999 2.9660001 1.064
22.676001 2.971 1.025
22.671 2.9719999 0.98699999
22.656 2.9749999 0.949
22.306 3.0480001 0.89499998
22.304001 3.0480001 0.85799998
22.267 3.056 0.81900001
22.240999 3.0610001 0.78100002
22.201 3.069 0.74299997
22.17 3.076 0.70499998
22.136999 3.0829999 0.667
22.114 3.0869999 0.63
22.066 3.0969999 0.59100002
22.052999 3.0999999 0.55400002
22.014999 3.108 0.51700002
21.986 3.1140001 0.47999999
21.964001 3.119 0.44299999
21.93 3.125 0.405
21.915001 3.1289999 0.36899999
21.886 3.135 0.33199999
21.875999 3.1370001 0.296
21.834999 3.145 0.259
21.792 3.154 0.222
21.799 3.1530001 0.186
21.789 3.155 0.15000001
21.794001 3.154 0.114
21.790001 3.155 0.078000002
21.799999 3.1530001 0.041999999
22.636 3.017 2.9949999
22.657 3.0120001 2.9590001
22.646 3.0150001 2.9200001
22.659 3.0120001 2.8829999
22.653 3.013 2.8440001
22.639 3.016 2.8039999
22.643 3.0150001 2.766
22.646 3.0150001 2.7279999
22.656 3.013 2.6919999
22.656 3.013 2.6530001
22.656 3.013 2.615
22.641001 3.016 2.575
22.639999 3.016 2.5369999
22.667 3.0109999 2.5020001
22.646 3.0150001 2.461
22.646 3.0150001 2.4230001
22.611 3.0220001 2.381
22.663 3.0120001 2.349
22.65 3.0139999 2.3099999
22.67 3.01 2.2739999
22.684 3.007 2.237
22.688999 3.006 2.2
22.664 3.0109999 2.1589999
22.663 3.0120001 2.1210001
22.660999 3.0120001 2.0829999
22.662001 3.0120001 2.0450001
22.657 3.013 2.007
22.658001 3.013 1.969
22.673 3.01 1.932
22.666 3.0109999 1.8940001
22.667 3.0109999 1.8559999
22.669001 3.0109999 1.818
22.686001 3.007 1.7819999
22.676001 3.0090001 1.743
22.664 3.0120001 1.704
22.681999 3.0079999 1.668
22.671 3.01 1.6289999
22.677999 3.0090001 1.592
22.665001 3.0120001 1.553
22.653 3.0139999 1.5140001
22.665001 3.0120001 1.477
22.658001 3.013 1.439
22.665001 3.0120001 1.402
22.664 3.0120001 1.364
22.665001 3.0120001 1.326
22.701 3.0039999 1.291
22.681999 3.0079999 1.252
22.686001 3.007 1.214
22.676001 3.0090001 1.176
22.665001 3.0120001 1.137
22.653 3.0139999 1.099
22.488001 3.0480001 1.053
22.417999 3.062 1.012
22.400999 3.066 0.97399998
22.382 3.0710001 0.93599999
22.339001 3.0799999 0.89600003
22.306999 3.086 0.85799998
22.268999 3.0940001 0.81900001
22.229 3.102 0.78100002
22.209999 3.1059999 0.74299997
22.188 3.1110001 0.70499998
22.159 3.1170001 0.66799998
22.122 3.1240001 0.63
22.093 3.1300001 0.59200001
22.046 3.1400001 0.55400002
22.028 3.1429999 0.51700002
21.999001 3.1489999 0.47999999
21.966 3.1559999 0.44299999
21.948 3.1600001 0.40599999
21.938999 3.1619999 0.36899999
21.940001 3.161 0.333
21.969999 3.155 0.29699999
21.971001 3.155 0.26100001
21.979 3.154 0.22499999
21.955 3.1589999 0.18799999
21.993 3.151 0.152
22.687 3.0090001 0.121
22.687 3.0090001 0.082999997
22.674999 3.0109999 0.046
22.684999 3.0090001 0.0080000004
22.643 3.0539999 2.9949999
22.638 3.0550001 2.9560001
22.659 3.05 2.9200001
22.635 3.0550001 2.8789999
22.658001 3.0510001 2.8440001
22.662001 3.05 2.806
22.659 3.05 2.767
22.66 3.05 2.7290001
22.673 3.0480001 2.6930001
22.649 3.053 2.652
22.674999 3.0469999 2.6170001
22.664 3.05 2.5769999
22.663 3.05 2.539
22.655001 3.0510001 2.5
22.667999 3.049 2.4630001
22.648001 3.053 2.4230001
22.599001 3.063 2.3789999
22.645 3.0539999 2.346
22.643999 3.0539999 2.3080001
22.657 3.0510001 2.2720001
22.666 3.049 2.2349999
22.665001 3.05 2.197
22.677 3.0469999 2.1600001
22.681 3.046 2.122
22.674999 3.0480001 2.0840001
22.677999 3.0469999 2.046
22.681999 3.046 2.0079999
22.676001 3.0480001 1.97
22.673 3.0480001 1.932
22.659 3.0510001 1.892
22.649 3.053 1.854
22.677999 3.0469999 1.818
22.657 3.0510001 1.779
22.653999 3.052 1.74
22.657 3.052 1.7029999
22.667999 3.049 1.666
22.663 3.05 1.628
22.673 3.0480001 1.591
22.662001 3.0510001 1.552
22.671 3.049 1.515
22.677999 3.0469999 1.478
22.677 3.0480001 1.4400001
22.667 3.05 1.401
22.666 3.05 1.364
22.690001 3.0450001 1.327
22.653999 3.052 1.2869999
22.665001 3.0510001 1.25
22.629 3.0580001 1.21
22.563999 3.072 1.169
22.532 3.0780001 1.13
22.504 3.0840001 1.091
22.476999 3.089 1.052
22.438 3.0969999 1.012
22.407 3.1040001 0.97399998
22.381001 3.109 0.935
22.344 3.1159999 0.89600003
22.301001 3.125 0.85699999
22.277 3.1300001 0.81900001
22.254999 3.1340001 0.78200001
22.198999 3.1459999 0.74199998
22.188999 3.148 0.70499998
22.150999 3.1559999 0.667
22.118 3.1619999 0.62900001
22.091999 3.168 0.59200001
22.093 3.1670001 0.55500001
22.089001 3.168 0.51899999
22.09 3.168 0.48199999
22.115999 3.1630001 0.44600001
22.139999 3.158 0.41
22.156 3.155 0.37400001
22.181 3.1500001 0.33700001
22.688 3.0469999 0.30899999
22.686001 3.0469999 0.271
22.677999 3.049 0.234
22.659 3.053 0.19599999
22.688999 3.0469999 0.15899999
22.697001 3.0450001 0.121
22.688 3.0469999 0.082999997
22.693001 3.046 0.046
22.673 3.05 0.0080000004
22.655001 3.0899999 2.9960001
22.650999 3.0899999 2.957
22.67 3.0869999 2.921
22.631001 3.0940001 2.8770001
22.650999 3.0910001 2.842
22.632999 3.0940001 2.8010001
22.669001 3.0869999 2.7679999
22.653999 3.0899999 2.7279999
22.636999 3.0929999 2.687
22.66 3.089 2.652
22.650999 3.0910001 2.6129999
22.641001 3.0929999 2.5739999
22.653 3.0899999 2.5369999
22.652 3.0910001 2.4990001
22.652 3.0910001 2.461
22.665001 3.0880001 2.424
22.667 3.0880001 2.3859999
22.643999 3.092 2.345
22.672001 3.0869999 2.3110001
22.642 3.0929999 2.2690001
22.656 3.0899999 2.233
22.656 3.0899999 2.1949999
22.674999 3.086 2.1589999
22.649 3.092 2.118
22.660999 3.0899999 2.082
22.66 3.0899999 2.043
22.660999 3.0899999 2.006
22.683001 3.086 1.97
22.663 3.0899999 1.9299999
22.676001 3.0869999 1.893
22.653999 3.0910001 1.853
22.665001 3.089 1.817
22.667 3.089 1.779
22.667999 3.089 1.7410001
22.67 3.0880001 1.7029999
22.679001 3.0869999 1.666
22.671 3.0880001 1.628
22.677 3.0869999 1.591
22.673 3.0880001 1.552
22.662001 3.0899999 1.5140001
22.662001 3.0899999 1.476
22.677999 3.0869999 1.439
22.663 3.0899999 1.401
22.664 3.0899999 1.363
22.667999 3.089 1.325
22.666 3.089 1.288
22.629 3.0969999 1.248
22.591 3.1040001 1.2079999
22.570999 3.108 1.169
22.544001 3.1140001 1.13
22.504999 3.122 1.09
22.479 3.1270001 1.052
22.431999 3.1359999 1.012
22.42 3.1389999 0.97399998
22.377001 3.148 0.935
22.334999 3.1559999 0.89600003
22.337999 3.155 0.85900003
22.288 3.165 0.81999999
22.267 3.1700001 0.78200001
22.235001 3.1760001 0.74400002
22.242001 3.175 0.70700002
22.243 3.175 0.67000002
22.249001 3.1730001 0.634
22.278 3.168 0.59799999
22.268999 3.1689999 0.56
22.302 3.1630001 0.52399999
22.674 3.0880001 0.49700001
22.681999 3.086 0.46000001
22.688 3.085 0.42199999
22.691 3.085 0.384
22.687 3.086 0.347
22.698 3.0829999 0.30899999
22.681999 3.0869999 0.271
22.690001 3.085 0.234
22.673 3.0880001 0.19599999
22.677999 3.0869999 0.15800001
22.683001 3.086 0.121
22.690001 3.085 0.082999997
22.688999 3.086 0.046
22.715 3.0810001 0.0080000004
22.655001 3.1289999 2.9949999
22.657 3.1289999 2.957
22.649 3.1300001 2.9170001
22.66 3.128 2.881
22.656 3.1289999 2.842
22.66 3.128 2.8039999
22.658001 3.1289999 2.7650001
22.66 3.128 2.7279999
22.68 3.1240001 2.6919999
22.650999 3.1300001 2.6500001
22.653 3.1300001 2.612
22.646 3.131 2.573
22.660999 3.128 2.5369999
22.674 3.125 2.5009999
22.658001 3.1289999 2.461
22.687 3.1229999 2.4260001
22.66 3.128 2.385
22.649 3.131 2.345
22.653999 3.1300001 2.3080001
22.653999 3.1300001 2.27
22.674 3.1259999 2.234
22.672001 3.1259999 2.1960001
22.667999 3.1270001 2.1570001
22.665001 3.128 2.119
22.669001 3.1270001 2.082
22.68 3.125 2.0450001
22.697001 3.1210001 2.0090001
22.676001 3.125 1.969
22.665001 3.128 1.9299999
22.653 3.1300001 1.891
22.683001 3.1240001 1.855
22.66 3.1289999 1.816
22.672001 3.1259999 1.779
22.677 3.125 1.7410001
22.672001 3.1259999 1.7029999
22.66 3.1289999 1.664
22.677999 3.125 1.628
22.667999 3.1270001 1.589
22.684 3.1240001 1.553
22.671 3.1270001 1.5140001
22.676001 3.1259999 1.477
22.690001 3.1229999 1.4400001
22.695999 3.122 1.402
22.67 3.1270001 1.363
22.67 3.1270001 1.325
22.671 3.1270001 1.288
22.646 3.132 1.248
22.608999 3.1389999 1.2079999
22.580999 3.145 1.169
22.535 3.154 1.1289999
22.518 3.1570001 1.091
22.476 3.1659999 1.051
22.438999 3.1730001 1.012
22.421 3.177 0.97399998
22.389 3.1830001 0.935
22.412001 3.178 0.89899999
22.414 3.178 0.86199999
22.405001 3.1800001 0.824
22.433001 3.174 0.78799999
22.475 3.1659999 0.75300002
22.450001 3.171 0.71399999
22.676001 3.1270001 0.685
22.693001 3.1240001 0.648
22.712 3.1199999 0.611
22.690001 3.1240001 0.57300001
22.691 3.1240001 0.53500003
22.711 3.1199999 0.498
22.695999 3.1229999 0.46000001
22.690001 3.1240001 0.42199999
22.684999 3.125 0.384
22.684999 3.125 0.347
22.686001 3.125 0.30899999
22.688999 3.125 0.271
22.677999 3.1270001 0.234
22.681 3.1259999 0.19599999
22.674999 3.1270001 0.15800001
22.681 3.1259999 0.121
22.674 3.128 0.082999997
22.716 3.119 0.046
22.688 3.125 0.0080000004
22.65 3.168 2.993
22.650999 3.168 2.9549999
22.636 3.171 2.915
22.642 3.1700001 2.8770001
22.676001 3.1630001 2.8429999
22.645 3.1700001 2.8010001
22.650999 3.168 2.7639999
22.649 3.1689999 2.7249999
22.650999 3.168 2.687
22.666 3.165 2.651
22.693001 3.1600001 2.6159999
22.662001 3.1659999 2.5739999
22.653 3.168 2.5350001
22.677999 3.1630001 2.5
22.643999 3.1700001 2.4579999
22.648001 3.1689999 2.421
22.655001 3.168 2.3829999
22.646999 3.1689999 2.3440001
22.660999 3.1670001 2.3080001
22.674 3.164 2.2709999
22.667 3.165 2.233
22.681 3.1630001 2.1960001
22.679001 3.1630001 2.158
22.681999 3.1630001 2.1199999
22.687 3.1619999 2.0829999
22.667999 3.165 2.043
22.679001 3.1630001 2.006
22.653 3.168 1.966
22.669001 3.165 1.929
22.649 3.1689999 1.89
22.684 3.1619999 1.855
22.671 3.165 1.816
22.672001 3.165 1.778
22.674999 3.164 1.7410001
22.698 3.1600001 1.705
22.687 3.1619999 1.666
22.674 3.164 1.627
22.68 3.164 1.59
22.676001 3.165 1.552
22.67 3.1659999 1.5140001
22.684 3.1630001 1.477
22.667 3.1670001 1.438
22.677 3.165 1.401
22.681999 3.164 1.363
22.68 3.164 1.325
22.681999 3.164 1.288
22.663 3.168 1.249
22.606001 3.1789999 1.2079999
22.576 3.1849999 1.169
22.542999 3.191 1.1289999
22.537001 3.1930001 1.091
22.544001 3.191 1.054
22.555 3.1889999 1.018
22.577 3.1849999 0.98100001
22.622 3.1760001 0.94599998
22.632 3.174 0.90899998
22.677 3.165 0.87300003
22.691999 3.1619999 0.83600003
22.669001 3.1670001 0.79699999
22.705 3.1600001 0.76099998
22.695 3.1619999 0.72299999
22.677999 3.165 0.685
22.709 3.1589999 0.648
22.694 3.1619999 0.61000001
22.698 3.161 0.57300001
22.715 3.158 0.53500003
22.694 3.1619999 0.49700001
22.702999 3.1600001 0.46000001
22.687 3.1630001 0.42199999
22.704 3.1600001 0.38499999
22.693001 3.1619999 0.347
22.695 3.1619999 0.30899999
22.700001 3.161 0.27200001
22.681 3.164 0.234
22.698999 3.161 0.19599999
22.702 3.1600001 0.15899999
22.674999 3.1659999 0.121
22.671 3.1670001 0.082999997
22.676001 3.1659999 0.046
22.656 3.1689999 0.0080000004
22.638 3.21 2.99
22.649 3.2079999 2.954
22.639 3.21 2.914
22.656 3.207 2.878
22.656 3.2079999 2.8399999
22.663 3.2060001 2.803
22.663 3.2060001 2.7639999
22.656 3.2079999 2.7249999
22.629999 3.2130001 2.684
22.667 3.2049999 2.6500001
22.657 3.207 2.6110001
22.690001 3.201 2.5769999
22.648001 3.2090001 2.5339999
22.655001 3.2079999 2.497
22.615999 3.2160001 2.454
22.646999 3.21 2.4200001
22.646 3.21 2.382
22.674999 3.204 2.3469999
22.673 3.204 2.309
22.672001 3.2049999 2.27
22.671 3.2049999 2.2320001
22.656 3.2079999 2.1930001
22.67 3.2049999 2.1559999
22.677 3.204 2.119
22.687 3.2019999 2.082
22.695999 3.2 2.0450001
22.669001 3.2049999 2.0050001
22.667999 3.2060001 1.967
22.67 3.2049999 1.929
22.681999 3.2030001 1.892
22.691999 3.201 1.855
22.664 3.207 1.8150001
22.663 3.207 1.777
22.657 3.2079999 1.739
22.669001 3.2060001 1.702
22.673 3.2049999 1.664
22.674999 3.204 1.627
22.664 3.207 1.5880001
22.686001 3.2019999 1.552
22.694 3.201 1.515
22.707001 3.198 1.478
22.694 3.201 1.439
22.721001 3.1949999 1.403
22.738001 3.1919999 1.367
22.745001 3.191 1.329
22.743 3.191 1.291
22.75 3.1900001 1.2539999
22.714001 3.197 1.214
22.75 3.1900001 1.178
22.790001 3.1819999 1.143
22.795 3.181 1.105
22.818001 3.177 1.068
22.820999 3.1760001 1.031
22.851 3.1700001 0.99400002
22.834 3.175 0.95499998
22.841 3.1719999 0.91799998
22.841999 3.1730001 0.88
22.849001 3.1719999 0.84200001
22.853001 3.171 0.80500001
22.855 3.171 0.76700002
22.865999 3.168 0.72899997
22.882999 3.165 0.69199997
22.882999 3.165 0.65399998
22.865999 3.168 0.61500001
22.922001 3.158 0.579
22.893 3.1630001 0.54000002
22.903999 3.161 0.50300002
22.899 3.1619999 0.46399999
22.906 3.161 0.42699999
22.915001 3.1589999 0.389
22.905001 3.161 0.35100001
22.881001 3.1659999 0.31200001
22.684 3.204 0.271
22.684 3.204 0.234
22.691 3.2030001 0.19599999
22.712999 3.198 0.15899999
22.683001 3.204 0.121
