ply
format ascii 1.0
comment PCL generated
element vertex 1689
property float x
property float y
property float z
element camera 0
property float view_px
property float view_py
property float view_pz
property float x_axisx
property float x_axisy
property float x_axisz
property float y_axisx
property float y_axisy
property float y_axisz
property float z_axisx
property float z_axisy
property float z_axisz
property float focal
property float scalex
property float scaley
property float centerx
property float centery
property int viewportx
property int viewporty
property float k1
property float k2
end_header
-0.103 3.375 2.77
-0.103 3.3740001 2.76
-0.105 3.369 2.753
-0.103 3.372 2.74
-0.1 3.3800001 2.724
-0.103 3.3710001 2.7190001
-0.107 3.3629999 2.7149999
-0.105 3.3659999 2.7019999
-0.1 3.3770001 2.684
-0.098999999 3.3800001 2.671
-0.098999999 3.3789999 2.661
-0.102 3.3710001 2.6559999
-0.101 3.3740001 2.6440001
-0.102 3.3699999 2.6359999
-0.104 3.365 2.6289999
-0.104 3.365 2.619
-0.101 3.372 2.6029999
-0.098999999 3.3759999 2.5899999
-0.107 3.3559999 2.5940001
-0.098999999 3.375 2.5699999
-0.102 3.3670001 2.5650001
-0.101 3.3710001 2.553
-0.102 3.3659999 2.5450001
-0.104 3.362 2.5380001
-0.098999999 3.3729999 2.5209999
-0.097000003 3.3770001 2.5079999
-0.086999997 3.401 2.4820001
-0.088 3.398 2.474
-0.079999998 3.4170001 2.4519999
-0.075999998 3.427 2.4360001
-0.081 3.415 2.4330001
-0.079000004 3.4189999 2.421
-0.075999998 3.427 2.4059999
-0.075000003 3.427 2.3959999
-0.077 3.4230001 2.3889999
-0.082000002 3.411 2.3859999
-0.078000002 3.4189999 2.372
-0.082999997 3.4070001 2.369
-0.074000001 3.427 2.3469999
-0.078000002 3.4189999 2.342
-0.086000003 3.3989999 2.345
-0.083999999 3.4030001 2.332
-0.085000001 3.3989999 2.325
-0.086999997 3.395 2.3169999
-0.085000001 3.4000001 2.3050001
-0.088 3.392 2.3
-0.083999999 3.4000001 2.286
-0.086999997 3.392 2.2809999
-0.088 3.388 2.273
-0.092 3.3800001 2.2679999
-0.086000003 3.3929999 2.2509999
-0.090999998 3.381 2.2479999
-0.090999998 3.381 2.2390001
-0.093999997 3.3740001 2.234
-0.086000003 3.391 2.214
-0.092 3.3759999 2.2130001
-0.089000002 3.3829999 2.2
-0.096000001 3.3670001 2.1989999
-0.097000003 3.3640001 2.191
-0.093999997 3.369 2.1789999
-0.1 3.355 2.177
-0.102 3.349 2.171
-0.098999999 3.358 2.1570001
-0.098999999 3.3559999 2.148
-0.097000003 3.3599999 2.1359999
-0.097999997 3.359 2.1270001
-0.098999999 3.3559999 2.1199999
-0.097999997 3.3570001 2.1099999
-0.106 3.339 2.1099999
-0.097999997 3.3570001 2.0910001
-0.092 3.3710001 2.0739999
-0.097000003 3.358 2.072
-0.093000002 3.369 2.0569999
-0.097000003 3.358 2.053
-0.097999997 3.3540001 2.046
-0.101 3.3469999 2.04
-0.101 3.3469999 2.0309999
-0.098999999 3.3510001 2.02
-0.092 3.368 2.0020001
-0.096000001 3.3570001 1.998
-0.097000003 3.3540001 1.9910001
-0.096000001 3.358 1.979
-0.093999997 3.362 1.9680001
-0.098999999 3.348 1.966
-0.098999999 3.349 1.956
-0.1 3.345 1.949
-0.096000001 3.3540001 1.936
-0.096000001 3.355 1.926
-0.1 3.3429999 1.923
-0.107 3.3280001 1.921
-0.093999997 3.358 1.897
-0.097000003 3.3510001 1.892
-0.096000001 3.3529999 1.882
-0.1 3.342 1.878
-0.098999999 3.345 1.868
-0.098999999 3.3429999 1.86
-0.093999997 3.355 1.845
-0.102 3.3369999 1.844
-0.097999997 3.346 1.831
-0.092 3.359 1.816
-0.097000003 3.346 1.813
-0.097000003 3.346 1.8049999
-0.1 3.339 1.799
-0.097999997 3.342 1.788
-0.098999999 3.3410001 1.78
-0.102 3.3329999 1.775
-0.102 3.3329999 1.766
-0.1 3.336 1.756
-0.1 3.336 1.747
-0.1 3.335 1.738
-0.094999999 3.348 1.724
-0.096000001 3.3440001 1.717
-0.1 3.3340001 1.712
-0.098999999 3.3369999 1.702
-0.098999999 3.336 1.694
-0.101 3.332 1.687
-0.102 3.329 1.6799999
-0.097999997 3.3380001 1.6670001
-0.097000003 3.3410001 1.6569999
-0.086999997 3.365 1.638
-0.096000001 3.3410001 1.64
-0.093000002 3.3499999 1.627
-0.094999999 3.3440001 1.6210001
-0.094999999 3.3429999 1.613
-0.1 3.3310001 1.609
-0.101 3.329 1.601
-0.097999997 3.336 1.59
-0.093999997 3.3440001 1.5779999
-0.093999997 3.3429999 1.5700001
-0.096000001 3.339 1.563
-0.093999997 3.3429999 1.552
-0.097999997 3.3329999 1.548
-0.097000003 3.3340001 1.539
-0.1 3.3269999 1.533
-0.097999997 3.3329999 1.522
-0.101 3.325 1.517
-0.094999999 3.3380001 1.503
-0.101 3.322 1.501
-0.096000001 3.336 1.487
-0.096000001 3.335 1.479
-0.102 3.319 1.477
-0.097999997 3.329 1.464
-0.097000003 3.3310001 1.455
-0.1 3.3239999 1.449
-0.093999997 3.3380001 1.436
-0.096000001 3.332 1.429
-0.097999997 3.3280001 1.423
-0.093999997 3.3380001 1.411
-0.096000001 3.332 1.404
-0.090999998 3.3440001 1.392
-0.092 3.342 1.3839999
-0.093000002 3.339 1.377
-0.086999997 3.3529999 1.363
-0.092 3.3410001 1.359
-0.088 3.349 1.348
-0.089000002 3.346 1.341
-0.097000003 3.3269999 1.339
-0.090000004 3.3429999 1.326
-0.093000002 3.336 1.3200001
-0.096000001 3.329 1.314
-0.090000004 3.3429999 1.301
-0.090000004 3.342 1.293
-0.093999997 3.3310001 1.288
-0.094999999 3.3280001 1.281
-0.083999999 3.3559999 1.263
-0.093000002 3.3340001 1.263
-0.092 3.335 1.2539999
-0.097999997 3.3210001 1.25
-0.092 3.335 1.237
-0.093000002 3.332 1.23
-0.090000004 3.3380001 1.22
-0.1 3.3139999 1.219
-0.093999997 3.329 1.206
-0.089000002 3.3410001 1.1950001
-0.090999998 3.336 1.188
-0.090000004 3.336 1.1799999
-0.089000002 3.3399999 1.171
-0.088 3.3410001 1.1619999
-0.094999999 3.323 1.159
-0.086999997 3.3440001 1.145
-0.096000001 3.3199999 1.1440001
-0.097000003 3.3180001 1.137
-0.097000003 3.316 1.1289999
-0.096000001 3.3210001 1.12
-0.093999997 3.325 1.11
-0.093000002 3.3269999 1.102
-0.090999998 3.3299999 1.0930001
-0.094999999 3.3199999 1.087
-0.093000002 3.326 1.0779999
-0.094999999 3.3210001 1.071
-0.094999999 3.319 1.064
-0.1 3.306 1.059
-0.090000004 3.332 1.044
-0.092 3.325 1.038
-0.093999997 3.3210001 1.031
-0.094999999 3.3180001 1.024
-0.092 3.3239999 1.0140001
-0.093000002 3.323 1.006
-0.093000002 3.322 0.99900001
-0.090000004 3.3280001 0.98900002
-0.097999997 3.309 0.986
-0.097000003 3.312 0.977
-0.092 3.323 0.96600002
-0.090000004 3.3280001 0.95700002
-0.092 3.322 0.95099998
-0.1 3.303 0.94700003
-0.113 3.27 0.94800001
-0.112 3.273 0.93900001
-0.112 3.2709999 0.93099999
-0.105 3.2880001 0.91900003
-0.092 3.322 0.903
-0.093000002 3.3169999 0.89600003
-0.089000002 3.3280001 0.88599998
-0.092 3.319 0.88
-0.094999999 3.313 0.87400001
-0.092 3.3180001 0.86500001
-0.092 3.3180001 0.85699999
-0.093000002 3.316 0.84899998
-0.090999998 3.3210001 0.83999997
-0.092 3.319 0.833
-0.090000004 3.323 0.824
-0.092 3.3169999 0.81800002
-0.090999998 3.319 0.80900002
-0.092 3.316 0.80199999
-0.092 3.316 0.79400003
-0.097000003 3.3050001 0.78899997
-0.093000002 3.3139999 0.77899998
-0.097000003 3.303 0.77399999
-0.093999997 3.309 0.764
-0.088 3.3239999 0.75400001
-0.098999999 3.296 0.75099999
-0.096000001 3.3050001 0.74199998
-0.098999999 3.2950001 0.736
-0.086000003 3.3280001 0.722
-0.096000001 3.3010001 0.71899998
-0.093000002 3.3099999 0.70899999
-0.096000001 3.3010001 0.70300001
-0.093000002 3.3099999 0.69400001
-0.094999999 3.3039999 0.68699998
-0.090999998 3.3139999 0.67799997
-0.092 3.3099999 0.671
-0.093000002 3.3080001 0.66299999
-0.089000002 3.3180001 0.65399998
-0.093000002 3.3080001 0.648
-0.092 3.309 0.63999999
-0.092 3.309 0.63200003
-0.094999999 3.3010001 0.62599999
-0.093999997 3.303 0.61699998
-0.1 3.2880001 0.61199999
-0.088 3.3180001 0.59899998
-0.086000003 3.322 0.59100002
-0.093999997 3.3010001 0.58700001
-0.093999997 3.302 0.579
-0.093999997 3.302 0.57099998
-0.097000003 3.2939999 0.565
-0.094999999 3.2969999 0.55599999
-0.093000002 3.3039999 0.54799998
-0.093000002 3.302 0.54000002
-0.094999999 3.2969999 0.53299999
-0.096000001 3.2950001 0.52600002
-0.093999997 3.3 0.51700002
-0.098999999 3.2869999 0.51200002
-0.101 3.2820001 0.50400001
-0.090999998 3.3050001 0.49399999
-0.093999997 3.299 0.48699999
-0.090999998 3.3039999 0.47799999
-0.092 3.303 0.47099999
-0.097999997 3.2869999 0.465
-0.096000001 3.2920001 0.45699999
-0.089000002 3.3080001 0.447
-0.093000002 3.2980001 0.44100001
-0.1 3.2809999 0.435
-0.090999998 3.3039999 0.42500001
-0.093999997 3.2950001 0.41800001
-0.093000002 3.2969999 0.41
-0.093999997 3.2950001 0.403
-0.092 3.299 0.39500001
-0.096000001 3.29 0.38800001
-0.090999998 3.302 0.37900001
-0.097000003 3.286 0.373
-0.097999997 3.2820001 0.366
-0.097999997 3.283 0.35800001
-0.094999999 3.2909999 0.34999999
-0.093000002 3.2939999 0.34200001
-0.089000002 3.3050001 0.333
-0.098999999 3.279 0.32800001
-0.092 3.296 0.31900001
-0.094999999 3.289 0.31200001
-0.090999998 3.299 0.303
-0.090000004 3.299 0.29499999
-0.092 3.2950001 0.28799999
-0.094999999 3.286 0.28099999
-0.092 3.2939999 0.273
-0.089000002 3.3010001 0.26499999
-0.085000001 3.3099999 0.25600001
-0.096000001 3.2839999 0.25099999
-0.094999999 3.286 0.243
-0.096000001 3.2820001 0.236
-0.093999997 3.286 0.228
-0.097000003 3.279 0.221
-0.089000002 3.299 0.212
-0.093999997 3.2850001 0.205
-0.093000002 3.2869999 0.197
-0.097000003 3.279 0.19
-0.097000003 3.2780001 0.182
-0.094999999 3.2820001 0.175
-0.094999999 3.2820001 0.167
-0.094999999 3.2820001 0.15899999
-0.088 3.299 0.15099999
-0.092 3.289 0.14399999
-0.090000004 3.2939999 0.13600001
-0.082000002 3.312 0.12800001
-0.086000003 3.302 0.12
-0.072999999 3.3340001 0.112
-0.077 3.325 0.104
-0.077 3.3239999 0.097000003
-0.072999999 3.3329999 0.089000002
-0.072999999 3.3329999 0.082000002
-0.066 3.3510001 0.074000001
-0.068000004 3.3469999 0.066
-0.066 3.3510001 0.059
-0.064000003 3.355 0.050999999
-0.064000003 3.355 0.044
-0.067000002 3.346 0.035999998
-0.064000003 3.355 0.028999999
-0.057999998 3.368 0.021
-0.061999999 3.358 0.014
-0.057999998 3.3670001 0.0060000001
-0.083999999 3.411 2.971
-0.083999999 3.4100001 2.961
-0.086000003 3.405 2.954
-0.088 3.4000001 2.9460001
-0.090000004 3.395 2.9389999
-0.086999997 3.402 2.9230001
-0.083999999 3.408 2.9070001
-0.088 3.3970001 2.905
-0.086000003 3.4030001 2.8889999
-0.086000003 3.401 2.8789999
-0.086000003 3.4000001 2.869
-0.085000001 3.4030001 2.8559999
-0.082999997 3.4059999 2.8429999
-0.088 3.395 2.8399999
-0.085000001 3.401 2.825
-0.083999999 3.404 2.812
-0.083999999 3.4030001 2.802
-0.089000002 3.3900001 2.8
-0.092 3.3829999 2.7939999
-0.096000001 3.3729999 2.7909999
-0.092 3.3800001 2.7750001
-0.096000001 3.372 2.77
-0.096000001 3.3710001 2.76
-0.093999997 3.3740001 2.747
-0.096000001 3.3699999 2.74
-0.096000001 3.369 2.73
-0.093000002 3.3759999 2.714
-0.096000001 3.368 2.7090001
-0.093000002 3.375 2.694
-0.092 3.378 2.681
-0.094999999 3.3699999 2.6760001
-0.094999999 3.369 2.6659999
-0.094999999 3.368 2.6559999
-0.093999997 3.3710001 2.6440001
-0.093999997 3.3710001 2.6340001
-0.097000003 3.3629999 2.6289999
-0.097000003 3.362 2.619
-0.097999997 3.359 2.6110001
-0.093999997 3.369 2.5929999
-0.097000003 3.3610001 2.5880001
-0.093999997 3.368 2.573
-0.093999997 3.368 2.563
-0.090999998 3.375 2.5480001
-0.093999997 3.368 2.543
-0.097999997 3.355 2.5409999
-0.097000003 3.359 2.5280001
-0.094999999 3.362 2.516
-0.093999997 3.3659999 2.503
-0.094999999 3.362 2.4960001
-0.089000002 3.3770001 2.4760001
-0.088 3.3789999 2.4649999
-0.085000001 3.3859999 2.45
-0.079999998 3.3970001 2.4330001
-0.079999998 3.3970001 2.4230001
-0.077 3.404 2.4089999
-0.078000002 3.4000001 2.401
-0.078000002 3.4000001 2.392
-0.078000002 3.4000001 2.382
-0.083999999 3.3840001 2.382
-0.075999998 3.404 2.359
-0.079999998 3.3929999 2.3559999
-0.079000004 3.3959999 2.345
-0.077 3.4000001 2.332
-0.090000004 3.368 2.342
-0.085000001 3.381 2.325
-0.088 3.3729999 2.3199999
-0.086000003 3.3770001 2.3080001
-0.089000002 3.369 2.303
-0.092 3.3610001 2.2969999
-0.086999997 3.3729999 2.28
-0.088 3.3699999 2.273
-0.088 3.3699999 2.263
-0.089000002 3.3659999 2.256
-0.086999997 3.3699999 2.244
-0.082999997 3.3789999 2.2290001
-0.090999998 3.359 2.2309999
-0.089000002 3.3629999 2.2190001
-0.089000002 3.3640001 2.2090001
-0.092 3.3570001 2.2030001
-0.090999998 3.358 2.1930001
-0.093999997 3.3510001 2.188
-0.089000002 3.3610001 2.1719999
-0.089000002 3.362 2.1619999
-0.090999998 3.3559999 2.1559999
-0.089000002 3.3599999 2.1440001
-0.086000003 3.3670001 2.131
-0.092 3.3529999 2.1289999
-0.086999997 3.3640001 2.1140001
-0.090000004 3.3570001 2.109
-0.088 3.362 2.096
-0.090999998 3.355 2.0910001
-0.088 3.3599999 2.079
-0.082999997 3.372 2.063
-0.089000002 3.358 2.0610001
-0.090999998 3.352 2.0550001
-0.092 3.3510001 2.046
-0.090999998 3.352 2.036
-0.090999998 3.352 2.027
-0.094999999 3.3399999 2.0239999
-0.090999998 3.349 2.01
-0.090999998 3.3499999 2
-0.093000002 3.3440001 1.995
-0.089000002 3.355 1.979
-0.088 3.355 1.97
-0.092 3.345 1.966
-0.093999997 3.342 1.959
-0.092 3.346 1.947
-0.089000002 3.3510001 1.936
-0.089000002 3.352 1.926
-0.090000004 3.349 1.919
-0.086000003 3.358 1.905
-0.089000002 3.3510001 1.9
-0.086999997 3.3559999 1.888
-0.090000004 3.3469999 1.883
-0.086999997 3.3529999 1.8710001
-0.090000004 3.3469999 1.865
-0.088 3.3510001 1.854
-0.089000002 3.348 1.847
-0.090000004 3.345 1.839
-0.093000002 3.3380001 1.834
-0.094999999 3.332 1.8279999
-0.093999997 3.335 1.817
-0.089000002 3.346 1.803
-0.089000002 3.3469999 1.794
-0.093000002 3.3369999 1.79
-0.090000004 3.342 1.778
-0.093999997 3.3329999 1.773
-0.090999998 3.3410001 1.761
-0.093999997 3.3329999 1.756
-0.092 3.336 1.7460001
-0.090000004 3.342 1.734
-0.082999997 3.3570001 1.719
-0.088 3.346 1.715
-0.090000004 3.339 1.709
-0.092 3.336 1.702
-0.092 3.3340001 1.694
-0.092 3.335 1.6849999
-0.093000002 3.3310001 1.677
-0.088 3.342 1.664
-0.090999998 3.335 1.658
-0.092 3.3310001 1.651
-0.088 3.3429999 1.638
-0.092 3.3310001 1.6339999
-0.088 3.342 1.6210001
-0.093999997 3.325 1.619
-0.089000002 3.3380001 1.605
-0.089000002 3.3369999 1.597
-0.090000004 3.335 1.589
-0.090999998 3.3310001 1.582
-0.090000004 3.3329999 1.573
-0.088 3.3399999 1.561
-0.092 3.3280001 1.557
-0.089000002 3.335 1.546
-0.086999997 3.3399999 1.536
-0.085000001 3.346 1.525
-0.090000004 3.3310001 1.522
-0.090000004 3.332 1.513
-0.090999998 3.329 1.506
-0.090000004 3.3299999 1.497
-0.093999997 3.3199999 1.492
-0.089000002 3.332 1.479
-0.094999999 3.3169999 1.476
-0.082999997 3.346 1.457
-0.088 3.335 1.4529999
-0.079999998 3.3529999 1.437
-0.093999997 3.3180001 1.442
-0.086000003 3.3369999 1.427
-0.082999997 3.3440001 1.416
-0.083999999 3.3410001 1.408
-0.090000004 3.326 1.406
-0.086999997 3.3329999 1.395
-0.085000001 3.339 1.3839999
-0.083999999 3.3410001 1.375
-0.079999998 3.3499999 1.363
-0.085000001 3.3380001 1.359
-0.085000001 3.336 1.352
-0.074000001 3.3640001 1.334
-0.082999997 3.3399999 1.334
-0.081 3.3469999 1.323
-0.082999997 3.3399999 1.317
-0.089000002 3.325 1.314
-0.085000001 3.336 1.302
-0.086999997 3.3299999 1.296
-0.086999997 3.3280001 1.288
-0.085000001 3.3340001 1.278
-0.086000003 3.3310001 1.271
-0.078000002 3.3499999 1.256
-0.082999997 3.3369999 1.253
-0.082000002 3.339 1.244
-0.088 3.3239999 1.24
-0.082000002 3.3380001 1.227
-0.078000002 3.349 1.216
-0.079999998 3.3429999 1.21
-0.085000001 3.3310001 1.205
-0.090999998 3.316 1.202
-0.082999997 3.336 1.187
-0.082999997 3.335 1.1799999
-0.077 3.3499999 1.1670001
-0.086999997 3.325 1.166
-0.085000001 3.3280001 1.1569999
-0.077 3.348 1.143
-0.085000001 3.329 1.141
-0.090999998 3.312 1.138
-0.079000004 3.3429999 1.12
-0.086000003 3.3239999 1.118
-0.088 3.319 1.1109999
-0.086999997 3.322 1.102
-0.086999997 3.322 1.094
-0.092 3.3069999 1.09
-0.082000002 3.3329999 1.075
-0.089000002 3.3139999 1.072
-0.090000004 3.313 1.0650001
-0.086000003 3.322 1.054
-0.090999998 3.3080001 1.05
-0.089000002 3.3139999 1.04
-0.092 3.3050001 1.034
-0.081 3.3310001 1.0190001
-0.086000003 3.3210001 1.0140001
-0.086999997 3.316 1.007
-0.086000003 3.3180001 0.99900001
-0.085000001 3.3210001 0.99000001
-0.083999999 3.3239999 0.98199999
-0.090999998 3.3050001 0.97799999
-0.090999998 3.3069999 0.97000003
-0.086000003 3.3180001 0.95899999
-0.086999997 3.316 0.95200002
-0.086000003 3.3169999 0.94300002
-0.083999999 3.322 0.93400002
-0.098999999 3.283 0.93599999
-0.111 3.253 0.935
-0.111 3.2539999 0.92699999
-0.108 3.2609999 0.917
-0.090000004 3.3039999 0.89899999
-0.079999998 3.329 0.88499999
-0.083999999 3.3199999 0.87900001
-0.075999998 3.3399999 0.86699998
-0.086000003 3.3139999 0.86500001
-0.086000003 3.313 0.85699999
-0.089000002 3.3039999 0.85100001
-0.089000002 3.3050001 0.84299999
-0.089000002 3.3039999 0.83600003
-0.092 3.296 0.82999998
-0.088 3.306 0.81999999
-0.090000004 3.3010001 0.81300002
-0.086999997 3.3080001 0.80299997
-0.090000004 3.3010001 0.79699999
-0.088 3.3039999 0.78799999
-0.088 3.306 0.77999997
-0.083999999 3.3150001 0.76999998
-0.089000002 3.302 0.76499999
-0.085000001 3.312 0.75599998
-0.092 3.293 0.75099999
-0.082000002 3.3169999 0.73900002
-0.085000001 3.3099999 0.73299998
-0.088 3.303 0.72600001
-0.085000001 3.3099999 0.71700001
-0.092 3.2909999 0.713
-0.082999997 3.3139999 0.70099998
-0.096000001 3.2809999 0.699
-0.079000004 3.323 0.68300003
-0.085000001 3.309 0.67799997
-0.086000003 3.3050001 0.671
-0.089000002 3.2980001 0.66500002
-0.083999999 3.309 0.65499997
-0.089000002 3.2980001 0.64899999
-0.089000002 3.2950001 0.64200002
-0.082000002 3.313 0.63099998
-0.092 3.289 0.62699997
-0.082999997 3.309 0.616
-0.083999999 3.3069999 0.60900003
-0.083999999 3.3069999 0.60100001
-0.089000002 3.293 0.59500003
-0.082000002 3.3110001 0.58499998
-0.086999997 3.2980001 0.579
-0.094999999 3.277 0.57499999
-0.083999999 3.306 0.56199998
-0.082000002 3.3110001 0.55400002
-0.088 3.2950001 0.54900002
-0.083999999 3.303 0.54000002
-0.082000002 3.3099999 0.53100002
-0.085000001 3.302 0.52499998
-0.088 3.2939999 0.51800001
-0.089000002 3.29 0.51099998
-0.085000001 3.3010001 0.50199997
-0.086000003 3.2969999 0.495
-0.088 3.293 0.48699999
-0.088 3.2920001 0.47999999
-0.090999998 3.2839999 0.47299999
-0.090000004 3.2880001 0.465
-0.085000001 3.299 0.456
-0.088 3.2909999 0.449
-0.085000001 3.299 0.44
-0.090999998 3.283 0.435
-0.086999997 3.293 0.426
-0.092 3.279 0.41999999
-0.086999997 3.2909999 0.41100001
-0.083999999 3.299 0.40200001
-0.083999999 3.299 0.39500001
-0.088 3.29 0.38800001
-0.086000003 3.293 0.38
-0.086000003 3.2939999 0.37200001
-0.083999999 3.2980001 0.36399999
-0.089000002 3.286 0.35800001
-0.086999997 3.29 0.34999999
-0.089000002 3.2839999 0.34200001
-0.088 3.2850001 0.33500001
-0.086999997 3.289 0.32699999
-0.083999999 3.2939999 0.31900001
-0.093999997 3.2709999 0.31299999
-0.092 3.2750001 0.30500001
-0.088 3.2839999 0.29699999
-0.089000002 3.2809999 0.289
-0.083999999 3.2950001 0.28
-0.079999998 3.3039999 0.27200001
-0.090000004 3.2780001 0.266
-0.085000001 3.29 0.25799999
-0.089000002 3.279 0.25099999
-0.082999997 3.2950001 0.242
-0.083999999 3.2920001 0.235
-0.085000001 3.289 0.227
-0.081 3.2980001 0.219
-0.083999999 3.29 0.212
-0.078000002 3.3050001 0.204
-0.092 3.2709999 0.198
-0.086000003 3.2839999 0.19
-0.082999997 3.2909999 0.182
-0.086999997 3.2809999 0.175
-0.082999997 3.29 0.167
-0.086000003 3.283 0.15899999
-0.085000001 3.2869999 0.15099999
-0.075000003 3.3099999 0.14300001
-0.077 3.3050001 0.13500001
-0.075000003 3.309 0.12800001
-0.068000004 3.3269999 0.119
-0.066 3.3310001 0.112
-0.068000004 3.3269999 0.104
-0.07 3.322 0.097000003
-0.066 3.3310001 0.089000002
-0.061999999 3.3399999 0.081
-0.066 3.3299999 0.074000001
-0.064000003 3.3340001 0.067000002
-0.061999999 3.339 0.059
-0.064000003 3.3340001 0.052000001
-0.064000003 3.3340001 0.044
-0.061999999 3.3380001 0.035999998
-0.057999998 3.3469999 0.028999999
-0.055 3.3559999 0.021
-0.055 3.355 0.014
-0.052999999 3.3599999 0.0060000001
-0.075000003 3.4130001 2.9790001
-0.079000004 3.405 2.974
-0.072999999 3.4189999 2.9530001
-0.074000001 3.414 2.9449999
-0.078000002 3.405 2.941
-0.078000002 3.404 2.9300001
-0.077 3.4070001 2.9170001
-0.075000003 3.4089999 2.904
-0.079999998 3.3970001 2.9030001
-0.077 3.404 2.8870001
-0.075999998 3.4059999 2.8740001
-0.075999998 3.405 2.8629999
-0.078000002 3.401 2.855
-0.075000003 3.4070001 2.8399999
-0.078000002 3.4000001 2.835
-0.079000004 3.398 2.825
-0.079999998 3.3929999 2.8180001
-0.082000002 3.3889999 2.8110001
-0.086999997 3.3770001 2.8080001
-0.086999997 3.375 2.7980001
-0.092 3.3629999 2.7969999
-0.090000004 3.3659999 2.7839999
-0.089000002 3.369 2.7709999
-0.082999997 3.3840001 2.7490001
-0.092 3.3599999 2.756
-0.088 3.3710001 2.737
-0.086000003 3.3740001 2.724
-0.085000001 3.3770001 2.7119999
-0.086000003 3.3729999 2.704
-0.086000003 3.372 2.694
-0.086999997 3.372 2.684
-0.086999997 3.3710001 2.674
-0.086999997 3.3699999 2.664
-0.086999997 3.369 2.654
-0.088 3.3659999 2.6459999
-0.088 3.3640001 2.6359999
-0.085000001 3.372 2.6210001
-0.083999999 3.375 2.608
-0.088 3.3640001 2.6059999
-0.085000001 3.3699999 2.5910001
-0.088 3.362 2.586
-0.086999997 3.3659999 2.573
-0.090000004 3.358 2.5680001
-0.081 3.3800001 2.543
-0.088 3.3610001 2.546
-0.086999997 3.3640001 2.5339999
-0.082000002 3.375 2.516
-0.088 3.359 2.516
-0.086999997 3.3629999 2.503
-0.086999997 3.3629999 2.493
-0.082999997 3.3710001 2.4779999
-0.082999997 3.3699999 2.4679999
-0.088 3.359 2.4649999
-0.086000003 3.362 2.4530001
-0.079000004 3.378 2.4330001
-0.078000002 3.382 2.421
-0.079000004 3.378 2.414
-0.086999997 3.358 2.4159999
-0.083999999 3.3659999 2.401
-0.079999998 3.3740001 2.3859999
-0.082999997 3.3659999 2.381
-0.082999997 3.3659999 2.3710001
-0.082999997 3.3659999 2.3610001
-0.081 3.369 2.3499999
-0.081 3.3699999 2.3399999
-0.081 3.3699999 2.3299999
-0.086000003 3.358 2.3269999
-0.083999999 3.362 2.3150001
-0.083999999 3.362 2.3050001
-0.079999998 3.3699999 2.29
-0.082999997 3.3629999 2.2850001
-0.083999999 3.359 2.2780001
-0.082999997 3.3629999 2.266
-0.086999997 3.3510001 2.263
-0.079000004 3.372 2.2409999
-0.085000001 3.3559999 2.2409999
-0.081 3.3640001 2.2260001
-0.083999999 3.3570001 2.221
-0.082000002 3.362 2.2090001
-0.085000001 3.3540001 2.204
-0.086000003 3.352 2.1949999
-0.086000003 3.352 2.1860001
-0.086999997 3.349 2.178
-0.082999997 3.3570001 2.164
-0.082999997 3.358 2.154
-0.086000003 3.349 2.1489999
-0.082000002 3.359 2.1340001
-0.086999997 3.346 2.132
-0.082000002 3.358 2.1159999
-0.078000002 3.3670001 2.102
-0.078000002 3.368 2.092
-0.079999998 3.3610001 2.086
-0.079000004 3.3640001 2.075
-0.079999998 3.3610001 2.0680001
-0.082999997 3.3540001 2.062
-0.078000002 3.3640001 2.0480001
-0.078000002 3.365 2.0380001
-0.081 3.3570001 2.033
-0.088 3.3399999 2.0320001
-0.082999997 3.3499999 2.0179999
-0.082999997 3.352 2.0079999
-0.082000002 3.352 1.998
-0.088 3.3369999 1.9960001
-0.082000002 3.352 1.98
-0.079000004 3.358 1.967
-0.081 3.3540001 1.96
-0.085000001 3.3429999 1.957
-0.082999997 3.348 1.9450001
-0.082999997 3.348 1.936
-0.088 3.3340001 1.934
-0.082999997 3.3469999 1.918
-0.079000004 3.3559999 1.905
-0.083999999 3.342 1.903
-0.082000002 3.3469999 1.891
-0.081 3.3499999 1.881
-0.081 3.3510001 1.8710001
-0.082999997 3.3429999 1.8660001
-0.082000002 3.345 1.8559999
-0.085000001 3.339 1.85
-0.082000002 3.3469999 1.8380001
-0.082000002 3.3440001 1.83
-0.083999999 3.3399999 1.823
-0.082999997 3.342 1.813
-0.082000002 3.3440001 1.803
-0.082999997 3.3410001 1.795
-0.082000002 3.3440001 1.785
-0.078000002 3.352 1.773
-0.082999997 3.3410001 1.7690001
-0.083999999 3.3380001 1.761
-0.083999999 3.3369999 1.753
-0.079999998 3.3469999 1.739
-0.085000001 3.3329999 1.737
-0.081 3.3429999 1.724
-0.083999999 3.336 1.7180001
-0.081 3.342 1.707
-0.088 3.323 1.706
-0.079999998 3.3440001 1.689
-0.082999997 3.3369999 1.683
-0.081 3.3410001 1.6720001
-0.079999998 3.3429999 1.663
-0.077 3.3499999 1.651
-0.086999997 3.326 1.652
-0.082000002 3.336 1.6390001
-0.089000002 3.3199999 1.638
-0.086000003 3.326 1.626
-0.079000004 3.3429999 1.61
-0.088 3.3199999 1.612
-0.083999999 3.3299999 1.599
-0.089000002 3.3169999 1.595
-0.085000001 3.326 1.5829999
-0.079999998 3.339 1.569
-0.086999997 3.3210001 1.568
-0.083999999 3.329 1.556
-0.082000002 3.332 1.546
-0.085000001 3.325 1.541
-0.079999998 3.3380001 1.527
-0.082000002 3.332 1.521
-0.086000003 3.3199999 1.517
-0.086999997 3.3180001 1.5089999
-0.082999997 3.3280001 1.497
-0.086000003 3.319 1.492
-0.079999998 3.335 1.477
-0.079000004 3.3369999 1.4680001
-0.077 3.3410001 1.4579999
-0.075999998 3.3429999 1.449
-0.086000003 3.3169999 1.45
-0.079999998 3.332 1.436
-0.079000004 3.3340001 1.427
-0.078000002 3.336 1.418
-0.082999997 3.325 1.413
-0.079999998 3.3310001 1.403
-0.082000002 3.326 1.396
-0.072999999 3.348 1.38
-0.077 3.3369999 1.376
-0.077 3.3380001 1.367
-0.079000004 3.332 1.3609999
-0.081 3.326 1.354
-0.079000004 3.332 1.344
-0.082000002 3.3239999 1.3380001
-0.075000003 3.3399999 1.325
-0.075999998 3.3380001 1.317
-0.082000002 3.323 1.314
-0.075999998 3.3380001 1.301
-0.085000001 3.316 1.3
-0.079000004 3.3299999 1.2869999
-0.078000002 3.3310001 1.278
-0.079999998 3.325 1.272
-0.081 3.3239999 1.2640001
-0.082999997 3.3169999 1.258
-0.079000004 3.326 1.247
-0.079999998 3.325 1.239
-0.079999998 3.323 1.232
-0.081 3.322 1.224
-0.075000003 3.336 1.211
-0.071000002 3.346 1.2
-0.075999998 3.3329999 1.196
-0.078000002 3.329 1.189
-0.075999998 3.3310001 1.1799999
-0.079000004 3.325 1.174
-0.074000001 3.336 1.1619999
-0.072999999 3.3380001 1.153
-0.077 3.3280001 1.148
-0.081 3.3180001 1.143
-0.079999998 3.3210001 1.1339999
-0.079000004 3.3210001 1.126
-0.082000002 3.313 1.12
-0.078000002 3.325 1.109
-0.079000004 3.3199999 1.102
-0.078000002 3.323 1.0930001
-0.075999998 3.3269999 1.084
-0.086999997 3.299 1.084
-0.081 3.3150001 1.071
-0.079999998 3.3169999 1.063
-0.075000003 3.329 1.052
-0.082000002 3.3110001 1.048
-0.079999998 3.316 1.039
-0.071999997 3.3340001 1.026
-0.072999999 3.3329999 1.018
-0.074000001 3.3299999 1.011
-0.075999998 3.325 1.005
-0.075999998 3.3239999 0.99699998
-0.075999998 3.322 0.98900002
-0.077 3.322 0.98199999
-0.074000001 3.3269999 0.972
-0.075999998 3.322 0.96600002
-0.079000004 3.316 0.95899999
-0.075000003 3.3239999 0.949
-0.079000004 3.313 0.94400001
-0.077 3.319 0.935
-0.082000002 3.3050001 0.93000001
-0.096000001 3.2709999 0.93000001
-0.107 3.2420001 0.92900002
-0.1 3.2590001 0.917
-0.101 3.256 0.91000003
-0.079000004 3.313 0.88800001
-0.077 3.316 0.88
-0.078000002 3.3139999 0.87199998
-0.07 3.3329999 0.86000001
-0.083999999 3.2969999 0.861
-0.078000002 3.313 0.84899998
-0.075000003 3.319 0.83999997
-0.082999997 3.3 0.83600003
-0.078000002 3.3110001 0.82599998
-0.078000002 3.3110001 0.81800002
-0.082000002 3.3010001 0.81199998
-0.078000002 3.312 0.80199999
-0.082000002 3.3010001 0.796
-0.074000001 3.3199999 0.78500003
-0.077 3.3110001 0.77899998
-0.075999998 3.313 0.76999998
-0.079999998 3.3050001 0.764
-0.074000001 3.3180001 0.75400001
-0.075999998 3.3139999 0.74699998
-0.077 3.3099999 0.74000001
-0.081 3.3 0.73400003
-0.074000001 3.316 0.72299999
-0.079000004 3.3050001 0.71700001
-0.081 3.3 0.71100003
-0.079000004 3.3039999 0.70200002
-0.079000004 3.303 0.69400001
-0.075999998 3.3110001 0.685
-0.077 3.3080001 0.67799997
-0.078000002 3.3039999 0.671
-0.082999997 3.2920001 0.66500002
-0.075999998 3.3110001 0.65399998
-0.079999998 3.3 0.648
-0.072999999 3.3180001 0.63800001
-0.074000001 3.3139999 0.63099998
-0.075999998 3.3080001 0.62400001
-0.079999998 3.2969999 0.61799997
-0.079999998 3.2969999 0.61000001
-0.075999998 3.3069999 0.60100001
-0.075999998 3.306 0.59299999
-0.078000002 3.3 0.58600003
-0.075999998 3.306 0.57800001
-0.079000004 3.2980001 0.57099998
-0.079000004 3.2980001 0.56300002
-0.082999997 3.2869999 0.55699998
-0.075999998 3.3039999 0.54699999
-0.075999998 3.303 0.54000002
-0.079000004 3.2969999 0.53299999
-0.074000001 3.309 0.523
-0.079000004 3.296 0.51700002
-0.079000004 3.2950001 0.50999999
-0.074000001 3.3080001 0.5
-0.075999998 3.302 0.49399999
-0.079999998 3.293 0.48699999
-0.074000001 3.3080001 0.477
-0.077 3.299 0.47099999
-0.085000001 3.2780001 0.46599999
-0.086000003 3.276 0.458
-0.082000002 3.286 0.44999999
-0.082000002 3.2850001 0.442
-0.086000003 3.2750001 0.435
-0.082000002 3.2839999 0.42699999
-0.077 3.2969999 0.417
-0.083999999 3.28 0.412
-0.083999999 3.2780001 0.40400001
-0.079999998 3.2880001 0.39500001
-0.083999999 3.277 0.389
-0.077 3.2939999 0.38
-0.082999997 3.2809999 0.373
-0.081 3.2839999 0.36500001
-0.082000002 3.2820001 0.35800001
-0.079000004 3.29 0.34900001
-0.077 3.293 0.34099999
-0.082000002 3.2820001 0.33500001
-0.075000003 3.2969999 0.32600001
-0.078000002 3.2909999 0.31900001
-0.079999998 3.2850001 0.31200001
-0.077 3.2920001 0.303
-0.082000002 3.279 0.29699999
-0.079000004 3.2850001 0.289
-0.075000003 3.2969999 0.28
-0.068999998 3.3099999 0.271
-0.071000002 3.306 0.264
-0.07 3.3069999 0.257
-0.079999998 3.283 0.25099999
-0.082999997 3.2739999 0.244
-0.079999998 3.2809999 0.236
-0.079999998 3.2820001 0.228
-0.077 3.29 0.22
-0.078000002 3.2850001 0.212
-0.075999998 3.2909999 0.204
-0.077 3.286 0.197
-0.075999998 3.289 0.189
-0.082999997 3.2709999 0.183
-0.078000002 3.2839999 0.17399999
-0.07 3.3039999 0.16599999
-0.077 3.2850001 0.15899999
-0.077 3.2869999 0.15099999
-0.068000004 3.3080001 0.14300001
-0.07 3.3039999 0.13600001
-0.064999998 3.3150001 0.127
-0.067000002 3.3099999 0.12
-0.064999998 3.3150001 0.112
-0.063000001 3.319 0.105
-0.061000001 3.3239999 0.097000003
-0.063000001 3.319 0.090000004
-0.061000001 3.323 0.082000002
-0.063000001 3.3180001 0.075000003
-0.063000001 3.3180001 0.067000002
-0.063000001 3.3180001 0.059999999
-0.064999998 3.313 0.052000001
-0.055 3.336 0.044
-0.061000001 3.322 0.037
-0.064000003 3.312 0.029999999
-0.061000001 3.3210001 0.022
-0.057 3.3299999 0.014
-0.064000003 3.312 0.0070000002
-0.07 3.4059999 2.9719999
-0.066 3.4159999 2.9530001
-0.071000002 3.4030001 2.951
-0.071999997 3.3989999 2.944
-0.074000001 3.3940001 2.9360001
-0.072999999 3.3959999 2.9230001
-0.068999998 3.4070001 2.904
-0.07 3.402 2.8970001
-0.071999997 3.3970001 2.8900001
-0.068000004 3.408 2.8710001
-0.068999998 3.4030001 2.8629999
-0.071000002 3.3989999 2.855
-0.07 3.401 2.8429999
-0.072999999 3.392 2.8380001
-0.075999998 3.3840001 2.8340001
-0.078000002 3.3789999 2.826
-0.081 3.3710001 2.8210001
-0.082999997 3.3659999 2.8139999
-0.090000004 3.3499999 2.8150001
-0.085000001 3.3599999 2.7969999
-0.079999998 3.3710001 2.7780001
-0.083999999 3.3629999 2.773
-0.081 3.3699999 2.7579999
-0.078000002 3.3770001 2.7420001
-0.075999998 3.3800001 2.7290001
-0.082000002 3.3640001 2.73
-0.078000002 3.375 2.7119999
-0.083999999 3.358 2.7119999
-0.082999997 3.362 2.6989999
-0.082999997 3.3610001 2.6889999
-0.081 3.3640001 2.6760001
-0.078000002 3.3710001 2.6619999
-0.078000002 3.3699999 2.651
-0.078000002 3.3699999 2.641
-0.078000002 3.369 2.631
-0.077 3.3729999 2.618
-0.077 3.372 2.608
-0.078000002 3.368 2.6010001
-0.082999997 3.3559999 2.599
-0.077 3.3710001 2.5780001
-0.078000002 3.3670001 2.5710001
-0.077 3.3710001 2.5580001
-0.071999997 3.381 2.5409999
-0.081 3.359 2.5450001
-0.077 3.369 2.5280001
-0.079999998 3.3610001 2.5239999
-0.078000002 3.3640001 2.5109999
-0.079999998 3.3599999 2.5039999
-0.079999998 3.3599999 2.494
-0.078000002 3.3640001 2.4809999
-0.078000002 3.3640001 2.471
-0.075999998 3.368 2.4579999
-0.078000002 3.3629999 2.451
-0.071000002 3.3789999 2.431
-0.071000002 3.3789999 2.421
-0.075000003 3.3670001 2.4189999
-0.075000003 3.3670001 2.4089999
-0.075000003 3.3670001 2.3989999
-0.079999998 3.355 2.3959999
-0.078000002 3.359 2.3840001
-0.078000002 3.359 2.3740001
-0.078000002 3.359 2.3640001
-0.071000002 3.375 2.345
-0.079000004 3.3559999 2.3469999
-0.077 3.359 2.335
-0.075000003 3.3629999 2.323
-0.075000003 3.3629999 2.313
-0.075000003 3.3629999 2.303
-0.075000003 3.3640001 2.293
-0.072999999 3.368 2.2809999
-0.074000001 3.365 2.273
-0.075999998 3.3599999 2.266
-0.071999997 3.369 2.2509999
-0.077 3.3570001 2.2490001
-0.075999998 3.3570001 2.2390001
-0.072999999 3.3659999 2.224
-0.07 3.3710001 2.2119999
-0.079000004 3.348 2.2149999
-0.077 3.3529999 2.2030001
-0.068999998 3.372 2.1819999
-0.081 3.3440001 2.1889999
-0.079000004 3.348 2.177
-0.078000002 3.349 2.1670001
-0.072999999 3.3629999 2.1500001
-0.075999998 3.3540001 2.145
-0.074000001 3.359 2.1329999
-0.075000003 3.3570001 2.125
-0.072999999 3.3599999 2.1140001
-0.072999999 3.3599999 2.1040001
-0.077 3.3499999 2.0999999
-0.074000001 3.3570001 2.0869999
-0.078000002 3.346 2.0840001
-0.068999998 3.3670001 2.063
-0.068999998 3.368 2.053
-0.075000003 3.3529999 2.052
-0.071000002 3.3610001 2.0380001
-0.07 3.362 2.0280001
-0.071999997 3.359 2.0209999
-0.074000001 3.352 2.0150001
-0.078000002 3.3429999 2.0109999
-0.078000002 3.3410001 2.0020001
-0.075999998 3.346 1.9910001
-0.078000002 3.3410001 1.984
-0.075999998 3.346 1.972
-0.077 3.3429999 1.965
-0.075000003 3.3469999 1.9529999
-0.072999999 3.3529999 1.941
-0.071999997 3.3529999 1.932
-0.079000004 3.3380001 1.931
-0.071000002 3.355 1.913
-0.074000001 3.349 1.9069999
-0.071999997 3.3529999 1.896
-0.072999999 3.3510001 1.888
-0.074000001 3.3469999 1.881
-0.07 3.3559999 1.868
-0.071000002 3.3529999 1.86
-0.071000002 3.3540001 1.851
-0.068999998 3.359 1.839
-0.074000001 3.345 1.837
-0.071999997 3.3499999 1.826
-0.071000002 3.3510001 1.816
-0.072999999 3.346 1.8099999
-0.079000004 3.3310001 1.808
-0.075000003 3.3410001 1.794
-0.075000003 3.3399999 1.786
-0.074000001 3.3440001 1.775
-0.075999998 3.336 1.77
-0.074000001 3.3429999 1.758
-0.079999998 3.325 1.757
-0.074000001 3.3399999 1.742
-0.075999998 3.336 1.735
-0.075999998 3.3340001 1.727
-0.071000002 3.348 1.712
-0.07 3.3499999 1.702
-0.079999998 3.323 1.705
-0.077 3.332 1.692
-0.071000002 3.346 1.678
-0.07 3.348 1.668
-0.072999999 3.3399999 1.663
-0.083999999 3.313 1.666
-0.068000004 3.3529999 1.64
-0.074000001 3.3369999 1.638
-0.082000002 3.3150001 1.6390001
-0.075000003 3.332 1.623
-0.071000002 3.342 1.61
-0.072999999 3.3380001 1.603
-0.072999999 3.336 1.595
-0.079000004 3.322 1.592
-0.075000003 3.3310001 1.58
-0.075999998 3.3269999 1.573
-0.075000003 3.3310001 1.563
-0.074000001 3.3310001 1.554
-0.068999998 3.345 1.54
-0.077 3.323 1.54
-0.078000002 3.323 1.5319999
-0.079000004 3.319 1.525
-0.075000003 3.3280001 1.513
-0.072999999 3.332 1.503
-0.082000002 3.3099999 1.503
-0.071000002 3.336 1.484
-0.077 3.3210001 1.482
-0.072999999 3.3310001 1.469
-0.068999998 3.3410001 1.457
-0.079999998 3.3139999 1.459
-0.075999998 3.323 1.447
-0.077 3.3210001 1.439
-0.066 3.348 1.421
-0.075999998 3.3210001 1.4220001
-0.075999998 3.322 1.413
-0.066 3.345 1.397
-0.074000001 3.325 1.396
-0.07 3.336 1.383
-0.068999998 3.3380001 1.374
-0.075000003 3.323 1.3710001
-0.068000004 3.3380001 1.358
-0.068000004 3.339 1.349
-0.068999998 3.3369999 1.342
-0.072999999 3.3269999 1.337
-0.066 3.342 1.323
-0.072999999 3.326 1.321
-0.068000004 3.3369999 1.308
-0.066 3.342 1.298
-0.072999999 3.325 1.296
-0.07 3.332 1.285
-0.071999997 3.325 1.279
-0.068000004 3.335 1.268
-0.071999997 3.3239999 1.263
-0.07 3.3310001 1.253
-0.07 3.329 1.245
-0.071999997 3.323 1.239
-0.067000002 3.3369999 1.226
-0.068999998 3.3310001 1.22
-0.067000002 3.336 1.21
-0.061999999 3.349 1.198
-0.068000004 3.332 1.1950001
-0.068000004 3.332 1.187
-0.072999999 3.319 1.183
-0.067000002 3.335 1.17
-0.07 3.325 1.165
-0.064000003 3.3399999 1.152
-0.064000003 3.3410001 1.1440001
-0.064999998 3.3369999 1.137
-0.067000002 3.332 1.13
-0.064000003 3.3380001 1.12
-0.074000001 3.3139999 1.119
-0.074000001 3.3150001 1.1109999
-0.072999999 3.316 1.103
-0.071000002 3.3210001 1.0930001
-0.077 3.3050001 1.09
-0.068000004 3.3269999 1.075
-0.074000001 3.3110001 1.072
-0.068000004 3.3269999 1.059
-0.074000001 3.312 1.056
-0.068000004 3.326 1.044
-0.075000003 3.3080001 1.041
-0.066 3.329 1.027
-0.071000002 3.3169999 1.022
-0.075000003 3.306 1.017
-0.068000004 3.323 1.0039999
-0.066 3.329 0.995
-0.068999998 3.3210001 0.98900002
-0.07 3.319 0.98199999
-0.064999998 3.329 0.97100002
-0.067000002 3.3239999 0.96499997
-0.071000002 3.3150001 0.95899999
-0.068999998 3.3199999 0.949
-0.068999998 3.3180001 0.94199997
-0.072999999 3.309 0.93599999
-0.067000002 3.323 0.92500001
-0.071000002 3.313 0.92000002
-0.085000001 3.2780001 0.92000002
-0.094999999 3.2520001 0.91799998
-0.097000003 3.2460001 0.91100001
-0.093000002 3.256 0.90100002
-0.081 3.2869999 0.88599998
-0.068999998 3.316 0.87099999
-0.074000001 3.303 0.86699998
-0.071999997 3.3080001 0.85699999
-0.071999997 3.3080001 0.85000002
-0.072999999 3.3050001 0.84200001
-0.071999997 3.3069999 0.83399999
-0.072999999 3.3039999 0.82700002
-0.066 3.3199999 0.81599998
-0.066 3.3199999 0.80800003
-0.068999998 3.313 0.801
-0.067000002 3.319 0.792
-0.064999998 3.322 0.78399998
-0.072999999 3.3010001 0.77999997
-0.068999998 3.313 0.76999998
-0.068000004 3.313 0.76200002
-0.066 3.3180001 0.75300002
-0.071999997 3.303 0.74900001
-0.068000004 3.3139999 0.73900002
-0.067000002 3.3150001 0.73100001
-0.071999997 3.303 0.72500002
-0.068999998 3.3099999 0.71600002
-0.071999997 3.3010001 0.70999998
-0.068000004 3.312 0.69999999
-0.071000002 3.3039999 0.69400001
-0.07 3.306 0.68599999
-0.071999997 3.3 0.67900002
-0.07 3.3039999 0.671
-0.068000004 3.309 0.662
-0.07 3.303 0.65499997
-0.071999997 3.2980001 0.648
-0.071000002 3.3010001 0.63999999
-0.077 3.286 0.63499999
-0.075000003 3.289 0.62599999
-0.068999998 3.3039999 0.616
-0.07 3.3010001 0.60900003
-0.064999998 3.3139999 0.59899998
-0.068999998 3.303 0.59299999
-0.071999997 3.2969999 0.58700001
-0.067000002 3.3080001 0.57700002
-0.071999997 3.296 0.57099998
-0.066 3.309 0.56099999
-0.075000003 3.286 0.55699998
-0.067000002 3.306 0.54699999
-0.07 3.2980001 0.54000002
-0.068999998 3.3010001 0.53200001
-0.071999997 3.2939999 0.52499998
-0.068999998 3.3 0.51700002
-0.067000002 3.306 0.50800002
-0.068999998 3.299 0.50099999
-0.071999997 3.293 0.495
-0.072999999 3.2880001 0.48699999
-0.068000004 3.3 0.47799999
-0.07 3.2950001 0.47099999
-0.071000002 3.2939999 0.46399999
-0.068000004 3.3010001 0.45500001
-0.068000004 3.3010001 0.44800001
-0.075000003 3.2820001 0.442
-0.07 3.2939999 0.433
-0.071000002 3.2909999 0.426
-0.071999997 3.289 0.41800001
-0.071999997 3.2869999 0.41100001
-0.071999997 3.289 0.403
-0.074000001 3.283 0.396
-0.071999997 3.2880001 0.38800001
-0.071000002 3.289 0.38
-0.067000002 3.3 0.37099999
-0.064999998 3.3039999 0.36300001
-0.071999997 3.2869999 0.35699999
-0.075000003 3.2780001 0.34999999
-0.071999997 3.2839999 0.34200001
-0.074000001 3.2809999 0.33500001
-0.059999999 3.3139999 0.324
-0.071999997 3.2839999 0.31900001
-0.067000002 3.2969999 0.31
-0.071000002 3.2869999 0.30399999
-0.064999998 3.302 0.29499999
-0.072999999 3.2809999 0.289
-0.064000003 3.3039999 0.27900001
-0.071000002 3.2850001 0.273
-0.071999997 3.2820001 0.266
-0.075000003 3.2750001 0.259
-0.077 3.2690001 0.252
-0.067000002 3.2950001 0.242
-0.071000002 3.2839999 0.235
-0.072999999 3.279 0.228
-0.074000001 3.2750001 0.221
-0.071999997 3.28 0.213
-0.074000001 3.2739999 0.205
-0.072999999 3.276 0.198
-0.077 3.267 0.191
-0.071999997 3.2780001 0.182
-0.068999998 3.2869999 0.17399999
-0.061999999 3.302 0.16599999
-0.068999998 3.2839999 0.15899999
-0.071999997 3.2780001 0.152
-0.064000003 3.299 0.14300001
-0.068000004 3.2869999 0.13600001
-0.071000002 3.28 0.12899999
-0.057999998 3.312 0.12
-0.064999998 3.293 0.113
-0.071999997 3.2750001 0.106
-0.061000001 3.302 0.097999997
-0.063000001 3.2969999 0.090000004
-0.061000001 3.302 0.082999997
-0.064999998 3.293 0.075000003
-0.057999998 3.3099999 0.067000002
-0.059 3.3050001 0.059999999
-0.056000002 3.3150001 0.052000001
-0.059 3.3050001 0.045000002
-0.057 3.309 0.037
-0.056000002 3.3139999 0.029999999
-0.057 3.309 0.022
-0.061000001 3.3 0.015
-0.054000001 3.3180001 0.0070000002
-0.061000001 3.408 2.9790001
-0.063000001 3.4030001 2.9719999
-0.059999999 3.4089999 2.9560001
-0.061000001 3.408 2.9449999
-0.061999999 3.4030001 2.938
-0.064000003 3.3989999 2.931
-0.063000001 3.401 2.918
-0.061999999 3.404 2.904
-0.061999999 3.4030001 2.8940001
-0.059999999 3.4059999 2.881
-0.064000003 3.3970001 2.8770001
-0.057999998 3.411 2.855
-0.064000003 3.3959999 2.8559999
-0.064000003 3.3940001 2.846
-0.068999998 3.382 2.8440001
-0.071000002 3.3770001 2.8369999
-0.071000002 3.3759999 2.8269999
-0.082000002 3.348 2.836
-0.074000001 3.3670001 2.812
-0.072999999 3.3699999 2.799
-0.07 3.3770001 2.783
-0.072999999 3.368 2.7780001
-0.075000003 3.3640001 2.7709999
-0.074000001 3.3670001 2.7579999
-0.077 3.358 2.753
-0.075000003 3.3610001 2.74
-0.074000001 3.365 2.727
-0.066 3.3840001 2.704
-0.066 3.382 2.694
-0.071000002 3.3710001 2.691
-0.07 3.3729999 2.6789999
-0.07 3.3729999 2.6689999
-0.071000002 3.368 2.6619999
-0.071000002 3.368 2.652
-0.072999999 3.3629999 2.6440001
-0.075000003 3.359 2.6370001
-0.072999999 3.362 2.6240001
-0.07 3.3699999 2.609
-0.07 3.369 2.598
-0.072999999 3.3610001 2.5940001
-0.071000002 3.365 2.5810001
-0.075999998 3.352 2.579
-0.071000002 3.3640001 2.5610001
-0.07 3.3670001 2.549
-0.067000002 3.3740001 2.533
-0.074000001 3.3559999 2.5350001
-0.072999999 3.358 2.5239999
-0.068000004 3.3699999 2.506
-0.07 3.365 2.4990001
-0.068000004 3.369 2.4860001
-0.066 3.3729999 2.473
-0.071999997 3.3570001 2.474
-0.068000004 3.3659999 2.4579999
-0.066 3.3729999 2.444
-0.071999997 3.3570001 2.444
-0.067000002 3.369 2.4260001
-0.067000002 3.369 2.4159999
-0.068000004 3.365 2.4089999
-0.071000002 3.3559999 2.404
-0.071000002 3.3559999 2.3940001
-0.068999998 3.3610001 2.382
-0.068999998 3.3610001 2.372
-0.066 3.368 2.3570001
-0.066 3.368 2.3469999
-0.068999998 3.3599999 2.342
-0.064999998 3.368 2.3280001
-0.068000004 3.3599999 2.323
-0.071000002 3.352 2.3180001
-0.068999998 3.3570001 2.3050001
-0.068999998 3.3570001 2.2950001
-0.068999998 3.3570001 2.286
-0.067000002 3.3610001 2.273
-0.067000002 3.362 2.2639999
-0.067000002 3.362 2.2539999
-0.07 3.3540001 2.2490001
-0.066 3.3629999 2.234
-0.061999999 3.3710001 2.22
-0.064999998 3.365 2.214
-0.068999998 3.3540001 2.21
-0.068000004 3.3570001 2.1989999
-0.068999998 3.3529999 2.1919999
-0.068999998 3.3529999 2.1819999
-0.067000002 3.358 2.1700001
-0.066 3.359 2.1600001
-0.066 3.359 2.1500001
-0.068999998 3.352 2.145
-0.068000004 3.3529999 2.135
-0.068999998 3.349 2.128
-0.071999997 3.342 2.122
-0.07 3.346 2.1099999
-0.064999998 3.358 2.0940001
-0.063000001 3.3629999 2.082
-0.068000004 3.3510001 2.079
-0.066 3.3559999 2.0680001
-0.064000003 3.3610001 2.056
-0.064000003 3.358 2.0480001
-0.067000002 3.3510001 2.0420001
-0.061000001 3.3659999 2.0250001
-0.066 3.352 2.023
-0.067000002 3.3499999 2.0150001
-0.071000002 3.3399999 2.0109999
-0.067000002 3.3499999 1.997
-0.068000004 3.346 1.989
-0.071000002 3.339 1.984
-0.068999998 3.3440001 1.972
-0.07 3.3410001 1.964
-0.071000002 3.3369999 1.957
-0.064000003 3.3540001 1.9400001
-0.063000001 3.3570001 1.929
-0.072999999 3.332 1.932
-0.068000004 3.3440001 1.9170001
-0.068999998 3.3410001 1.91
-0.068999998 3.339 1.902
-0.064000003 3.352 1.886
-0.061999999 3.3570001 1.875
-0.064999998 3.349 1.87
-0.071000002 3.3340001 1.868
-0.061999999 3.3559999 1.849
-0.064999998 3.348 1.8430001
-0.066 3.346 1.835
-0.057999998 3.365 1.817
-0.066 3.3440001 1.818
-0.071999997 3.329 1.816
-0.064999998 3.346 1.8
-0.07 3.3329999 1.7970001
-0.07 3.3329999 1.788
-0.07 3.332 1.78
-0.068000004 3.3380001 1.768
-0.068000004 3.3369999 1.76
-0.068000004 3.336 1.751
-0.067000002 3.3380001 1.742
-0.067000002 3.3380001 1.733
-0.068000004 3.336 1.725
-0.07 3.3299999 1.7180001
-0.064999998 3.3399999 1.705
-0.066 3.339 1.697
-0.075999998 3.313 1.7
-0.068000004 3.332 1.683
-0.07 3.3269999 1.676
-0.068999998 3.3299999 1.666
-0.068000004 3.3310001 1.6569999
-0.064000003 3.3399999 1.6440001
-0.067000002 3.3329999 1.6390001
-0.067000002 3.332 1.63
-0.067000002 3.332 1.622
-0.068000004 3.3310001 1.614
-0.064999998 3.3369999 1.603
-0.068000004 3.3280001 1.598
-0.068999998 3.325 1.59
-0.071000002 3.3210001 1.5829999
-0.063000001 3.3410001 1.567
-0.063000001 3.339 1.559
-0.066 3.332 1.553
-0.07 3.322 1.548
-0.068000004 3.3280001 1.538
-0.066 3.332 1.527
-0.071000002 3.319 1.524
-0.059999999 3.3440001 1.506
-0.067000002 3.329 1.503
-0.068999998 3.323 1.497
-0.063000001 3.3380001 1.483
-0.064999998 3.3310001 1.477
-0.064000003 3.332 1.4680001
-0.064999998 3.3310001 1.46
-0.067000002 3.3269999 1.4529999
-0.066 3.329 1.444
-0.066 3.326 1.436
-0.059999999 3.342 1.4220001
-0.059 3.3440001 1.413
-0.068999998 3.3199999 1.414
-0.066 3.326 1.403
-0.067000002 3.323 1.396
-0.063000001 3.3340001 1.383
-0.061000001 3.336 1.374
-0.061000001 3.3369999 1.3660001
-0.061999999 3.335 1.358
-0.061999999 3.3340001 1.35
-0.063000001 3.3299999 1.3430001
-0.061999999 3.332 1.334
-0.061000001 3.335 1.325
-0.059999999 3.336 1.316
-0.061000001 3.3340001 1.309
-0.063000001 3.329 1.302
-0.061999999 3.3310001 1.293
-0.059999999 3.336 1.283
-0.063000001 3.3269999 1.278
-0.066 3.3199999 1.272
-0.059 3.3380001 1.258
-0.063000001 3.3269999 1.253
-0.064999998 3.322 1.247
-0.059999999 3.3329999 1.235
-0.057999998 3.3380001 1.225
-0.059 3.336 1.2180001
-0.061000001 3.329 1.212
-0.066 3.3180001 1.207
-0.061000001 3.3299999 1.1950001
-0.057999998 3.336 1.1849999
-0.061000001 3.3280001 1.179
-0.054000001 3.346 1.166
-0.057999998 3.335 1.161
-0.061999999 3.326 1.156
-0.061000001 3.3280001 1.147
-0.067000002 3.313 1.1440001
-0.061999999 3.325 1.132
-0.059 3.332 1.122
-0.055 3.3410001 1.1109999
-0.067000002 3.3110001 1.112
-0.061000001 3.326 1.099
-0.061000001 3.3239999 1.092
-0.061000001 3.3239999 1.084
-0.067000002 3.3099999 1.08
-0.059999999 3.3269999 1.067
-0.064000003 3.316 1.062
-0.061000001 3.323 1.052
-0.057 3.3340001 1.041
-0.057999998 3.329 1.034
-0.059999999 3.326 1.027
-0.059999999 3.323 1.02
-0.061000001 3.3210001 1.012
-0.059999999 3.323 1.0039999
-0.061999999 3.319 0.99699998
-0.057999998 3.329 0.986
-0.061000001 3.319 0.98100001
-0.059999999 3.322 0.972
-0.061999999 3.3169999 0.96600002
-0.061000001 3.319 0.95700002
-0.068000004 3.3 0.954
-0.061999999 3.3169999 0.94199997
-0.063000001 3.313 0.935
-0.061000001 3.3169999 0.926
-0.059999999 3.319 0.91799998
-0.064999998 3.3069999 0.912
-0.078000002 3.273 0.91299999
-0.088 3.247 0.91100001
-0.083999999 3.2590001 0.89999998
-0.083999999 3.257 0.89200002
-0.078000002 3.273 0.88099998
-0.061000001 3.316 0.86299998
-0.054000001 3.3329999 0.85100001
-0.056000002 3.3280001 0.84500003
-0.059999999 3.3169999 0.83899999
-0.059999999 3.316 0.83200002
-0.064000003 3.3069999 0.82599998
-0.063000001 3.309 0.81699997
-0.059 3.3169999 0.80800003
-0.063000001 3.3080001 0.80199999
-0.064999998 3.303 0.79500002
-0.066 3.3 0.78799999
-0.064999998 3.302 0.77999997
-0.063000001 3.306 0.77100003
-0.061000001 3.312 0.76200002
-0.059 3.316 0.75300002
-0.059 3.316 0.74599999
-0.061999999 3.306 0.74000001
-0.059999999 3.3110001 0.73100001
-0.064999998 3.2980001 0.72600001
-0.061000001 3.3080001 0.71600002
-0.063000001 3.302 0.70899999
-0.061000001 3.3080001 0.70099998
-0.063000001 3.303 0.69400001
-0.064999998 3.2980001 0.68699998
-0.063000001 3.3 0.67900002
-0.064999998 3.2969999 0.671
-0.059 3.312 0.66100001
-0.061000001 3.306 0.65399998
-0.061999999 3.303 0.64700001
-0.064000003 3.2980001 0.63999999
-0.061999999 3.302 0.63200003
-0.059 3.309 0.62300003
-0.056000002 3.3169999 0.61400002
-0.068000004 3.2869999 0.611
-0.064999998 3.2939999 0.602
-0.059 3.309 0.59200001
-0.057 3.312 0.58399999
-0.064999998 3.293 0.579
-0.059999999 3.3039999 0.56999999
-0.059999999 3.3050001 0.56199998
-0.064000003 3.2939999 0.55599999
-0.063000001 3.296 0.54799998
-0.064000003 3.293 0.54000002
-0.061000001 3.3010001 0.53200001
-0.064999998 3.29 0.52499998
-0.061999999 3.299 0.51700002
-0.063000001 3.2939999 0.50999999
-0.055 3.3150001 0.49900001
-0.059 3.3039999 0.493
-0.057999998 3.3069999 0.48500001
-0.059999999 3.3010001 0.47799999
-0.064000003 3.289 0.472
-0.061000001 3.2980001 0.463
-0.061000001 3.2969999 0.45500001
-0.059999999 3.3010001 0.447
-0.064999998 3.2880001 0.44100001
-0.059999999 3.3 0.43200001
-0.064000003 3.289 0.426
-0.064000003 3.2880001 0.41800001
-0.059 3.3010001 0.40900001
-0.057999998 3.303 0.40099999
-0.066 3.2809999 0.396
-0.057999998 3.303 0.38600001
-0.057999998 3.3010001 0.37900001
-0.07 3.2720001 0.37400001
-0.064999998 3.2839999 0.36500001
-0.059999999 3.296 0.35600001
-0.057 3.3039999 0.34799999
-0.059999999 3.296 0.34099999
-0.061000001 3.2920001 0.33399999
-0.061999999 3.29 0.32600001
-0.061000001 3.2909999 0.31900001
-0.068999998 3.2690001 0.31299999
-0.061000001 3.2920001 0.303
-0.059999999 3.2920001 0.296
-0.059 3.2950001 0.28799999
