ply
format ascii 1.0
comment PCL generated
element vertex 737
property float x
property float y
property float z
element camera 1
property float view_px
property float view_py
property float view_pz
property float x_axisx
property float x_axisy
property float x_axisz
property float y_axisx
property float y_axisy
property float y_axisz
property float z_axisx
property float z_axisy
property float z_axisz
property float focal
property float scalex
property float scaley
property float centerx
property float centery
property int viewportx
property int viewporty
property float k1
property float k2
end_header
22.680754 2.6676381 0.032931034
22.74852 2.6663165 0.03676692
22.81999 2.6671767 0.037470594
22.673046 2.7386215 0.056409091
22.74897 2.7156072 0.082232162
22.830582 2.7187498 0.08208333
22.669998 2.8463638 0.053969704
22.882399 2.8852 0.055000003
22.938999 2.891 0.018999999
22.669079 2.9395897 0.042846147
22.719 2.9765 0.068000004
22.891926 2.9147692 0.065461539
22.925312 2.9261479 0.047765434
22.673185 3.0469773 0.052348834
22.71175 3.0650001 0.05875
22.662676 3.1489401 0.048940003
22.709999 3.1275001 0.050999999
22.87295 3.1441081 0.04928432
22.915623 3.1434481 0.053862069
22.666054 3.251158 0.047026314
22.843334 3.2446668 0.022333335
22.670719 3.3603885 0.058504142
22.749596 3.3693857 0.063281059
22.819849 3.3642309 0.063569248
22.676371 3.4090669 0.014766667
22.750704 3.4122171 0.017913043
22.816616 3.4158845 0.01642308
22.677637 2.7633793 0.14254025
22.749929 2.7580004 0.14319351
22.819239 2.7608101 0.14336509
22.665703 2.8470752 0.15615095
22.746525 2.808826 0.18726087
22.842869 2.8394666 0.17033334
22.666145 2.9568853 0.1468
22.711 2.95 0.103
22.882767 2.9248369 0.15453488
22.922005 2.9330261 0.14750001
22.666832 3.0542588 0.1503889
22.753 3.0420001 0.12899999
23.674431 3.069659 0.18095455
23.748829 3.0378752 0.14946882
22.664042 3.159157 0.1504118
22.7075 3.1789999 0.15899999
22.87188 3.1447372 0.14645451
22.914724 3.1434584 0.14870492
23.673857 3.1411564 0.17059034
23.747297 3.1614997 0.14717294
22.670158 3.2724569 0.16220982
22.749006 3.2803369 0.17489798
22.825531 3.2722349 0.16492157
23.898001 3.2019999 0.19499999
22.672859 3.3180983 0.12294115
22.749287 3.318965 0.12841381
22.815191 3.3263612 0.12408333
22.686001 2.7980001 0.204
22.675354 2.8546557 0.24584447
22.75008 2.8481112 0.24786539
22.817427 2.8539681 0.24820632
22.650158 2.9531333 0.24669513
22.739668 2.9053333 0.2856667
22.872356 2.9308434 0.25514463
22.919889 2.9351158 0.24811599
23.279501 2.9763334 0.29900002
23.32 2.983 0.29800001
23.864 2.994 0.249
22.042543 3.0318816 0.25607529
22.662956 3.0507178 0.25591305
22.708 3.0753334 0.24533334
23.58016 3.0687096 0.28100002
23.65041 3.045285 0.25043675
23.749056 3.0260293 0.24822304
23.844177 3.0274336 0.24501659
23.91412 3.0311174 0.22111765
21.950031 3.1444619 0.24888818
22.039038 3.1372392 0.25893846
22.104 3.1110001 0.29899999
22.67252 3.1636956 0.25993478
22.75046 3.1919188 0.28689191
22.864149 3.1521847 0.25271535
22.914219 3.14429 0.24714541
23.576553 3.1473756 0.27492499
23.647352 3.1627905 0.24808863
23.749146 3.1754043 0.24904427
23.84626 3.1757441 0.24490391
23.915251 3.1745999 0.21734999
22.679012 3.2310846 0.2378169
22.747379 3.2333126 0.23890781
22.818771 3.2310436 0.23813231
23.704 3.201 0.287
23.891001 3.201 0.20200001
22.675901 2.8943002 0.31119999
22.751625 2.8928335 0.30895835
22.809668 2.8940001 0.30966669
21.955347 2.993489 0.34525582
22.049801 2.9902902 0.34825811
22.152859 2.9802959 0.36477277
22.247053 2.9651277 0.35485458
22.348602 2.9494913 0.34728298
22.451542 2.9368541 0.33985454
22.550339 2.9275181 0.33709252
22.662954 2.9349527 0.34940627
22.748816 2.9291937 0.35485715
22.851582 2.9351251 0.35300636
22.937277 2.9372811 0.3413437
23.049 2.9413555 0.31813335
23.149696 2.9568849 0.31165388
23.244261 2.9656303 0.30671743
23.351717 2.9839787 0.30667391
23.424791 2.9915793 0.30673683
23.518999 2.9960001 0.308
23.628 2.9949999 0.32100001
21.948776 3.0122333 0.35178301
22.04952 3.0089715 0.34688237
22.133898 3.0350235 0.36240003
22.663187 3.0558305 0.34896606
23.299 3.0009999 0.31200001
23.386999 3.0063334 0.3046667
23.473589 3.045295 0.3491967
23.547327 3.0456238 0.34755293
23.648109 3.0283828 0.34827778
23.745483 3.0275207 0.34377682
23.818001 3.0398464 0.32276925
21.873304 3.1475368 0.33531708
21.949608 3.1514101 0.35132816
22.04987 3.1464005 0.34844759
22.13249 3.1391816 0.36126927
22.676796 3.153729 0.34935513
22.750366 3.1620262 0.35045061
22.850983 3.151406 0.34778193
22.91218 3.1517124 0.34896156
23.482525 3.1384773 0.38122734
23.54871 3.1660984 0.34943888
23.649538 3.1782227 0.35053426
23.747442 3.1759093 0.34671602
23.81818 3.1770005 0.31653571
23.58 3.2 0.36899999
22.666 2.898 0.45300001
21.970778 2.9943333 0.44544443
22.060598 2.9948499 0.44770002
22.138784 2.9933214 0.45799994
22.212145 2.9951429 0.47457147
22.673439 2.9407651 0.4500196
22.749859 2.9352057 0.44900584
22.849802 2.9393609 0.45048115
22.917065 2.9397652 0.45067185
21.96583 3.0261579 0.43838605
22.046236 3.0116882 0.44865984
22.151445 3.0136316 0.44773757
22.229124 3.0514143 0.46660343
22.659313 3.0506558 0.44674993
23.386311 3.0841875 0.48843747
23.452692 3.0535777 0.45599335
23.547777 3.0301201 0.44640011
23.649057 3.0279198 0.44410878
23.726534 3.0355339 0.42020002
21.966743 3.1560802 0.44076213
22.050888 3.1555219 0.45008078
22.149401 3.1487591 0.44761324
22.228327 3.1439877 0.46893761
22.673315 3.1487174 0.45233628
22.747948 3.1539237 0.45173466
22.847729 3.1522112 0.44936171
22.912346 3.154268 0.44489294
23.384731 3.1412728 0.48412114
23.449677 3.163692 0.44987726
23.548679 3.1804886 0.4475624
23.647308 3.1810546 0.4477852
23.719307 3.1818748 0.42162496
23.470501 3.2014999 0.456
23.575333 3.2036667 0.46566671
23.6455 3.2030001 0.44099998
23.708 3.2019999 0.41100001
22.050501 2.9933751 0.52312499
22.16592 2.99332 0.53311998
22.239857 2.9930952 0.55123812
22.673244 2.9398994 0.54716158
22.74868 2.9365211 0.54966891
22.850845 2.9429388 0.54808581
22.918282 2.9407358 0.54966038
21.996 3.0469999 0.51099998
22.059631 3.0247989 0.54302973
22.145943 3.0132148 0.55076534
22.248116 3.0184641 0.55270004
22.32078 3.052639 0.57519436
22.657509 3.0474119 0.54486275
22.707001 3.036 0.528
23.292667 3.0766668 0.59266675
23.357096 3.059653 0.55634725
23.450462 3.0332208 0.54987007
23.547815 3.0297761 0.54660136
23.625469 3.0322776 0.51972216
21.991001 3.1596668 0.50933337
22.059299 3.1575642 0.54352117
22.149778 3.1586311 0.54860002
22.250494 3.1522312 0.55101061
22.323463 3.1422536 0.57371444
22.6723 3.1556878 0.55115557
22.74906 3.1548529 0.54984772
22.850252 3.1527309 0.54988551
22.911938 3.1559582 0.54900002
23.288702 3.13905 0.58880007
23.352421 3.1628699 0.5538637
23.449083 3.1813953 0.54993594
23.547157 3.1825995 0.54811651
23.619328 3.1842 0.5226
23.354 3.2035 0.579
23.44725 3.2030001 0.56324995
23.546499 3.2018335 0.52200001
22.134666 2.9933336 0.63933337
22.261999 2.9934003 0.65440005
22.315001 2.9918752 0.63712502
22.672022 2.944932 0.65147573
22.748098 2.9371963 0.64884961
22.850504 2.9459331 0.64719635
22.917114 2.9430158 0.64508069
22.087202 3.0370002 0.61449999
22.152016 3.0245774 0.6445092
22.24996 3.0146308 0.65063643
22.345812 3.0257077 0.65526152
22.410145 3.0612142 0.68192875
22.502001 3.0409999 0.66799998
22.660307 3.0512862 0.64777553
23.193001 3.082 0.69400001
23.261435 3.0633247 0.65864938
23.349688 3.038543 0.64904863
23.447622 3.0311882 0.64868832
23.519625 3.0329146 0.62979996
22.088249 3.1690834 0.61316669
22.155005 3.1609733 0.64603269
22.249672 3.1629534 0.6498968
22.348925 3.1560154 0.65091878
22.415113 3.1441715 0.67971426
22.671244 3.155195 0.65082949
22.750046 3.1584618 0.6475544
22.849709 3.1563823 0.65129584
22.911949 3.156692 0.65132695
23.193079 3.1403081 0.69176936
23.25515 3.1615071 0.65357727
23.348644 3.1839621 0.64798313
23.448477 3.1825659 0.64965159
23.521526 3.1817451 0.62758183
23.216 3.201 0.67900002
23.362112 3.2042224 0.67088896
23.467335 3.2013335 0.62800002
22.195999 2.9920001 0.70700002
22.212999 2.9949999 0.72399998
22.671661 2.9432225 0.74978805
22.750177 2.9442565 0.75082767
22.850679 2.9486139 0.75020492
22.915644 2.9442506 0.74930364
22.182171 3.0369651 0.71793109
22.249723 3.0306773 0.74999392
22.348799 3.0291638 0.75057864
22.438993 3.0360689 0.75829452
22.507666 3.0700002 0.79466671
22.655745 3.0510466 0.74688363
23.098 3.095 0.79900002
23.163157 3.0659268 0.76250017
23.247351 3.0440366 0.74836046
23.348309 3.0324996 0.7484256
23.424072 3.03581 0.72971433
22.183794 3.1632648 0.71682358
22.25046 3.1677103 0.74844152
22.350037 3.1692016 0.74987936
22.444714 3.1561396 0.75459278
22.51025 3.1461873 0.78431249
22.669785 3.1579847 0.74919182
22.747526 3.1611414 0.74903029
22.848633 3.1583662 0.75065941
22.912642 3.1575339 0.75051117
23.097 3.154 0.79050004
23.156437 3.1642008 0.75608373
23.251574 3.1856046 0.74751645
23.347998 3.1844506 0.74802876
23.42721 3.1824651 0.72791535
22.267 3.2 0.77249998
22.299999 3.2 0.77999997
22.687 3.201 0.787
23.146336 3.2018335 0.796
23.231308 3.2055383 0.76092315
23.351364 3.2043638 0.75736362
23.420668 3.2030001 0.75666666
22.672382 2.9464645 0.84933335
22.748592 2.9454167 0.85019267
22.850626 2.9500692 0.8495158
22.916224 2.9507608 0.84815228
23.268 2.9990001 0.86199999
22.276667 3.040911 0.82397783
22.349199 3.0405731 0.849702
22.449692 3.0330689 0.85004407
22.536673 3.0407236 0.86474478
22.656878 3.0431497 0.85057497
22.701 3.0599999 0.82599998
23.069078 3.0719998 0.86190104
23.148556 3.0444124 0.84954369
23.248726 3.0364239 0.84964371
23.327082 3.0358872 0.82773578
22.278482 3.1666503 0.82565022
22.34729 3.1677203 0.85092992
22.447948 3.1681883 0.85039598
22.538715 3.1567678 0.8571806
22.667635 3.1620963 0.85011113
22.749794 3.1643949 0.84937054
22.849907 3.1608572 0.84904075
22.916649 3.1606228 0.84986651
23.059414 3.1604836 0.85676146
23.148235 3.1882627 0.84877574
23.250164 3.1879067 0.84816563
23.332338 3.1808555 0.83126497
22.271999 3.2 0.83399999
22.312 3.2014999 0.85750002
22.499001 3.2 0.85000002
23.074833 3.2044446 0.86750013
23.157152 3.2043941 0.85069704
23.241589 3.2038825 0.85429406
23.328375 3.2030001 0.83349997
22.670849 2.9544861 0.94907844
22.750225 2.9487362 0.94932342
22.850409 2.9537992 0.95010698
22.910334 2.9629259 0.93892592
22.371941 3.0484998 0.92981815
22.447779 3.0403211 0.95078284
22.548729 3.0336263 0.94916135
22.631523 3.0473373 0.95683748
22.968225 3.0721385 0.96375
23.048061 3.0501437 0.950176
23.147097 3.0335577 0.94836706
23.226675 3.0384574 0.93484735
22.373011 3.1718175 0.93118286
22.447287 3.1724896 0.95143205
22.551893 3.1719949 0.94938695
22.650724 3.1599514 0.95003462
22.749317 3.1690743 0.9490211
22.848122 3.1651816 0.95103079
22.954613 3.1609149 0.95437628
23.044249 3.185497 0.94398779
23.150553 3.1899149 0.94861203
23.234194 3.1852527 0.93100011
22.399 3.2049999 0.98299998
22.485001 3.2094998 0.949
22.697498 3.2045 0.954
22.993999 3.2055001 0.98250002
23.050756 3.2056732 0.95753062
23.137533 3.2052052 0.95112848
23.230717 3.2055714 0.9361428
22.672396 2.9538252 1.0483506
22.747576 2.9498627 1.0503374
22.849543 2.9537892 1.0493759
22.908373 2.9719999 1.0470625
22.467621 3.0497191 1.0375202
22.54917 3.0419686 1.0494496
22.630009 3.0362954 1.0507905
22.962444 3.0464408 1.0481694
23.048206 3.037725 1.0487187
23.130831 3.0328462 1.0313691
22.464302 3.1738555 1.0359389
22.547581 3.1791196 1.0502449
22.648479 3.1735206 1.0503095
22.748281 3.1680746 1.0505475
22.848181 3.1705475 1.049915
22.946095 3.1866901 1.0444869
23.053259 3.1905909 1.047511
23.135002 3.1862597 1.0341729
22.479 3.2090001 1.0649999
22.563 3.2005 1.056
22.610001 3.201 1.08
22.718 3.201 1.0549999
22.8731 3.2031002 1.0817001
22.956699 3.2052262 1.0624905
23.042042 3.205231 1.0556349
23.125412 3.202647 1.0355295
22.672243 2.956284 1.1487795
22.751303 2.9535344 1.1478139
22.851391 2.9570067 1.1480446
22.903999 2.9618335 1.1516666
22.494999 3.0619998 1.1055
22.558439 3.0532417 1.1413047
22.632132 3.040869 1.1494347
22.957598 3.0345635 1.1496135
23.029871 3.0391197 1.1350132
22.488333 3.1636667 1.1083333
22.560284 3.1776626 1.1409171
22.650805 3.1852288 1.1494683
22.748613 3.1782613 1.1469609
22.846109 3.186852 1.1450176
22.953142 3.1927373 1.1496947
23.040751 3.1882336 1.1354676
23.106001 3.1856668 1.1036667
22.549751 3.2030001 1.135875
22.649376 3.2046254 1.1429999
22.778286 3.2067621 1.1711905
22.855347 3.2078862 1.1548865
22.947075 3.206882 1.1456823
23.027515 3.2049708 1.1394856
22.670443 2.9592226 1.2493159
22.749994 2.9560008 1.2483828
22.849426 2.9602835 1.2489738
22.911503 2.9683335 1.2618334
22.587332 3.0688334 1.2136667
22.640732 3.0529432 1.2410226
22.701 3.0039999 1.291
22.944265 3.0331433 1.2281607
22.589214 3.1657145 1.2114999
22.650541 3.1795943 1.2470878
22.745953 3.1887732 1.2490726
22.846872 3.1934004 1.2470182
22.946787 3.1920648 1.2367564
23.004202 3.1920002 1.2076
22.591999 3.2 1.217
22.666487 3.2107711 1.2433714
22.749102 3.2149277 1.2439998
22.850138 3.2131085 1.2481896
22.929508 3.2058487 1.2427925
22.669971 2.9608645 1.3497186
22.748175 2.9584575 1.3501588
22.849316 2.9625814 1.3476627
22.908203 2.961267 1.3531333
22.656725 3.0503082 1.3549999
22.661684 3.1728756 1.3502985
22.742798 3.1895652 1.3462739
22.85737 3.1896179 1.3574091
22.908148 3.1815004 1.3495002
22.664335 3.2032919 1.3444583
22.756556 3.2044477 1.3539252
22.836792 3.2058306 1.3390001
22.903 3.204 1.337
22.670462 2.9669025 1.450357
22.749832 2.9608529 1.4503074
22.84824 2.9641542 1.4516665
22.907551 2.9670684 1.4453104
22.655228 3.0472827 1.4453018
22.893 3 1.4579999
22.662409 3.1694262 1.4463216
22.751589 3.18981 1.4473907
22.852068 3.1848803 1.4516518
22.907192 3.1823807 1.4532857
22.672585 3.2040284 1.4566667
22.747997 3.2060525 1.449703
22.837265 3.2040527 1.4427894
22.910666 3.2076669 1.4809999
22.670477 2.9666893 1.5489246
22.750196 2.9627268 1.5505913
22.850199 2.9661074 1.5500065
22.905647 2.9628234 1.5487646
22.651178 3.0475409 1.5520983
22.83 3.0009999 1.5420001
22.661469 3.1681538 1.5479194
22.752361 3.1904287 1.5486493
22.85504 3.1885493 1.5487107
22.905655 3.1864233 1.5507693
22.670736 3.2065096 1.551816
22.743256 3.2066135 1.5501682
22.819874 3.2041543 1.5500256
22.909801 3.2119999 1.5427999
22.668739 2.9686484 1.6489105
22.750116 2.9638019 1.6491141
22.850285 2.9659047 1.6485603
22.904999 2.9623332 1.6372499
22.653561 3.0459397 1.6512998
22.9195 3.0105 1.6595
22.658545 3.1622376 1.6502934
22.752424 3.1924005 1.6412401
22.854368 3.1895998 1.649829
22.904158 3.191 1.6443077
22.671545 3.2070525 1.6505436
22.747982 3.2068183 1.6548002
22.840862 3.2043335 1.6514446
22.9088 3.2096002 1.6525999
22.669357 2.9673293 1.7476701
22.746403 2.9664083 1.7501811
22.848434 2.9691253 1.7494371
22.902889 2.966778 1.7396667
22.650053 3.0471971 1.7507539
22.790001 3.003 1.752
22.8435 3.0044999 1.7315
22.912001 3.006 1.796
22.657099 3.1604459 1.7461774
22.750692 3.192565 1.7430216
22.855551 3.1906641 1.7476183
22.903902 3.1923001 1.7374003
22.669477 3.2084343 1.7536447
22.750801 3.2085042 1.7507719
22.841537 3.2058337 1.7568483
22.9158 3.2120004 1.7625999
22.66654 2.9720533 1.8509911
22.750113 2.9702229 1.8502039
22.850149 2.9722481 1.848503
22.903 2.9796667 1.8473333
22.650221 3.0527322 1.849679
22.748333 3.0016668 1.8846668
22.877001 3.0090001 1.8380001
22.649343 3.1574581 1.8486506
22.749413 3.1944609 1.8403076
22.85693 3.1917925 1.8461388
22.902 3.1902857 1.8321429
22.669798 3.211 1.8528652
22.747318 3.2114668 1.852175
22.842047 3.2077453 1.8516079
22.9035 3.2114999 1.86625
22.66741 2.9719687 1.9503398
22.749372 2.9730072 1.9499733
22.849934 2.9736054 1.9481272
22.9025 2.9779999 1.9284999
22.650299 3.0521696 1.9505661
22.705999 3.0009999 1.919
22.834 3.0009999 1.9
22.909 3.017 1.923
22.648718 3.1566613 1.9462585
22.741501 3.1977496 1.94075
22.859148 3.1937644 1.9444702
22.665648 3.2135751 1.9514744
22.750666 3.214164 1.9494116
22.849043 3.2101004 1.9487844
22.903 3.2190001 1.9299999
22.666964 2.9756014 2.0479083
22.748177 2.9750545 2.0493531
22.849762 2.9766037 2.0471609
22.900499 2.9885001 2.0805001
22.650656 3.0492132 2.048475
22.782249 3.0022502 2.0365
22.872 3.0040002 2.0585001
22.650316 3.1610463 2.05
22.757999 3.198 2.082
22.852383 3.1950767 2.046154
22.900499 3.1900001 2.0479999
22.666903 3.2153783 2.0497746
22.748951 3.2172735 2.0497096
22.847345 3.211679 2.0493565
22.9 3.2112501 2.03825
22.668922 2.9780397 2.1496437
22.750271 2.9765062 2.1476786
22.847412 2.9788523 2.1508138
22.650814 3.0501478 2.1526477
22.752003 3.0038571 2.1589999
22.873287 3.0066435 2.1515713
22.648224 3.1479361 2.1512702
22.863419 3.1947498 2.1512501
22.667805 3.2204087 2.1518452
22.748833 3.2229445 2.1496344
22.848005 3.2146578 2.1482506
22.667725 2.9824734 2.2511072
22.74819 2.9795582 2.2489333
22.846586 2.9800656 2.2484789
22.635477 3.0513189 2.249608
22.755201 3.0042002 2.2484999
22.860733 3.0070002 2.2561336
22.900999 3.0220001 2.2060001
22.635864 3.1417108 2.2472653
22.8435 3.1925001 2.2024999
22.669374 3.2271965 2.2521958
22.75156 3.226306 2.248651
22.849169 3.2178776 2.2481296
22.655447 2.9599488 2.3542068
22.747719 2.9637027 2.3530891
22.845695 2.981966 2.3491781
22.579777 3.0494628 2.372889
22.628345 3.0478444 2.3513634
22.763002 3.0032856 2.3108573
22.873539 3.0084615 2.335
22.583 3.102 2.3729999
22.636282 3.1544397 2.3462601
22.895 3.197 2.381
22.658102 3.2513857 2.3537903
22.745554 3.2479198 2.3529088
22.846872 3.2217152 2.348722
22.695999 3.3039999 2.3900001
22.713499 3.3115001 2.3859999
22.653 2.796 2.487
22.656841 2.8663712 2.459909
22.741976 2.8623409 2.4644415
22.647081 2.9337888 2.4334002
22.755598 2.9251497 2.4217503
22.847782 2.9832971 2.4477036
22.575001 3.0495 2.4005001
22.636383 3.0476604 2.4497597
22.857458 3.0050001 2.4541817
22.901001 3.0209999 2.4710002
22.586 3.1922498 2.4429998
22.64237 3.1578829 2.4465816
22.896999 3.1889999 2.4419999
22.593199 3.2185998 2.4386003
22.637251 3.2494252 2.4369543
22.776779 3.2523518 2.4370558
22.846889 3.2247288 2.4487493
22.656019 3.3447328 2.4549713
22.738365 3.3456938 2.4524565
22.6635 3.405 2.4974999
22.746502 3.4071004 2.4930999
22.657455 2.7661526 2.5685344
22.745058 2.7698987 2.5706568
22.801001 2.779 2.585
22.647532 2.8324587 2.5340836
22.749132 2.8199747 2.5288293
22.803001 2.8579998 2.5875001
22.634399 2.9512446 2.5454447
22.846392 2.9789994 2.5454237
22.644773 3.0431287 2.5465486
22.876156 3.0084617 2.5544617
22.648947 3.1468158 2.5503426
22.705 3.1170001 2.5225
22.893999 3.1820002 2.5845001
22.643024 3.2474358 2.5519481
22.791445 3.2347407 2.547148
22.846422 3.2279048 2.5495877
22.636061 3.3648975 2.5400257
22.750076 3.3644078 2.5251849
22.656313 3.442843 2.5549524
22.738459 3.4466667 2.5537117
22.668999 3.5009999 2.5949998
22.76 3.5113335 2.5970001
22.656128 2.6703146 2.6712286
22.744667 2.6766088 2.6741745
22.648315 2.7355938 2.6366091
22.745447 2.726486 2.6281776
22.8015 2.7515001 2.6719999
22.635933 2.8531556 2.6476219
22.804668 2.816 2.6306667
22.64456 2.9578528 2.6446762
22.702999 2.9990001 2.6559999
22.853891 2.9833739 2.6443732
22.644779 3.0448887 2.6497223
22.75 3.0020001 2.688
22.8848 3.0130002 2.6531
22.902 3.0539999 2.608
22.642899 3.1452446 2.6494288
22.892 3.1820002 2.648
22.647354 3.2406178 2.6418233
22.783463 3.2355831 2.6524584
22.843937 3.2298193 2.6497972
22.643934 3.3549569 2.646565
22.7805 3.3458333 2.6492503
22.639853 3.4668863 2.631531
22.743298 3.4820337 2.6266
22.653425 3.5411217 2.6582184
22.735792 3.5445364 2.6542921
22.677999 3.6029999 2.6860001
22.764334 3.6066666 2.6936669
22.660414 2.578805 2.776634
22.743876 2.5792975 2.7784595
22.651165 2.6331294 2.736532
22.747929 2.6301906 2.7329538
22.807461 2.65625 2.7662504
22.630453 2.7493868 2.7481818
22.810833 2.7245834 2.7245004
22.636896 2.8606207 2.7478278
22.738998 2.8509998 2.7735
22.801001 2.8859999 2.727
22.635458 2.9609091 2.7339091
22.731001 2.9453335 2.7103336
22.853853 2.9846764 2.7425585
22.640919 3.0493469 2.7515309
22.727333 3.0010002 2.7580001
22.880535 3.0178216 2.7490716
22.905001 3.0929999 2.7550001
22.641872 3.1535788 2.7476051
22.889999 3.1849999 2.7309999
22.635111 3.2335715 2.747607
22.784842 3.2381203 2.7511606
22.843224 3.2333956 2.7490485
22.655388 3.3776155 2.7282307
22.762201 3.3407998 2.7334001
22.642313 3.4496572 2.7473156
22.775999 3.4842501 2.7114999
22.639534 3.5668316 2.7351677
22.75227 3.5727277 2.7330227
22.657549 3.6385622 2.7561703
22.734865 3.6413677 2.7540669
22.804001 3.6370001 2.7349999
22.665335 3.7070003 2.7936666
22.739334 3.7020001 2.79
22.66502 2.4863834 2.8793833
22.746206 2.4878492 2.8830004
22.652706 2.5383201 2.8400414
22.747126 2.5364354 2.838006
22.807779 2.5698333 2.8712223
22.630957 2.641067 2.8459337
22.814825 2.628294 2.8387647
22.633223 2.7436669 2.8451109
22.738501 2.7610002 2.8765001
22.827 2.704 2.803
22.636572 2.8540003 2.8107142
22.764 2.8150001 2.812
22.633554 2.9835556 2.8473332
22.743 2.994 2.8410001
22.856182 2.9890003 2.8218184
22.637087 3.0445359 2.8512504
22.761999 3.0065002 2.8444998
22.879845 3.0234735 2.852
22.9 3.059 2.803
22.642477 3.1559346 2.8502824
22.886999 3.198 2.869
22.648798 3.22528 2.8527598
22.787001 3.2428846 2.8453462
22.843813 3.2353644 2.8515971
22.902 3.237 2.8329999
22.653851 3.47225 2.8279998
22.733665 3.4363334 2.8370004
22.643301 3.5453718 2.8530698
22.780447 3.5621109 2.857444
22.635759 3.6634538 2.8346741
22.747463 3.6703999 2.8219595
22.660019 3.7426074 2.857089
22.734776 3.740339 2.8568943
22.650002 3.8004999 2.8940001
22.733 3.802 2.8929999
22.663038 2.3868001 2.9886
22.73558 2.3901539 2.9868848
22.654772 2.4396257 2.9453752
22.747007 2.4415934 2.9427862
22.807249 2.4658751 2.9809999
22.629887 2.5461338 2.9517112
22.7565 2.5044999 2.924
22.809702 2.5239999 2.9343002
22.634331 2.6484845 2.9457273
22.728001 2.677 2.9654999
22.629457 2.7292728 2.9298186
22.633888 2.9942222 2.9427776
22.844 2.9984999 2.9605
22.637415 3.0411422 2.9512229
22.758398 3.0067999 2.9486003
22.8925 3.0644999 2.9264998
22.633717 3.1575713 2.9521668
22.893501 3.1595001 2.9435
22.639599 3.2260399 2.9555199
22.786041 3.2475832 2.9528751
22.841774 3.2388999 2.9502182
22.656904 3.5647185 2.9364686
22.768333 3.5623336 2.9449997
22.802999 3.506 2.904
22.638702 3.6493192 2.9517019
22.776636 3.6735456 2.9350004
22.637545 3.7628803 2.9337068
22.744276 3.7728598 2.9283156
22.656891 3.8400865 2.9593432
22.735624 3.8410578 2.958185
22.690001 3.9059999 2.9990001
22.714001 3.9029999 2.993
0 0 0 1 0 0 0 1 0 0 0 1 0 0 0 0 0 737 1 0 0
