ply
format ascii 1.0
comment PCL generated
element vertex 755
property float x
property float y
property float z
element camera 1
property float view_px
property float view_py
property float view_pz
property float x_axisx
property float x_axisy
property float x_axisz
property float y_axisx
property float y_axisy
property float y_axisz
property float z_axisx
property float z_axisy
property float z_axisz
property float focal
property float scalex
property float scaley
property float centerx
property float centery
property int viewportx
property int viewporty
property float k1
property float k2
end_header
-27.608999 9.2810001 0.050999999
-27.551001 9.2876663 0.023666669
-27.613668 9.3210011 0.026000001
-27.517321 9.3280897 0.058863632
-27.490749 9.3762503 0.084250003
-27.798 9.4779997 0.052000001
-27.76 9.5636425 0.041357145
-27.948801 9.688201 0.057399999
-27.8403 9.6801491 0.048649993
-27.755432 9.6340351 0.051566672
-27.933577 9.7477083 0.040903226
-27.887377 9.7488747 0.063625
-27.851566 9.8460255 0.050102565
-27.792 9.8945007 0.082000002
-27.816223 9.9193335 0.027555555
-27.765184 9.9540281 0.058736846
-27.763 10.016 0.014
-27.677502 10.06925 0.071500003
-27.552168 10.246 0.044166669
-27.526073 9.3381796 0.15135716
-27.496168 9.3806667 0.13666667
-27.78825 9.46175 0.1715
-27.551334 9.4226675 0.15824999
-27.735168 9.5723333 0.15433334
-27.695 9.5979996 0.147
-27.939001 9.6716671 0.148
-27.838572 9.6793585 0.13821431
-27.755539 9.6381531 0.13469231
-27.920359 9.7230721 0.13550001
-27.875362 9.763773 0.15922728
-27.833586 9.8330688 0.13948277
-27.785835 9.8741693 0.1565
-27.741808 9.943512 0.14729732
-27.692335 9.9803333 0.17200002
-27.712999 10.015 0.103
-27.643 10.055201 0.177
-27.563 10.135 0.199
-27.608999 9.3000002 0.25099999
-27.529783 9.351758 0.24462165
-27.7418 9.4699011 0.25264999
-27.691 9.4540005 0.29699999
-27.552351 9.4251013 0.24544998
-27.716091 9.5447254 0.25145453
-27.686899 9.5636005 0.28049999
-27.904499 9.6744995 0.21799999
-27.856201 9.6738997 0.25
-27.761288 9.6347151 0.24178572
-27.693001 9.6049995 0.28600001
-27.844143 9.7577858 0.23407143
-27.816999 9.8095007 0.23033333
-27.761259 9.8612289 0.25131431
-27.718557 9.9310551 0.23272224
-27.683241 9.9638004 0.25384003
-27.634502 10.032 0.25766671
-27.5385 10.1555 0.25749999
-27.193001 10.1765 0.25599998
-27.521002 10.22 0.24266669
-27.462002 10.259001 0.27366668
-27.127354 10.254354 0.24764512
-27.113001 10.3076 0.23099999
-27.080002 10.350486 0.24816217
-27.090668 10.4 0.23566668
-27.61375 9.3385 0.35099998
-27.537912 9.3570938 0.35179546
-27.721224 9.4733334 0.34099999
-27.669102 9.4667997 0.36400002
-27.549826 9.4305649 0.35208693
-27.5 9.4130001 0.322
-27.9797 9.5192003 0.34720001
-27.708553 9.52211 0.32644445
-27.675209 9.5601053 0.35718748
-27.836603 9.6805992 0.3506
-27.750425 9.6339598 0.35342309
-27.695402 9.6099997 0.36579999
-27.820335 9.7313337 0.34
-27.773859 9.768857 0.35414287
-27.724215 9.8563576 0.33214289
-27.685333 9.8813343 0.35999998
-27.702 9.9139996 0.30899999
-27.652945 9.9497633 0.34717643
-27.617554 10.008333 0.34055555
-27.563999 10.0835 0.3265
-27.519001 10.129999 0.32550001
-27.493 10.1825 0.36900002
-27.437601 10.2506 0.36400002
-27.087278 10.267001 0.35266671
-27.377001 10.314 0.39399999
-27.618874 9.3341246 0.45837498
-27.550213 9.3623419 0.44868416
-27.714001 9.4890003 0.403
-27.66819 9.4742374 0.45038098
-27.541637 9.424839 0.45419994
-27.661766 9.548768 0.44647688
-27.818054 9.6768417 0.44452631
-27.752052 9.6358929 0.45067567
-27.690748 9.6104994 0.4585
-27.806999 9.7084999 0.45950001
-27.76207 9.7492504 0.46103576
-27.708601 9.8426008 0.42480001
-27.669498 9.8610001 0.45924997
-27.643911 9.9402733 0.43272731
-27.5965 9.9594994 0.45499998
-27.609501 10.005 0.41350001
-27.593002 10.003 0.44500002
-27.509001 10.126 0.42000002
-27.465 10.166 0.456
-27.428001 10.2455 0.45450002
-27.141199 10.220401 0.43139997
-27.351667 10.308668 0.46933335
-27.614002 9.3486671 0.56733334
-27.561739 9.3661842 0.54742104
-27.652222 9.4791117 0.54922223
-27.548519 9.4314795 0.55220002
-27.646627 9.5542269 0.54608059
-27.803335 9.658 0.53266668
-27.757986 9.6460428 0.55015689
-27.677799 9.6098013 0.5632
-27.739985 9.7434988 0.54790741
-27.6915 9.7799997 0.58700001
-27.705334 9.8150005 0.51566672
-27.657066 9.8459997 0.55596548
-27.616001 9.9186001 0.54080003
-27.580002 9.9470835 0.55350006
-27.507 10.027 0.55400002
-27.497 10.07 0.55500001
-27.450834 10.1505 0.54649997
-27.106001 10.154 0.53399998
-27.079334 10.176666 0.54866672
-27.415001 10.205 0.51300001
-27.369335 10.267334 0.55033338
-27.105999 10.213 0.53649998
-27.344 10.306 0.52433336
-27.643145 9.3351431 0.64985716
-27.567795 9.3740673 0.65000004
-27.627071 9.4855709 0.64914292
-27.557388 9.4353333 0.65125018
-27.908001 9.5109997 0.616
-27.888 9.5 0.64099997
-27.635847 9.5541706 0.64785105
-27.589001 9.5279999 0.67400002
-27.746626 9.6535101 0.64627451
-27.666334 9.6090002 0.65166664
-27.720444 9.730587 0.64482349
-27.674665 9.7780943 0.66142857
-27.631611 9.8464108 0.64274359
-27.589001 9.8827152 0.66085714
-27.560791 9.9427395 0.65171039
-27.510334 10.016666 0.63700002
-27.470888 10.060556 0.6531111
-27.419001 10.145 0.64824998
-27.383499 10.188999 0.65799999
-27.128 10.119 0.61699998
-27.331501 10.25675 0.65600002
-27.617777 9.3615561 0.7486667
-27.577044 9.3833189 0.74740916
-27.607 9.4866667 0.73716676
-27.569744 9.4480696 0.75002342
-27.705999 9.599 0.755
-27.648741 9.5696955 0.74295658
-27.586061 9.525094 0.75840634
-27.730556 9.6552334 0.74539536
-27.675573 9.6197147 0.75957149
-27.713448 9.7075558 0.73155552
-27.665487 9.7517681 0.75170213
-27.617476 9.8282957 0.73276478
-27.577419 9.864872 0.75264508
-27.533308 9.9395018 0.74169451
-27.488102 9.9723997 0.77109998
-27.504999 10.02 0.71700001
-27.461849 10.033384 0.74192309
-27.421501 10.129 0.72599995
-27.37925 10.1565 0.75099999
-27.317501 10.25 0.74249995
-27.622774 9.3726931 0.84638464
-27.584469 9.3870668 0.84280008
-27.733 9.4110003 0.84299999
-27.610001 9.4320002 0.84399998
-27.569681 9.4522762 0.84980851
-27.704 9.5930004 0.87400001
-27.643929 9.5690002 0.84774083
-27.569677 9.5245905 0.85479403
-27.717335 9.6451101 0.84181476
-27.68384 9.656806 0.8602581
-27.640041 9.742856 0.84557152
-27.588749 9.7930002 0.87625003
-27.6045 9.8140001 0.82050002
-27.55711 9.8531904 0.84929723
-27.517572 9.9167843 0.83407146
-27.470911 9.9615126 0.85481817
-27.432936 10.030334 0.83493346
-27.396 10.067 0.85699999
-27.357431 10.137571 0.83928579
-27.32 10.219 0.83000004
-27.616364 9.3772726 0.95009089
-27.58717 9.3908329 0.95291662
-27.556995 9.4498262 0.9476732
-27.705 9.5932503 0.93400002
-27.644566 9.5689383 0.95062488
-27.560167 9.522933 0.95150012
-27.704666 9.6306667 0.92000002
-27.660307 9.6550636 0.95328563
-27.62324 9.7270002 0.9421199
-27.578295 9.7623825 0.95750004
-27.532059 9.8403931 0.95003039
-27.486374 9.8817501 0.962125
-27.4512 9.9458914 0.94902235
-27.389 9.9919996 0.99299997
-27.419203 10.0116 0.94
-27.375835 10.040668 0.95083332
-27.3262 10.1236 0.94659996
-27.568731 9.3778076 1.0515386
-27.783667 9.4438343 1.0545001
-27.531889 9.4485979 1.0487309
-27.63975 9.5709066 1.0512186
-27.550896 9.5215521 1.0482068
-27.635134 9.6493702 1.0483501
-27.591002 9.6823997 1.0836
-27.608999 9.7136669 1.029
-27.558119 9.7486601 1.0508137
-27.495001 9.7910004 1.096
-27.517897 9.8186321 1.0422105
-27.474331 9.8576984 1.0546365
-27.435339 9.936842 1.045
-27.386869 9.9774666 1.0699334
-27.408001 10.008 1.038
-27.3575 10.0365 1.051375
-27.325001 10.111 1.006
-27.546677 9.3647947 1.1531764
-27.77623 9.4243078 1.1523077
-27.516943 9.4365559 1.1377779
-27.492315 9.4656849 1.1678419
-27.630369 9.5703335 1.1448666
-27.550121 9.5220795 1.14688
-27.499001 9.5089998 1.1900001
-27.626251 9.6228733 1.1408439
-27.578344 9.6749229 1.1580789
-27.529947 9.7441607 1.1463035
-27.49091 9.7807274 1.1710911
-27.514 9.8070002 1.131
-27.45344 9.8482895 1.1528267
-27.415541 9.9206161 1.1317693
-27.365852 9.9622622 1.1565589
-27.329214 10.029572 1.1454285
-27.246 10.1465 1.1475
-27.52697 9.3544693 1.2463001
-27.493181 9.377182 1.2751818
-27.745899 9.4196005 1.2541001
-27.509666 9.4261665 1.237
-27.481264 9.4510889 1.253
-27.616863 9.5718269 1.2439311
-27.561411 9.5314131 1.2507241
-27.493999 9.5100002 1.26
-27.606779 9.6235552 1.2228888
-27.563154 9.656105 1.2492456
-27.515717 9.7218571 1.2451428
-27.478317 9.7624254 1.2548935
-27.429476 9.8415222 1.2458572
-27.386801 9.879899 1.2651
-27.403 9.9090004 1.204
-27.345568 9.9486341 1.2499183
-27.298 9.9949999 1.274
-27.310717 10.012286 1.230143
-27.28875 10.03925 1.248875
-27.509876 9.3326244 1.3397501
-27.480528 9.3671455 1.3586471
-27.722 9.4084005 1.3380001
-27.696499 9.4160004 1.3815
-27.46044 9.4486589 1.3527023
-27.605001 9.5654001 1.3232001
-27.566864 9.5515499 1.354255
-27.5397 9.6456699 1.3421168
-27.488251 9.6872501 1.37025
-27.512499 9.7080002 1.3297499
-27.45829 9.7467623 1.3505243
-27.416191 9.8176203 1.3471429
-27.375818 9.8624859 1.3535455
-27.326 9.9366961 1.3455153
-27.285063 9.97925 1.3628124
-27.313 10.007 1.309
-27.260218 10.029286 1.3448571
-27.219 10.1 1.3200001
-27.182999 10.144501 1.3475001
-27.509001 9.276 1.4450001
-27.466 9.2989998 1.467
-27.685001 9.3892498 1.45925
-27.5172 9.3102007 1.4236001
-27.461405 9.3523607 1.4537872
-27.674667 9.4053335 1.4450001
-27.51 9.4940004 1.493
-27.444223 9.4478455 1.4517109
-27.555536 9.5517502 1.4475961
-27.522572 9.634799 1.4404749
-27.481998 9.6753988 1.4519502
-27.441324 9.7405968 1.4457742
-27.386 9.79175 1.4740001
-27.410999 9.8125 1.4295
-27.356831 9.8481102 1.4527924
-27.294001 9.8970003 1.499
-27.315573 9.9210005 1.441643
-27.26923 9.964056 1.4537144
-26.978001 9.9870005 1.47
-27.231928 10.024714 1.4423572
-27.181499 10.064 1.473
-26.916 10.0506 1.4651999
-26.879557 10.069556 1.4522222
-27.1675 10.1375 1.4625001
-26.833 10.15447 1.4561112
-27.513 9.2860003 1.534
-27.460222 9.2888889 1.572
-27.669788 9.3689299 1.5528572
-27.439253 9.3508539 1.5472546
-27.389 9.3809996 1.58
-27.507 9.4953337 1.5636667
-27.441 9.4545584 1.5473824
-27.393717 9.4231434 1.5730001
-27.537504 9.5566206 1.5460345
-27.489 9.5979996 1.5549999
-27.50931 9.6173067 1.5352309
-27.463499 9.6606159 1.5494809
-27.421944 9.7275696 1.5433142
-27.377401 9.7705326 1.5553668
-27.334173 9.8418531 1.5454879
-27.28878 9.8885546 1.5653334
-27.302 9.9040003 1.511
-27.249146 9.9551258 1.548146
-26.903999 9.9969997 1.569
-27.212334 10.019167 1.5371666
-27.188499 10.0505 1.5664999
-26.924252 10.022249 1.5597501
-26.859291 10.061209 1.558125
-27.138 10.121 1.548
-26.820038 10.14932 1.55276
-26.7922 10.164101 1.5633
-26.868 10.230159 1.5525789
-27.43989 9.2846117 1.6574445
-27.670612 9.3456659 1.6451669
-27.571669 9.3509998 1.669
-27.419638 9.3359108 1.6434242
-27.392164 9.369833 1.6615556
-27.510666 9.4963341 1.671
-27.448044 9.4672508 1.6430418
-27.381945 9.4171581 1.6608946
-27.525122 9.5400286 1.6436176
-27.484165 9.5773888 1.6638334
-27.502001 9.6005001 1.619
-27.443752 9.6457539 1.6474305
-27.394598 9.6820002 1.6695999
-27.406998 9.7115011 1.6347001
-27.361111 9.7528582 1.6538928
-27.320583 9.8303156 1.6390001
-27.2759 9.8684158 1.651655
-27.231152 9.9406939 1.6473333
-27.191833 9.9798336 1.6618333
-26.866001 9.9904995 1.6849999
-27.173084 10.018001 1.63275
-26.933002 10.022667 1.6733334
-26.850225 10.039577 1.647275
-26.7925 10.091 1.6695
-27.115 10.1085 1.6335
-26.813667 10.136777 1.639222
-26.782288 10.144762 1.6507142
-26.862242 10.226427 1.6516665
-27.42074 9.2773037 1.7528259
-27.391998 9.2924995 1.778
-27.655119 9.3325891 1.7427646
-27.52 9.3210001 1.7275
-27.420771 9.3161545 1.7356923
-27.375172 9.3540754 1.7538748
-27.503668 9.4973335 1.7413334
-27.457251 9.4711246 1.7482084
-27.377176 9.4169416 1.752
-27.512197 9.5267 1.7373999
-27.47386 9.5612364 1.7551664
-27.425285 9.6289787 1.7466191
-27.383772 9.6756659 1.7558335
-27.342205 9.7433758 1.746889
-27.294365 9.7872734 1.7734547
-27.317669 9.8129997 1.7186668
-27.260658 9.8525829 1.7494628
-27.218859 9.9209528 1.7442384
-27.175102 9.9635725 1.7532145
-26.867332 9.9770002 1.7725
-27.1534 10.026401 1.7404
-26.9175 10.0275 1.7260001
-26.835997 10.023127 1.744525
-26.786692 10.073386 1.7563078
-27.105 10.1055 1.7485
-26.817446 10.169555 1.7411112
-26.766293 10.133375 1.7412915
-26.87178 10.235555 1.7445924
-27.421249 9.2786674 1.8370003
-27.380867 9.2707386 1.8573475
-27.627365 9.32691 1.8403636
-27.593 9.3440008 1.8566666
-27.443501 9.302 1.816
-27.354742 9.344676 1.8501863
-27.507 9.4980001 1.814
-27.455143 9.4707146 1.8527622
-27.369114 9.4163332 1.8426666
-27.5035 9.5159998 1.822
-27.447704 9.5527039 1.8546484
-27.399 9.592 1.853
-27.408562 9.6143122 1.844375
-27.365059 9.6616488 1.8516299
-27.320892 9.7302237 1.8405926
-27.277435 9.776042 1.8579568
-27.236586 9.8458052 1.8462684
-27.190601 9.8838005 1.8714001
-27.2068 9.9074001 1.8449999
-27.162949 9.9431858 1.8494999
-26.910999 9.9709997 1.85
-26.834684 9.98209 1.8512728
-26.799999 9.9879999 1.892
-27.142 10.064 1.837
-27.071333 10.064334 1.8713334
-26.819599 10.013068 1.8409333
-26.777449 10.055379 1.8444139
-26.829603 10.179999 1.8299999
-26.754078 10.134462 1.8325385
-26.917475 10.267811 1.8424286
-26.878824 10.252357 1.8466429
-26.906834 10.319167 1.8396667
-27.596001 9.29 1.988
-27.418667 9.2646666 1.9216666
-27.36517 9.2684584 1.9456855
-27.608751 9.3202505 1.925
-27.59186 9.3360014 1.9557145
-27.332979 9.3440371 1.9445555
-27.296 9.3579998 1.9859999
-27.441334 9.4627142 1.9497143
-27.361 9.415143 1.9497143
-27.435064 9.5362501 1.9499321
-27.387354 9.5805893 1.9588234
-27.412001 9.6009998 1.92
-27.349169 9.6467676 1.94785
-27.293667 9.6920004 1.9830002
-27.310747 9.7168751 1.9233751
-27.267332 9.7564363 1.9513592
-27.222307 9.8253851 1.9408845
-27.177002 9.8699989 1.9567823
-27.136703 9.9312668 1.9424335
-26.933001 9.9560003 1.9400001
-26.820469 9.967 1.9466001
-26.78944 9.9808102 1.9574376
-27.054501 10.0445 1.9475
-26.761435 10.036272 1.9464542
-26.733398 10.131801 1.9542
-26.904669 10.256167 1.9338334
-26.876196 10.269063 1.9538708
-27.627762 9.2298098 2.0461907
-27.589144 9.2767143 2.0645714
-27.423 9.2290001 2.0009999
-27.344957 9.2608814 2.0457144
-27.571096 9.3221006 2.0522001
-27.315031 9.3419476 2.0411582
-27.292248 9.3530636 2.0610626
-27.430962 9.4660387 2.0459201
-27.361546 9.4150906 2.0479093
-27.420296 9.5181761 2.0437646
-27.373075 9.5645142 2.0583079
-27.327002 9.6362743 2.0450249
-27.28669 9.6779995 2.05725
-27.323 9.7010002 2.0179999
-27.24395 9.7478781 2.0463898
-27.194334 9.7876673 2.0760002
-27.216288 9.8134289 2.0285716
-27.160761 9.85324 2.0509348
-27.120312 9.9198751 2.0348127
-27.088202 9.9431 2.0490003
-26.811287 9.9472866 2.0418572
-26.770971 9.9715157 2.0517876
-27.03875 10.0365 2.033
-26.955999 10.043 2.086
-26.73546 10.026858 2.0441425
-26.686251 10.08025 2.0617499
-26.754333 10.144333 2.0210001
-26.695999 10.101 2.0250001
-27.613573 9.2155714 2.1375718
-27.566593 9.2552271 2.1616364
-27.322439 9.249094 2.1403487
-27.291925 9.2790775 2.165
-27.532598 9.3149996 2.1492002
-27.317715 9.3691435 2.1415715
-27.280262 9.3435726 2.1506906
-27.418741 9.4637394 2.1396086
-27.376749 9.434063 2.1558125
-27.406668 9.5106678 2.1150002
-27.3522 9.551672 2.1522546
-27.2945 9.5984993 2.1935
-27.317144 9.6168566 2.136143
-27.270386 9.6571779 2.153718
-27.226313 9.7309361 2.1413438
-27.18255 9.7733498 2.1592004
-27.14069 9.8432255 2.1455224
-27.096144 9.8798571 2.1700001
-27.104 9.9090004 2.1125
-27.072834 9.9285555 2.1457777
-26.83075 9.941 2.1637499
-26.749477 9.9619389 2.1481671
-26.700001 9.9919996 2.1700001
-27.048 10.011 2.119
-26.9695 10.0295 2.1434999
-26.719759 10.019238 2.1337621
-26.684204 10.041101 2.1550002
-26.785751 10.1715 2.14025
-26.691666 10.105 2.1550002
-27.335499 9.1940002 2.2445002
-27.613001 9.2070007 2.2315001
-27.54878 9.2437391 2.2515652
-27.490002 9.2903328 2.2803335
-27.313398 9.2277193 2.2330399
-27.280029 9.2659473 2.2532973
-27.498501 9.3024998 2.2249999
-27.316797 9.3814001 2.2546003
-27.264704 9.3406763 2.2486489
-27.410002 9.4427996 2.2302001
-27.375271 9.4574051 2.2494054
-27.331842 9.5381079 2.2421079
-27.287296 9.5839415 2.2597649
-27.306 9.6090002 2.223
-27.249083 9.6472874 2.2529387
-27.198 9.6870003 2.2379999
-27.211718 9.7110004 2.2212858
-27.167381 9.7562685 2.2540669
-27.122955 9.8277378 2.2401741
-27.081715 9.8662148 2.2587502
-27.051456 9.9273643 2.2333636
-26.9575 9.9904995 2.2575002
-26.839832 9.9335003 2.2503333
-26.733805 9.947547 2.2472265
-26.6875 9.9860001 2.2613335
-26.719999 10.005 2.214
-26.670439 10.024934 2.2475336
-26.74575 10.15475 2.2635
-26.695 10.111 2.2214999
-26.813723 10.248777 2.2437775
-27.340002 9.1869993 2.3253334
-27.282301 9.188899 2.3584001
-27.524723 9.2366667 2.3556111
-27.471626 9.2770004 2.351625
-27.307333 9.2206669 2.3140001
-27.262751 9.250597 2.3440964
-27.322002 9.3842497 2.3465836
-27.247526 9.3362999 2.3488002
-27.357162 9.4549322 2.3461115
-27.316265 9.5241575 2.3406312
-27.274242 9.5646753 2.3521085
-27.232805 9.627862 2.3491113
-27.185167 9.6820564 2.353889
-27.141785 9.7509546 2.3485434
-27.096001 9.7919998 2.368
-27.107 9.8112497 2.3382499
-27.061514 9.8559132 2.3518448
-26.743332 9.8973331 2.3789999
-27.039501 9.9230003 2.362
-26.990999 9.9790001 2.346
-26.827999 9.9445 2.3635001
-26.720474 9.9240685 2.3403101
-26.673351 9.9701653 2.3528128
-26.643473 10.030416 2.35075
-26.818001 10.169001 2.382
-26.747501 10.1437 2.3671002
-26.686001 10.103 2.3840001
-26.8015 10.2315 2.3390002
-27.318501 9.1739998 2.4075
-27.268238 9.1864281 2.4545712
-27.51243 9.2148581 2.448
-27.461693 9.2493849 2.4556155
-27.398001 9.2510004 2.457
-27.236813 9.2517042 2.445852
-27.196667 9.2800007 2.4663334
-27.327772 9.3847685 2.4453077
-27.241083 9.3353434 2.4474573
-27.198668 9.3143339 2.4563332
-27.331562 9.4516745 2.4453263
-27.289001 9.4892502 2.4497499
-27.314499 9.5074997 2.428
-27.25429 9.5502739 2.4518726
-27.198 9.5609999 2.494
-27.216501 9.6167145 2.4376428
-27.17211 9.658946 2.454361
-27.123306 9.7336149 2.438731
-27.0861 9.7764502 2.4539001
-27.03898 9.8459539 2.4465683
-26.975334 9.8723335 2.4920001
-26.718821 9.8888197 2.4532723
-26.694 9.8952503 2.45175
-27.0285 9.9189997 2.415
-26.975002 9.9503345 2.4403334
-26.730001 9.908 2.4272499
-26.655025 9.9544392 2.4489481
-26.705 10.099 2.4949999
-26.628138 10.036594 2.4436214
-26.595125 10.015375 2.4737501
-26.809 10.176 2.4389999
-26.754316 10.148685 2.4474211
-26.688335 10.104334 2.4376667
-27.535681 9.1375008 2.5486789
-27.487 9.1719999 2.579
-27.302 9.1960001 2.595
-27.242811 9.1830387 2.5502312
-27.506001 9.1999998 2.526
-27.461185 9.233182 2.5507271
-27.344749 9.2209997 2.53775
-27.216259 9.2414608 2.5388975
-27.187504 9.272501 2.5533848
-27.322687 9.3831873 2.5483751
-27.250456 9.341115 2.5473716
-27.189768 9.3076925 2.5472307
-27.313643 9.4320002 2.543
-27.279667 9.4712915 2.5490832
-27.239624 9.5340004 2.5448892
-27.190939 9.5786877 2.5640001
-27.150774 9.6505709 2.5496123
-27.1089 9.7181997 2.5300002
-27.066975 9.7628689 2.5515525
-27.022667 9.8330841 2.5427084
-26.993427 9.8604298 2.5565715
-26.735859 9.872858 2.5325716
-26.678524 9.880105 2.555263
-26.95825 9.9307499 2.5440001
-26.76 9.9040003 2.5009999
-26.638393 9.9392214 2.5409155
-26.588186 9.9852734 2.5626819
-26.636272 10.049591 2.5461361
-26.585737 10.015947 2.5573688
-26.752146 10.151144 2.5442858
-26.685667 10.11 2.553
-27.520254 9.1179171 2.6389167
-27.474531 9.1664696 2.6575294
-27.227278 9.1723604 2.6465201
-27.187399 9.1870003 2.674
-27.438694 9.2263079 2.6482308
-27.214001 9.2118883 2.6158888
-27.176424 9.2537031 2.650547
-27.315071 9.3859997 2.6415
-27.254631 9.3441725 2.6508858
-27.182821 9.3055458 2.6445456
-27.306999 9.421751 2.6240001
-27.265276 9.4550619 2.6477661
-27.217237 9.52316 2.63888
-27.174351 9.5675287 2.6559408
-27.131828 9.6376877 2.644629
-27.086943 9.6864138 2.6583531
-27.044224 9.7551823 2.6487002
-27.010599 9.8176003 2.6270001
-26.981792 9.8366308 2.6512635
-26.864 9.8500004 2.6530001
-26.707668 9.8523331 2.6246669
-26.658398 9.872261 2.6504476
-26.9105 9.9360008 2.6554999
-26.621422 9.9266663 2.637583
-26.57382 9.9710407 2.6519186
-26.725 10.097 2.687
-26.628811 10.049144 2.6464763
-26.585001 10.01454 2.6524615
-26.742998 10.15521 2.6455786
-26.695999 10.1085 2.6399999
-26.711502 10.2269 2.6417999
-27.53907 9.0396671 2.7471333
-27.492002 9.0813999 2.7804
-27.250999 9.0889997 2.7639999
-27.506001 9.1129999 2.7350001
-27.456518 9.1492805 2.7556801
-27.212748 9.1538754 2.7332501
-27.182753 9.1751671 2.7497501
-27.408001 9.2269993 2.7354999
-27.390335 9.2226667 2.7803333
-27.154202 9.2502756 2.7475972
-27.303001 9.3635006 2.7189999
-27.256826 9.3501568 2.7496276
-27.190498 9.3057499 2.7463751
-27.24032 9.4458933 2.7456486
-27.188335 9.4946671 2.7713335
-27.207668 9.5083332 2.7163334
-27.160864 9.5504999 2.7477112
-27.099001 9.5970001 2.7869999
-27.116667 9.6206675 2.7360003
-27.067532 9.66959 2.7496767
-27.025539 9.7387657 2.742867
-26.983389 9.7790556 2.755111
-26.955851 9.8257494 2.7513998
-26.870001 9.835 2.7969999
-26.708 9.8380003 2.7609999
-26.634441 9.8674898 2.7510672
-26.618 9.915801 2.7162001
-26.564333 9.9516954 2.7503471
-26.723669 10.090667 2.76
-26.63188 10.051417 2.7446668
-26.577389 10.014222 2.7472777
-26.721603 10.147801 2.7494001
-26.688875 10.1795 2.7585001
-26.708 10.215 2.733
-27.525461 9.0279226 2.8428459
-27.477959 9.0705214 2.8591306
-27.197001 9.0900002 2.8699999
-27.430334 9.1443892 2.8462777
-27.376146 9.1802864 2.8724287
-27.165081 9.1612377 2.8467371
-27.402 9.2110004 2.8
-27.37067 9.2171669 2.8565001
-27.135559 9.2497826 2.8457398
-27.092499 9.2510004 2.8695002
-27.245026 9.3527441 2.8510213
-27.191111 9.3077784 2.8554444
-27.222109 9.4268074 2.8408613
-27.176102 9.4748001 2.8541338
-27.136307 9.5421858 2.8395581
-27.086285 9.5850716 2.8717146
-27.107666 9.6123343 2.823
-27.053934 9.6544132 2.8449135
-27.014645 9.7119284 2.8399289
-26.971647 9.7559729 2.856946
-26.930473 9.816946 2.8457367
-26.738001 9.823 2.842
-26.622036 9.8451061 2.8396788
-26.583448 9.8764477 2.8579307
-26.542057 9.9450159 2.8508093
-26.711 10.082 2.8759999
-26.636391 10.057333 2.853389
-26.577204 10.017345 2.849138
-26.711666 10.122001 2.8369999
-26.678812 10.163251 2.854125
-27.51 9.0170002 2.9545
-27.464844 9.0500937 2.9540315
-27.183001 9.0699997 2.9849999
-27.418104 9.1268005 2.9499004
-27.377115 9.1665888 2.9554708
-27.208 9.1190004 2.9460001
-27.139627 9.1574764 2.9430254
-27.343399 9.2094011 2.9549999
-27.131741 9.2579794 2.9436603
-27.089211 9.2348413 2.9572635
-27.226423 9.3559599 2.9502802
-27.192833 9.3101673 2.9506669
-27.211096 9.4235001 2.9187
-27.159977 9.4552536 2.9518723
-27.121098 9.5251913 2.9354289
-27.079109 9.56425 2.9556787
-27.030621 9.6393871 2.9455001
-26.988251 9.6777496 2.9653752
-27.004 9.7010002 2.9085002
-26.953125 9.7439165 2.9546938
-26.630001 9.7800007 2.9809999
-26.916668 9.8041677 2.9345002
-26.872749 9.8272495 2.9435
-26.617691 9.8225384 2.9297695
-26.566793 9.8609619 2.9529815
-26.524637 9.9472609 2.94646
-26.493362 9.9355459 2.9713638
-26.724001 10.077 2.9070001
-26.642263 10.058316 2.953053
-26.577696 10.018231 2.9511929
-26.652737 10.156609 2.9532611
-26.620499 10.2225 2.9420002
0 0 0 1 0 0 0 1 0 0 0 1 0 0 0 0 0 755 1 0 0
