ply
format ascii 1.0
comment PCL generated
element vertex 1877
property float x
property float y
property float z
element camera 0
property float view_px
property float view_py
property float view_pz
property float x_axisx
property float x_axisy
property float x_axisz
property float y_axisx
property float y_axisy
property float y_axisz
property float z_axisx
property float z_axisy
property float z_axisz
property float focal
property float scalex
property float scaley
property float centerx
property float centery
property int viewportx
property int viewporty
property float k1
property float k2
end_header
-6.0910001 11.268 1.219
-6.1020002 11.254 1.194
-6.0999999 11.255 1.17
-6.0879998 11.267 1.148
-6.0890002 11.265 1.124
-6.0970001 11.254 1.1
-6.0910001 11.259 1.077
-6.1020002 11.245 1.051
-6.0869999 11.261 1.03
-6.1030002 11.241 1.0039999
-6.099 11.244 0.98000002
-6.1040001 11.237 0.95599997
-6.092 11.249 0.93400002
-6.0970001 11.242 0.91000003
-6.1129999 11.223 0.884
-6.0960002 11.24 0.86199999
-6.0869999 11.248 0.83999997
-6.099 11.234 0.815
-6.0939999 11.238 0.792
-6.092 11.238 0.76800001
-6.099 11.228 0.74400002
-6.092 11.235 0.72100002
-6.131 11.191 0.69400001
-6.1409998 11.178 0.66900003
-6.1700001 11.144 0.64300001
-6.1919999 11.118 0.61799997
-6.1989999 11.109 0.59399998
-6.2049999 11.101 0.56999999
-6.1900001 11.116 0.54799998
-6.1849999 11.12 0.52499998
-6.1799998 11.124 0.50199997
-6.1789999 11.124 0.479
-6.1880002 11.113 0.45500001
-6.1890001 11.11 0.43200001
-6.1849999 11.113 0.40900001
-6.1869998 11.11 0.38499999
-6.1589999 11.139 0.36399999
-6.0910001 11.213 0.34400001
-6.0970001 11.205 0.31999999
-6.0949998 11.205 0.29699999
-6.0939999 11.205 0.273
-6.086 11.212 0.25
-6.0949998 11.201 0.226
-6.0970001 11.197 0.20299999
-6.0960002 11.197 0.17900001
-6.098 11.194 0.156
-6.0840001 11.207 0.133
-6.0929999 11.196 0.109
-6.092 11.196 0.086000003
-6.0939999 11.192 0.061999999
-6.0960002 11.188 0.039000001
-6.079 11.205 0.016000001
-6.1009998 11.404 2.98
-6.1040001 11.4 2.954
-6.112 11.389 2.927
-6.1040001 11.396 2.904
-6.0910001 11.409 2.8829999
-6.0999999 11.397 2.855
-6.1079998 11.387 2.8269999
-6.1040001 11.39 2.8039999
-6.1009998 11.391 2.78
-6.1030002 11.387 2.7539999
-6.1100001 11.378 2.727
-6.1020002 11.385 2.704
-6.105 11.381 2.6789999
-6.1030002 11.382 2.655
-6.1059999 11.376 2.6289999
-6.0910001 11.391 2.608
-6.1079998 11.37 2.5780001
-6.1059999 11.371 2.5539999
-6.1160002 11.359 2.527
-6.1020002 11.373 2.506
-6.1090002 11.363 2.4790001
-6.1170001 11.353 2.4519999
-6.0999999 11.37 2.4319999
-6.0970001 11.373 2.4089999
-6.1110001 11.355 2.3800001
-6.1129999 11.351 2.355
-6.1079998 11.355 2.332
-6.1020002 11.361 2.309
-6.1009998 11.36 2.2839999
-6.1040001 11.355 2.2590001
-6.1030002 11.354 2.2349999
-6.0999999 11.357 2.211
-6.0999999 11.355 2.1860001
-6.1030002 11.35 2.161
-6.1090002 11.341 2.135
-6.0960002 11.355 2.1140001
-6.099 11.35 2.089
-6.0960002 11.352 2.0650001
-6.0960002 11.35 2.0409999
-6.0960002 11.349 2.016
-6.099 11.343 1.9910001
-6.1020002 11.338 1.966
-6.0970001 11.342 1.943
-6.099 11.338 1.918
-6.1030002 11.333 1.893
-6.0960002 11.339 1.87
-6.1009998 11.332 1.845
-6.1040001 11.328 1.8200001
-6.0999999 11.329 1.7970001
-6.1040001 11.324 1.772
-6.1040001 11.323 1.747
-6.099 11.328 1.724
-6.1020002 11.322 1.7
-6.0970001 11.326 1.676
-6.0929999 11.329 1.653
-6.0910001 11.331 1.6289999
-6.1069999 11.31 1.602
-6.098 11.319 1.58
-6.099 11.317 1.556
-6.099 11.315 1.531
-6.0900002 11.324 1.5089999
-6.1009998 11.31 1.483
-6.098 11.312 1.46
-6.0949998 11.313 1.436
-6.1090002 11.297 1.41
-6.1059999 11.298 1.386
-6.0999999 11.303 1.363
-6.098 11.304 1.34
-6.0929999 11.308 1.317
-6.0869999 11.313 1.294
-6.0970001 11.3 1.268
-6.0879998 11.309 1.245
-6.092 11.303 1.221
-6.0999999 11.292 1.196
-6.0910001 11.301 1.173
-6.0960002 11.295 1.149
-6.0929999 11.295 1.125
-6.0939999 11.293 1.101
-6.0960002 11.29 1.077
-6.1030002 11.28 1.052
-6.0879998 11.295 1.031
-6.086 11.296 1.007
-6.073 11.309 0.98500001
-6.0669999 11.314 0.96200001
-6.1020002 11.273 0.93400002
-6.098 11.277 0.91100001
-6.0890002 11.285 0.88800001
-6.1020002 11.269 0.86299998
-6.0910001 11.28 0.83999997
-6.0949998 11.274 0.81599998
-6.092 11.276 0.79299998
-6.1059999 11.258 0.76800001
-6.0910001 11.273 0.745
-6.086 11.278 0.722
-6.0949998 11.267 0.69800001
-6.1479998 11.206 0.66900003
-6.1719999 11.177 0.64399999
-6.1919999 11.153 0.61900002
-6.204 11.138 0.59399998
-6.2280002 11.11 0.56900001
-6.224 11.113 0.546
-6.2319999 11.102 0.52200001
-6.2309999 11.102 0.49900001
-6.2160001 11.117 0.477
-6.2049999 11.129 0.454
-6.21 11.121 0.43099999
-6.2090001 11.121 0.40799999
-6.2140002 11.114 0.384
-6.2030001 11.125 0.361
-6.198 11.129 0.338
-6.0939999 11.243 0.31999999
-6.086 11.251 0.29699999
-6.0879998 11.247 0.273
-6.0900002 11.243 0.25
-6.0890002 11.243 0.226
-6.098 11.231 0.20200001
-6.0900002 11.239 0.17900001
-6.092 11.235 0.156
-6.092 11.235 0.132
-6.0869999 11.238 0.109
-6.0900002 11.234 0.085000001
-6.099 11.222 0.061999999
-6.0809999 11.241 0.037999999
-6.0770001 11.244 0.015
-6.0689998 11.467 2.845
-6.0809999 11.452 2.816
-6.0840001 11.447 2.79
-6.0819998 11.447 2.7650001
-6.0809999 11.446 2.7409999
-6.0840001 11.442 2.7149999
-6.1030002 11.419 2.684
-6.0999999 11.42 2.6600001
-6.1009998 11.418 2.635
-6.0929999 11.426 2.612
-6.086 11.432 2.589
-6.1090002 11.404 2.5580001
-6.098 11.416 2.536
-6.092 11.421 2.513
-6.0929999 11.418 2.4879999
-6.0830002 11.428 2.4660001
-6.0879998 11.42 2.4400001
-6.0970001 11.409 2.4130001
-6.0890002 11.416 2.3900001
-6.1009998 11.401 2.362
-6.0910001 11.411 2.3399999
-6.0869999 11.414 2.316
-6.0869999 11.413 2.2920001
-6.0960002 11.4 2.2650001
-6.0890002 11.406 2.2420001
-6.092 11.401 2.217
-6.0939999 11.398 2.1919999
-6.0949998 11.395 2.1670001
-6.0939999 11.394 2.142
-6.0939999 11.394 2.118
-6.0929999 11.393 2.0940001
-6.0910001 11.393 2.0699999
-6.0879998 11.395 2.046
-6.0910001 11.391 2.0209999
-6.0890002 11.391 1.997
-6.0910001 11.387 1.972
-6.099 11.377 1.946
-6.0939999 11.38 1.9220001
-6.0960002 11.377 1.898
-6.0929999 11.379 1.874
-6.0900002 11.38 1.85
-6.092 11.377 1.826
-6.092 11.375 1.801
-6.0890002 11.377 1.778
-6.099 11.365 1.751
-6.0900002 11.373 1.729
-6.0799999 11.382 1.707
-6.0840001 11.377 1.682
-6.0929999 11.365 1.656
-6.098 11.358 1.63
-6.0890002 11.367 1.608
-6.086 11.368 1.584
-6.0929999 11.359 1.559
-6.0840001 11.368 1.5369999
-6.1069999 11.339 1.508
-6.085 11.363 1.488
-6.092 11.353 1.4630001
-6.0929999 11.351 1.438
-6.0900002 11.352 1.415
-6.085 11.357 1.392
-6.0890002 11.351 1.367
-6.099 11.338 1.341
-6.0939999 11.343 1.318
-6.085 11.351 1.296
-6.079 11.356 1.273
-6.0869999 11.346 1.247
-6.1030002 11.326 1.221
-6.0949998 11.333 1.198
-6.0890002 11.338 1.175
-6.0869999 11.339 1.152
-6.092 11.333 1.127
-6.0809999 11.343 1.105
-6.0840001 11.338 1.08
-6.0879998 11.333 1.056
-6.086 11.333 1.0319999
-6.0840001 11.335 1.0089999
-6.0890002 11.328 0.98400003
-6.0799999 11.336 0.96100003
-6.0780001 11.337 0.93800002
-6.0819998 11.33 0.91299999
-6.0970001 11.312 0.88800001
-6.092 11.317 0.86500001
-6.085 11.322 0.84200001
-6.0809999 11.325 0.81800002
-6.0929999 11.311 0.79299998
-6.0739999 11.33 0.77100003
-6.0890002 11.312 0.74599999
-6.0960002 11.303 0.722
-6.086 11.313 0.699
-6.0840001 11.313 0.676
-6.1500001 11.237 0.64600003
-6.1900001 11.191 0.61900002
-6.2020001 11.176 0.59500003
-6.2309999 11.143 0.56900001
-6.244 11.127 0.54500002
-6.2509999 11.117 0.52100003
-6.2519999 11.115 0.498
-6.256 11.108 0.47400001
-6.2490001 11.115 0.45199999
-6.2410002 11.122 0.42899999
-6.2519999 11.108 0.405
-6.2379999 11.122 0.38299999
-6.2340002 11.126 0.36000001
-6.2360001 11.122 0.336
-6.2379999 11.119 0.31299999
-6.2030001 11.156 0.29100001
-6.0830002 11.289 0.273
-6.085 11.285 0.25
-6.0770001 11.292 0.226
-6.0819998 11.285 0.20299999
-6.0910001 11.273 0.17900001
-6.0900002 11.273 0.155
-6.0760002 11.288 0.132
-6.0879998 11.272 0.108
-6.0819998 11.278 0.085000001
-6.086 11.272 0.061000001
-6.0879998 11.267 0.037999999
-6.0840001 11.271 0.014
-6.0960002 11.425 2.096
-6.0999999 11.419 2.0710001
-6.1030002 11.414 2.046
-6.1079998 11.407 2.02
-6.0929999 11.423 1.999
-6.0869999 11.428 1.976
-6.0949998 11.417 1.95
-6.0960002 11.414 1.925
-6.0869999 11.423 1.903
-6.0830002 11.425 1.8789999
-6.0910001 11.415 1.853
-6.0819998 11.424 1.831
-6.0869999 11.416 1.8049999
-6.0910001 11.411 1.78
-6.0949998 11.405 1.755
-6.092 11.407 1.7309999
-6.092 11.405 1.707
-6.0809999 11.416 1.6849999
-6.0869999 11.407 1.659
-6.1040001 11.386 1.632
-6.085 11.406 1.6109999
-6.0910001 11.399 1.586
-6.0869999 11.402 1.563
-6.0890002 11.399 1.538
-6.086 11.4 1.5140001
-6.0830002 11.401 1.4910001
-6.086 11.397 1.466
-6.0890002 11.392 1.441
-6.0780001 11.403 1.419
-6.0890002 11.388 1.393
-6.0929999 11.383 1.368
-6.0809999 11.395 1.346
-6.085 11.388 1.322
-6.086 11.386 1.2970001
-6.0900002 11.38 1.273
-6.085 11.385 1.249
-6.079 11.389 1.226
-6.085 11.381 1.201
-6.0929999 11.371 1.176
-6.079 11.385 1.154
-6.0830002 11.379 1.13
-6.0840001 11.376 1.1059999
-6.0819998 11.377 1.082
-6.0900002 11.366 1.057
-6.086 11.37 1.034
-6.092 11.361 1.0089999
-6.0739999 11.38 0.98699999
-6.0819998 11.37 0.96200001
-6.0890002 11.359 0.93800002
-6.0840001 11.364 0.91399997
-6.086 11.361 0.88999999
-6.0780001 11.367 0.86699998
-6.0879998 11.355 0.84200001
-6.092 11.348 0.81800002
-6.0780001 11.363 0.796
-6.092 11.346 0.77100003
-6.0799999 11.357 0.74800003
-6.0819998 11.354 0.72399998
-6.0799999 11.355 0.69999999
-6.0819998 11.351 0.676
-6.073 11.359 0.653
-6.1880002 11.229 0.62
-6.2129998 11.199 0.59399998
-6.2290001 11.18 0.56999999
-6.244 11.161 0.54500002
-6.2719998 11.128 0.51999998
-6.29 11.107 0.495
-6.277 11.12 0.47299999
-6.276 11.12 0.44999999
-6.277 11.116 0.42699999
-6.263 11.13 0.40400001
-6.2680001 11.124 0.38100001
-6.2670002 11.124 0.35800001
-6.2690001 11.12 0.33500001
-6.2649999 11.124 0.31200001
-6.257 11.131 0.289
-6.2620001 11.124 0.26499999
-6.0830002 11.324 0.25
-6.0869999 11.317 0.226
-6.0799999 11.323 0.20200001
-6.0760002 11.327 0.17900001
-6.092 11.308 0.155
-6.0739999 11.326 0.132
-6.0689998 11.329 0.108
-6.072 11.325 0.085000001
-6.0710001 11.325 0.061000001
-6.0830002 11.31 0.037
-6.0819998 11.309 0.014
-6.0970001 11.393 1.033
-6.0879998 11.401 1.011
-6.0879998 11.4 0.98699999
-6.085 11.401 0.963
-6.098 11.385 0.93800002
-6.0869999 11.396 0.91500002
-6.0949998 11.385 0.88999999
-6.0830002 11.397 0.86799997
-6.0869999 11.392 0.84299999
-6.0910001 11.385 0.81900001
-6.0799999 11.397 0.796
-6.0770001 11.399 0.773
-6.0819998 11.391 0.74800003
-6.0739999 11.398 0.72500002
-6.0830002 11.387 0.70099998
-6.0819998 11.386 0.67699999
-6.085 11.381 0.653
-6.0910001 11.374 0.62900001
-6.2010002 11.248 0.59600002
-6.2210002 11.224 0.57099998
-6.2480001 11.192 0.54500002
-6.2690001 11.167 0.52100003
-6.2919998 11.139 0.49599999
-6.3010001 11.127 0.472
-6.296 11.131 0.449
-6.3010001 11.124 0.42500001
-6.3000002 11.124 0.40200001
-6.2989998 11.124 0.37900001
-6.2940001 11.128 0.35600001
-6.2930002 11.128 0.333
-6.2950001 11.124 0.31
-6.29 11.128 0.287
-6.2859998 11.131 0.264
-6.2810001 11.135 0.241
-6.0689998 11.372 0.226
-6.0640001 11.376 0.20299999
-6.073 11.364 0.17900001
-6.066 11.372 0.155
-6.0710001 11.364 0.131
-6.0669999 11.368 0.108
-6.0760002 11.356 0.083999999
-6.072 11.359 0.059999999
-6.0780001 11.351 0.037
-6.0770001 11.351 0.013
-6.2210002 11.259 0.57099998
-6.2540002 11.219 0.54500002
-6.2810001 11.188 0.51999998
-6.2880001 11.179 0.49599999
-6.3070002 11.156 0.472
-6.3309999 11.128 0.447
-6.3369999 11.12 0.42300001
-6.3280001 11.129 0.40099999
-6.3330002 11.121 0.377
-6.3179998 11.136 0.35499999
-6.3270001 11.125 0.331
-6.3260002 11.125 0.308
-6.3210001 11.128 0.28600001
-6.3169999 11.132 0.26300001
-6.3189998 11.128 0.23899999
-6.3150001 11.131 0.21600001
-6.3130002 11.131 0.193
-6.2480001 11.262 0.546
-6.2719998 11.234 0.52100003
-6.2909999 11.211 0.49599999
-6.3169999 11.18 0.47099999
-6.3319998 11.162 0.447
-6.3499999 11.139 0.42300001
-6.368 11.118 0.398
-6.3470001 11.14 0.377
-6.349 11.136 0.35299999
-6.3610001 11.121 0.33000001
-6.3499999 11.133 0.30700001
-6.3449998 11.136 0.28400001
-6.3470001 11.132 0.26100001
-6.3390002 11.14 0.23800001
-6.3379998 11.14 0.215
-6.3400002 11.136 0.192
-6.3330002 11.143 0.169
-6.3460002 11.126 0.146
-6.2690001 11.273 0.52200001
-6.2870002 11.25 0.49700001
-6.3049998 11.229 0.472
-6.3210001 11.209 0.44800001
-6.3499999 11.174 0.42300001
-6.369 11.151 0.39899999
-6.3860002 11.13 0.37400001
-6.382 11.133 0.352
-6.3779998 11.137 0.329
-6.3870001 11.125 0.30500001
-6.3720002 11.14 0.28299999
-6.368 11.144 0.25999999
-6.3730001 11.136 0.237
-6.382 11.125 0.213
-6.3709998 11.136 0.191
-6.3629999 11.143 0.168
-6.3720002 11.132 0.145
-6.3670001 11.136 0.122
-6.2839999 11.289 0.49700001
-6.3099999 11.259 0.472
-6.3319998 11.232 0.447
-6.3499999 11.211 0.42300001
-6.3740001 11.181 0.398
-6.3829999 11.169 0.375
-6.4060001 11.142 0.34999999
-6.4050002 11.141 0.32699999
-6.408 11.137 0.30399999
-6.4029999 11.141 0.28099999
-6.408 11.133 0.25799999
-6.401 11.14 0.235
-6.3930001 11.148 0.213
-6.402 11.136 0.189
-6.3940001 11.144 0.167
-6.3899999 11.147 0.14399999
-6.3920002 11.143 0.121
-6.3860002 11.149 0.097999997
-6.414 11.115 0.074000001
-6.3299999 11.27 0.44800001
-6.3569999 11.237 0.42300001
-6.3759999 11.214 0.398
-6.4000001 11.185 0.37400001
-6.4190001 11.161 0.34999999
-6.4310002 11.147 0.32600001
-6.4310002 11.145 0.303
-6.4330001 11.141 0.28
-6.4320002 11.141 0.257
-6.4310002 11.141 0.234
-6.427 11.145 0.211
-6.4260001 11.144 0.18799999
-6.428 11.14 0.16500001
-6.421 11.148 0.142
-6.4159999 11.151 0.119
-6.4219999 11.143 0.096000001
-6.414 11.15 0.072999999
-6.4229999 11.139 0.050000001
-6.3509998 11.28 0.42300001
-6.3740001 11.252 0.39899999
-6.3959999 11.226 0.37400001
-6.4130001 11.205 0.34999999
-6.4390001 11.174 0.32600001
-6.4510002 11.158 0.30199999
-6.4640002 11.142 0.278
-6.4660001 11.137 0.255
-6.4749999 11.126 0.23199999
-6.4569998 11.145 0.20999999
-6.4530001 11.148 0.18700001
-6.4590001 11.14 0.164
-6.4510002 11.148 0.141
-6.4499998 11.147 0.118
-6.4520001 11.143 0.094999999
-6.4549999 11.139 0.071999997
-6.447 11.146 0.048999999
-6.4359999 11.157 0.026000001
-6.375 11.287 0.39899999
-6.3899999 11.268 0.37400001
-6.4109998 11.242 0.34999999
-6.4359999 11.212 0.32600001
-6.4590001 11.184 0.301
-6.4759998 11.163 0.278
-6.5009999 11.132 0.25299999
-6.4920001 11.141 0.23100001
-6.494 11.137 0.208
-6.493 11.137 0.185
-6.4860001 11.144 0.162
-6.4809999 11.148 0.14
-6.487 11.14 0.117
-6.4790001 11.147 0.093999997
-6.4590001 11.169 0.071000002
-6.4770002 11.146 0.048
-6.4759998 11.146 0.025
-6.48 11.141 0.0020000001
-6.4000001 11.292 0.37400001
-6.4239998 11.263 0.34900001
-6.4289999 11.256 0.32600001
-6.4580002 11.221 0.301
-6.4819999 11.192 0.27700001
-6.4970002 11.172 0.25299999
-6.5170002 11.148 0.23
-6.5120001 11.152 0.207
-6.5110002 11.152 0.184
-6.5190001 11.141 0.161
-6.506 11.155 0.138
-6.5079999 11.151 0.115
-6.5190001 11.137 0.092
-6.5089998 11.147 0.07
-6.5079999 11.146 0.046999998
-6.5009999 11.154 0.024
-6.493 11.161 0.001
-6.4400001 11.279 0.32499999
-6.4580002 11.256 0.301
-6.4829998 11.226 0.27700001
-6.5009999 11.203 0.25299999
-6.5209999 11.179 0.229
-6.5310001 11.165 0.206
-6.5440001 11.149 0.183
-6.5430002 11.149 0.16
-6.5320001 11.16 0.13699999
-6.5310001 11.159 0.114
-6.533 11.155 0.090999998
-6.539 11.147 0.068000004
-6.5349998 11.151 0.046
-6.5250001 11.161 0.023
-6.4530001 11.298 0.30199999
-6.4710002 11.275 0.27700001
-6.4990001 11.241 0.25299999
-6.52 11.215 0.229
-6.5289998 11.203 0.206
-6.5609999 11.164 0.182
-6.5640001 11.159 0.15899999
-6.5619998 11.159 0.13600001
-6.5650001 11.155 0.113
-6.5669999 11.151 0.090000004
-6.5689998 11.147 0.067000002
-6.5580001 11.158 0.045000002
-6.5580001 11.158 0.022
-6.4790001 11.3 0.27700001
-6.4959998 11.278 0.25299999
-6.5159998 11.254 0.229
-6.54 11.225 0.205
-6.5650001 11.194 0.18099999
-6.585 11.17 0.15800001
-6.5949998 11.157 0.13500001
-6.605 11.144 0.112
-6.5869999 11.162 0.089000002
-6.5900002 11.158 0.066
-6.6020002 11.143 0.043000001
-6.585 11.161 0.021
-6.513 11.294 0.252
-6.5180001 11.287 0.229
-6.5289998 11.272 0.205
-6.559 11.235 0.18099999
-6.5710001 11.219 0.15800001
-6.5900002 11.195 0.134
-6.6209998 11.158 0.111
-6.6170001 11.161 0.088
-6.6290002 11.146 0.064999998
-6.6209998 11.153 0.041999999
-6.6110001 11.164 0.02
-6.5370002 11.298 0.205
-6.559 11.271 0.18099999
-6.5749998 11.25 0.15700001
-6.6009998 11.218 0.134
-6.6139998 11.201 0.11
-6.6300001 11.181 0.086999997
-6.6479998 11.158 0.064000003
-6.652 11.152 0.041000001
-6.6479998 11.156 0.018999999
-6.5560002 11.308 0.18099999
-6.579 11.28 0.15700001
-6.6009998 11.253 0.133
-6.6220002 11.227 0.11
-6.638 11.206 0.086999997
-6.6589999 11.18 0.063000001
-6.6719999 11.163 0.039999999
-6.677 11.155 0.017000001
-6.5939999 11.298 0.156
-6.5890002 11.302 0.133
-6.6160002 11.269 0.11
-6.6430001 11.236 0.086000003
-6.6570001 11.218 0.063000001
-6.6170001 11.303 0.109
-6.6360002 11.279 0.086000003
-7.0780001 11.318 2.983
-7.099 11.435 2.9749999
-7.1139998 11.454 2.9749999
-7.118 11.447 2.95
-7.0939999 11.477 2.9349999
-7.1409998 11.453 2.9219999
-7.1420002 11.45 2.898
-7.1609998 11.462 2.8970001
-7.165 11.456 2.8710001
-7.177 11.44 2.8429999
-7.132 11.496 2.835
-7.184 11.468 2.846
-7.204 11.44 2.8150001
-7.1880002 11.459 2.796
-7.2150002 11.459 2.7679999
-7.2210002 11.449 2.7420001
-7.2080002 11.465 2.723
-5.948 10.134 2.9749999
-5.9219999 10.183 2.9519999
-5.902 10.222 2.928
-5.9809999 10.138 2.973
-5.9660001 10.166 2.9460001
-5.954 10.188 2.9189999
-5.9419999 10.211 2.891
-5.9260001 10.241 2.865
-5.888 10.315 2.846
-6.0050001 10.158 2.973
-6 10.168 2.9430001
-5.9899998 10.185 2.915
-5.967 10.229 2.891
-5.9559999 10.249 2.8629999
-5.9510002 10.259 2.8329999
-5.9289999 10.301 2.809
-5.9159999 10.326 2.7809999
-5.914 10.327 2.75
-5.9000001 10.354 2.723
-5.4899998 11.057 0.514
-5.4850001 11.063 0.48100001
-6.0500002 10.137 2.9660001
-6.039 10.157 2.938
-6.0139999 10.207 2.9159999
-6.0009999 10.23 2.888
-5.9899998 10.25 2.8599999
-5.9790001 10.272 2.832
-5.9679999 10.292 2.8039999
-5.9489999 10.328 2.779
-5.9390001 10.346 2.75
-5.921 10.382 2.724
-5.9089999 10.404 2.6960001
-5.8920002 10.436 2.6689999
-5.5170002 11.078 0.57800001
-5.5209999 11.068 0.54500002
-5.5229998 11.063 0.51300001
-5.5149999 11.077 0.48100001
-5.5159998 11.074 0.44800001
-6.073 10.158 2.967
-6.0580001 10.188 2.941
-6.0479999 10.206 2.9130001
-6.0339999 10.234 2.8859999
-6.0240002 10.251 2.858
-6.0110002 10.276 2.8299999
-5.9910002 10.315 2.8050001
-5.9829998 10.33 2.776
-5.9710002 10.352 2.7479999
-5.96 10.373 2.72
-5.9450002 10.402 2.6930001
-5.934 10.423 2.664
-5.9229999 10.442 2.6359999
-5.9180002 10.451 2.605
-5.9039998 10.479 2.5780001
-5.8860002 10.511 2.5510001
-5.5549998 11.076 0.61000001
-5.5560002 11.073 0.57700002
-5.5510001 11.081 0.54500002
-5.5489998 11.082 0.51200002
-5.5469999 11.085 0.47999999
-5.5440001 11.091 0.447
-5.5450001 11.086 0.41499999
-6.0900002 10.193 2.97
-6.0949998 10.18 2.9360001
-6.0819998 10.206 2.9100001
-6.0689998 10.231 2.882
-6.0570002 10.252 2.855
-6.0440001 10.279 2.8280001
-6.0320001 10.299 2.8
-6.0139999 10.334 2.7739999
-6.0050001 10.351 2.7449999
-5.9889998 10.383 2.7190001
-5.973 10.413 2.6919999
-5.9679999 10.422 2.661
-5.9530001 10.451 2.6340001
-5.9359999 10.483 2.608
-5.9229999 10.507 2.579
-5.9089999 10.536 2.552
-5.8969998 10.557 2.523
-5.888 10.576 2.494
-5.8759999 10.599 2.4649999
-5.5819998 11.095 0.64200002
-5.5890002 11.079 0.60900003
-5.5890002 11.078 0.57599998
-5.5910001 11.072 0.54299998
-5.5840001 11.085 0.51099998
-5.579 11.093 0.479
-5.579 11.091 0.44600001
-5.579 11.089 0.414
-5.5380001 11.173 0.38299999
-6.085 10.273 2.9809999
-6.086 10.268 2.9489999
-6.086 10.268 2.9170001
-6.0869999 10.263 2.885
-6.0799999 10.276 2.8559999
-6.0749998 10.284 2.826
-6.0640001 10.306 2.7980001
-6.0479999 10.336 2.7709999
-6.0310001 10.37 2.7449999
-6.0190001 10.392 2.717
-6.0110002 10.407 2.688
-5.9970002 10.434 2.661
-5.9809999 10.465 2.6340001
-5.973 10.479 2.6040001
-5.954 10.516 2.5780001
-5.9400001 10.543 2.55
-5.9289999 10.565 2.5209999
-5.9159999 10.589 2.493
-5.9000001 10.619 2.4660001
-5.8920002 10.634 2.4360001
-5.8839998 10.648 2.4059999
-5.868 10.679 2.378
-5.6209998 11.091 0.67299998
-5.6129999 11.106 0.64099997
-5.618 11.094 0.60799998
-5.6199999 11.088 0.57499999
-5.6199999 11.087 0.54299998
-5.6100001 11.105 0.51099998
-5.6149998 11.093 0.47799999
-5.6079998 11.106 0.44600001
-5.5770001 11.166 0.414
-6.0830002 10.344 2.9590001
-6.0830002 10.344 2.928
-6.0739999 10.361 2.8989999
-6.0770001 10.352 2.8659999
-6.0770001 10.351 2.8340001
-6.0760002 10.351 2.802
-6.0689998 10.363 2.773
-6.066 10.367 2.7420001
-6.0549998 10.389 2.714
-6.0349998 10.428 2.688
-6.0339999 10.429 2.6570001
-6.0159998 10.465 2.631
-6.0040002 10.487 2.6029999
-5.987 10.521 2.576
-5.9710002 10.55 2.5480001
-5.961 10.569 2.5190001
-5.9499998 10.591 2.4909999
-5.9330001 10.623 2.4630001
-5.9260001 10.637 2.4330001
-5.9089999 10.669 2.4059999
-5.8959999 10.694 2.3770001
-5.882 10.721 2.349
-5.869 10.746 2.3199999
-5.8579998 10.768 2.2909999
-5.855 10.772 2.2590001
-5.6589999 11.091 0.73699999
-5.6560001 11.096 0.704
-5.651 11.104 0.67199999
-5.6490002 11.106 0.63999999
-5.6539998 11.095 0.60699999
-5.6550002 11.091 0.574
-5.6440001 11.111 0.542
-5.6459999 11.106 0.50999999
-5.645 11.107 0.477
-6.066 10.445 2.8789999
-6.072 10.432 2.845
-6.0669999 10.44 2.8139999
-6.0669999 10.439 2.783
-6.0570002 10.457 2.7539999
-6.0630002 10.443 2.72
-6.066 10.437 2.687
-6.0539999 10.459 2.6589999
-6.0430002 10.48 2.6300001
-6.0380001 10.487 2.5999999
-6.0219998 10.52 2.573
-6.0079999 10.547 2.5450001
-5.9970002 10.567 2.516
-5.9850001 10.591 2.4879999
-5.967 10.625 2.461
-5.9530001 10.653 2.4330001
-5.9549999 10.647 2.4000001
-5.9299998 10.696 2.375
-5.9169998 10.722 2.3469999
-5.9039998 10.747 2.3180001
-5.8909998 10.771 2.289
-5.8759999 10.8 2.26
-5.8629999 10.826 2.2320001
-5.849 10.852 2.2030001
-5.7319999 11.091 2.2
-5.7849998 10.98 2.154
-5.7319999 11.088 2.1340001
-5.723 11.105 2.1040001
-5.7179999 11.113 2.072
-5.7179999 11.111 2.039
-5.7150002 11.116 2.007
-5.7020001 11.141 1.977
-5.7129998 11.116 1.941
-5.6919999 11.098 0.76800001
-5.6890001 11.104 0.736
-5.691 11.099 0.70300001
-5.6849999 11.109 0.671
-5.6859999 11.105 0.63800001
-5.6820002 11.111 0.60600001
-5.6760001 11.121 0.574
-5.6739998 11.124 0.542
-5.6589999 11.152 0.50999999
-5.789 11.089 2.9860001
-5.7690001 11.129 2.96
-5.7620001 11.142 2.9289999
-6.059 10.526 2.7939999
-6.0619998 10.519 2.7609999
-6.0609999 10.519 2.7290001
-6.0539999 10.531 2.6989999
-6.0580001 10.522 2.6659999
-6.0560002 10.525 2.635
-6.053 10.529 2.6029999
-6.0570002 10.519 2.5699999
-6.0370002 10.558 2.5439999
-6.0229998 10.587 2.517
-6.0100002 10.611 2.4879999
-6.0050001 10.62 2.4579999
-5.994 10.641 2.4289999
-5.9749999 10.679 2.402
-5.9590001 10.709 2.3740001
-5.9580002 10.709 2.342
-5.9369998 10.752 2.316
-5.928 10.767 2.286
-5.9130001 10.797 2.2579999
-5.8889999 10.846 2.2320001
-5.8800001 10.861 2.201
-5.8649998 10.892 2.1730001
-5.8559999 10.909 2.1429999
-5.8330002 10.955 2.1159999
-5.763 11.095 2.0999999
-5.75 11.122 2.0699999
-5.7519999 11.118 2.0369999
-5.7459998 11.129 2.006
-5.7449999 11.129 1.973
-5.744 11.128 1.9400001
-5.7480001 11.119 1.9069999
-5.7399998 11.134 1.876
-5.7410002 11.129 1.842
-5.75 11.109 1.808
-5.7389998 11.13 1.777
-5.7340002 11.138 1.745
-5.744 11.116 1.71
-5.744 11.114 1.678
-5.7280002 11.146 1.648
-5.7360001 11.127 1.614
-5.737 11.124 1.581
-5.73 11.126 1.353
-5.7210002 11.142 1.322
-5.7140002 11.142 1.029
-5.7119999 11.143 0.99599999
-5.711 11.145 0.96399999
-5.7199998 11.125 0.93000001
-5.7160001 11.132 0.898
-5.7129998 11.135 0.866
-5.717 11.125 0.833
-5.7160001 11.126 0.80000001
-5.7270002 11.101 0.76700002
-5.7220001 11.11 0.73500001
-5.717 11.118 0.70300001
-5.7210002 11.108 0.67000002
-5.7160001 11.118 0.63800001
-5.717 11.113 0.60500002
-5.7119999 11.122 0.57300001
-5.6859999 11.174 0.542
-5.717 11.107 0.50800002
-5.7220001 11.097 0.47499999
-5.7140002 11.111 0.44299999
-5.7080002 11.122 0.41100001
-5.8109999 11.119 2.9879999
-5.816 11.105 2.9530001
-5.8189998 11.099 2.9189999
-5.796 11.145 2.8929999
-5.8150001 11.103 2.8529999
-5.8299999 11.071 2.8150001
-6.0560002 10.599 2.707
-6.0500002 10.61 2.677
-6.0510001 10.606 2.6440001
-6.053 10.601 2.612
-6.046 10.613 2.582
-6.04 10.625 2.5510001
-6.046 10.611 2.5179999
-6.0409999 10.619 2.487
-6.033 10.635 2.457
-6.0240002 10.651 2.428
-6.007 10.685 2.4000001
-5.9959998 10.706 2.3710001
-5.9860001 10.724 2.342
-5.9699998 10.756 2.3139999
-5.9549999 10.786 2.286
-5.9439998 10.806 2.256
-5.9169998 10.86 2.2309999
-5.9200001 10.853 2.198
-5.9000001 10.892 2.171
-5.888 10.916 2.141
-5.8740001 10.943 2.112
-5.8610001 10.968 2.0829999
-5.849 10.99 2.053
-5.8410001 11.006 2.0220001
-5.8119998 11.065 1.9960001
-5.7800002 11.131 1.971
-5.7750001 11.139 1.939
-5.7779999 11.131 1.906
-5.777 11.131 1.873
-5.7740002 11.136 1.841
-5.7750001 11.133 1.808
-5.7740002 11.133 1.775
-5.7820001 11.114 1.7410001
-5.7709999 11.135 1.71
-5.7670002 11.141 1.678
-5.77 11.133 1.645
-5.763 11.147 1.613
-5.763 11.144 1.581
-5.7649999 11.14 1.548
-5.7589998 11.138 1.3200001
-5.7589998 11.138 1.2869999
-5.7509999 11.138 0.99400002
-5.75 11.139 0.96200001
-5.744 11.149 0.93000001
-5.743 11.149 0.898
-5.743 11.149 0.86500001
-5.7449999 11.142 0.83200002
-5.7600002 11.11 0.79799998
-5.7540002 11.121 0.76599997
-5.7670002 11.091 0.73299998
-5.7490001 11.127 0.70200002
-5.7480001 11.128 0.66900003
-5.7480001 11.125 0.63700002
-5.7360001 11.148 0.60500002
-5.7360001 11.147 0.57300001
-5.744 11.129 0.54000002
-5.7360001 11.143 0.50800002
-5.7399998 11.133 0.47499999
-5.744 11.124 0.442
-5.8569999 11.098 2.9809999
-5.8429999 11.125 2.9530001
-5.8520002 11.104 2.9159999
-5.8400002 11.128 2.8870001
-5.8429999 11.118 2.8529999
-5.836 11.131 2.822
-5.855 11.09 2.783
-5.8590002 11.081 2.7479999
-5.8509998 11.095 2.7179999
-5.8460002 11.104 2.6860001
-6.0359998 10.706 2.5929999
-6.04 10.696 2.559
-6.04 10.695 2.527
-6.04 10.694 2.4949999
-6.0289998 10.716 2.4660001
-6.039 10.692 2.431
-6.0320001 10.704 2.4000001
-6.026 10.717 2.3699999
-6.013 10.74 2.3410001
-5.9980001 10.77 2.313
-5.9920001 10.782 2.283
-5.9749999 10.815 2.2550001
-5.9720001 10.821 2.224
-5.9590001 10.844 2.194
-5.9400001 10.883 2.1670001
-5.927 10.907 2.138
-5.9130001 10.935 2.109
-5.9000001 10.96 2.079
-5.8800001 11 2.052
-5.8660002 11.028 2.0220001
-5.8449998 11.071 1.995
-5.8470001 11.063 1.961
-5.8200002 11.119 1.9349999
-5.8070002 11.143 1.905
-5.8109999 11.133 1.8710001
-5.8119998 11.13 1.8380001
-5.8109999 11.13 1.806
-5.809 11.133 1.773
-5.809 11.133 1.7410001
-5.8070002 11.135 1.7079999
-5.8099999 11.127 1.675
-5.8060002 11.134 1.643
-5.8039999 11.136 1.6109999
-5.803 11.136 1.5779999
-5.8010001 11.139 1.546
-5.7940001 11.152 1.5140001
-5.79 11.147 1.286
-5.79 11.147 1.253
-5.79 11.131 0.95999998
-5.7859998 11.138 0.92799997
-5.776 11.157 0.89700001
-5.7800002 11.146 0.86400002
-5.7859998 11.132 0.83099997
-5.796 11.11 0.79699999
-5.7909999 11.118 0.76499999
-5.7870002 11.125 0.73299998
-5.7849998 11.128 0.70099998
-5.7820001 11.132 0.66799998
-5.7729998 11.148 0.63599998
-5.7709999 11.152 0.60399997
-5.7729998 11.146 0.57200003
-5.7740002 11.141 0.53899997
-5.7740002 11.14 0.50599998
-5.7740002 11.138 0.47400001
-5.882 11.121 2.9820001
-5.8839998 11.113 2.948
-5.8790002 11.123 2.9170001
-5.8720002 11.135 2.8859999
-5.8740001 11.13 2.852
-5.8699999 11.136 2.8199999
-5.8969998 11.077 2.777
-5.8899999 11.093 2.747
-5.9029999 11.063 2.71
-5.8930001 11.083 2.6800001
-5.9000001 11.067 2.645
-5.8920002 11.082 2.6140001
-5.8870001 11.09 2.5829999
-6.0370002 10.775 2.5039999
-6.0320001 10.782 2.473
-6.027 10.791 2.4419999
-6.0289998 10.786 2.4089999
-6.0229998 10.797 2.3789999
-6.02 10.801 2.3469999
-6.0159998 10.808 2.316
-6.02 10.798 2.2820001
-6.0079999 10.822 2.253
-6.0029998 10.83 2.2219999
-5.9780002 10.881 2.197
-5.9689999 10.898 2.1659999
-5.9629998 10.909 2.1359999
-5.9489999 10.936 2.1070001
-5.9250002 10.985 2.0799999
-5.9089999 11.017 2.0510001
-5.9000001 11.033 2.0209999
-5.888 11.057 1.9910001
-5.8699999 11.093 1.962
-5.8470001 11.14 1.9349999
-5.8429999 11.145 1.903
-5.842 11.145 1.87
-5.8429999 11.141 1.837
-5.835 11.156 1.806
-5.835 11.155 1.773
-5.8429999 11.138 1.739
-5.8390002 11.144 1.707
-5.8379998 11.145 1.675
-5.842 11.134 1.641
-5.8369999 11.142 1.609
-5.8280001 11.159 1.5779999
-5.835 11.143 1.544
-5.8299999 11.152 1.512
-5.8260002 11.157 1.48
-5.8169999 11.165 1.253
-5.8299999 11.135 1.219
-5.8499999 11.081 0.92400002
-5.8449998 11.088 0.89200002
-5.849 11.08 0.85900003
-5.8439999 11.088 0.82700002
-5.8410001 11.093 0.79500002
-5.8429999 11.087 0.76300001
-5.8179998 11.136 0.73199999
-5.809 11.153 0.69999999
-5.8039999 11.162 0.66799998
-5.8080001 11.151 0.63499999
-5.8119998 11.142 0.60299999
-5.8080001 11.15 0.57099998
-5.8109999 11.142 0.53799999
-5.8099999 11.14 0.505
-5.9169998 11.123 2.98
-5.9070001 11.143 2.95
-5.915 11.124 2.914
-5.9070001 11.138 2.8829999
-5.9200001 11.11 2.846
-5.927 11.093 2.8099999
-5.9200001 11.107 2.779
-5.9320002 11.079 2.7420001
-5.9439998 11.051 2.7049999
-5.9299998 11.08 2.677
-5.9349999 11.067 2.642
-5.9250002 11.087 2.612
-5.921 11.095 2.5799999
-5.9219999 11.09 2.5469999
-5.9060001 11.121 2.5190001
-5.902 11.128 2.487
-5.9039998 11.125 2.454
-6.013 10.893 2.3889999
-6.0120001 10.895 2.3570001
-6.0180001 10.88 2.323
-6.0159998 10.883 2.2909999
-6.007 10.9 2.2609999
-6.0110002 10.889 2.227
-6.0110002 10.888 2.1949999
-6.0029998 10.903 2.165
-5.9899998 10.929 2.1359999
-5.973 10.963 2.1070001
-5.9650002 10.977 2.0769999
-5.9590001 10.989 2.046
-5.9380002 11.031 2.0179999
-5.9180002 11.072 1.99
-5.908 11.09 1.96
-5.881 11.144 1.933
-5.8740001 11.158 1.902
-5.8790002 11.144 1.868
-5.8740001 11.154 1.836
-5.8740001 11.153 1.804
-5.8769999 11.145 1.77
-5.8720002 11.154 1.739
-5.875 11.144 1.705
-5.8720002 11.149 1.673
-5.8660002 11.16 1.641
-5.855 11.182 1.6109999
-5.8590002 11.172 1.577
-5.8639998 11.16 1.544
-5.8649998 11.155 1.511
-5.8610001 11.162 1.479
-5.8649998 11.153 1.446
-5.8569999 11.157 1.2180001
-5.862 11.145 1.1849999
-5.881 11.09 0.89099997
-5.8730001 11.103 0.85900003
-5.8790002 11.089 0.82599998
-5.8740001 11.098 0.79400003
-5.875 11.094 0.76200002
-5.8720002 11.099 0.73000002
-5.855 11.134 0.699
-5.8390002 11.165 0.667
-5.842 11.157 0.634
-5.8449998 11.148 0.602
-5.8470001 11.143 0.56900001
-5.8400002 11.156 0.537
-5.941 11.149 2.9809999
-5.9460001 11.137 2.9460001
-5.9380002 11.153 2.915
-5.9559999 11.112 2.8759999
-5.954 11.115 2.8429999
-5.9580002 11.105 2.809
-5.9520001 11.115 2.7780001
-5.9660001 11.084 2.74
-5.9580002 11.1 2.7090001
-5.9569998 11.1 2.677
-5.961 11.091 2.6429999
-5.947 11.119 2.6140001
-5.9419999 11.127 2.582
-5.9460001 11.117 2.5480001
-5.9439998 11.119 2.516
-5.9400001 11.126 2.484
-5.934 11.136 2.4530001
-5.9369998 11.129 2.4189999
-5.9359999 11.129 2.3859999
-5.9359999 11.127 2.3529999
-5.9860001 11.021 2.3069999
-6.0040002 10.98 2.2690001
-5.9980001 10.991 2.2379999
-5.9990001 10.987 2.2049999
-5.9949999 10.993 2.1730001
-5.9949999 10.993 2.141
-5.9949999 10.991 2.108
-5.9879999 11.003 2.0769999
-5.9819999 11.014 2.046
-5.9699998 11.038 2.017
-5.9549999 11.067 1.988
-5.9450002 11.088 1.957
-5.908 11.163 1.933
-5.902 11.174 1.901
-5.8940001 11.19 1.8710001
-5.908 11.158 1.835
-5.8990002 11.176 1.804
-5.8979998 11.176 1.771
-5.901 11.167 1.738
-5.8959999 11.175 1.706
-5.8940001 11.179 1.674
-5.9000001 11.165 1.64
-5.8990002 11.165 1.607
-5.901 11.158 1.574
-5.901 11.158 1.5420001
-5.901 11.155 1.5089999
-5.8979998 11.16 1.477
-5.895 11.164 1.4450001
-5.8930001 11.167 1.4119999
-5.8969998 11.147 1.184
-5.8899999 11.158 1.152
-5.9190001 11.083 0.85699999
-5.9109998 11.097 0.82499999
-5.9200001 11.076 0.792
-5.914 11.089 0.75999999
-5.9050002 11.107 0.72899997
-5.9070001 11.1 0.69599998
-5.882 11.151 0.66600001
-5.8730001 11.169 0.634
-5.8860002 11.141 0.60100001
-5.98 11.14 2.9760001
-5.9899998 11.119 2.9400001
-5.9879999 11.121 2.9070001
-5.9949999 11.107 2.872
-5.987 11.12 2.8410001
-5.993 11.106 2.806
-5.9879999 11.116 2.7750001
-5.994 11.102 2.74
-5.9889998 11.109 2.7079999
-5.9910002 11.103 2.674
-5.98 11.124 2.645
-5.973 11.139 2.6140001
-5.96 11.164 2.585
-5.9679999 11.146 2.55
-5.9629998 11.154 2.5179999
-5.9660001 11.146 2.484
-5.9650002 11.146 2.451
-5.9549999 11.166 2.421
-5.9590001 11.155 2.3870001
-5.9569998 11.159 2.355
-5.9559999 11.158 2.322
-5.9489999 11.171 2.2909999
-5.9759998 11.112 2.2509999
-5.9949999 11.071 2.2130001
-5.9970002 11.066 2.1800001
-6.0009999 11.055 2.1459999
-5.9920001 11.071 2.1159999
-5.9879999 11.078 2.0840001
-5.9899998 11.072 2.0510001
-5.9660001 11.122 2.0239999
-5.8870001 11.287 2.01
-5.8920002 11.276 1.976
-5.9169998 11.221 1.937
-5.915 11.222 1.904
-5.9229999 11.203 1.87
-5.9200001 11.208 1.8380001
-5.9239998 11.198 1.804
-5.9200001 11.205 1.772
-5.9260001 11.19 1.738
-5.9229999 11.195 1.706
-5.9219999 11.194 1.673
-5.9229999 11.191 1.64
-5.9250002 11.185 1.607
-5.9320002 11.168 1.573
-5.9239998 11.183 1.5420001
-5.928 11.174 1.5089999
-5.9250002 11.179 1.477
-5.9359999 11.154 1.442
-5.9320002 11.161 1.41
-5.9320002 11.158 1.377
-5.934 11.142 1.149
-5.9219999 11.166 1.118
-5.9460001 11.102 0.824
-5.9510002 11.089 0.79100001
-5.948 11.094 0.759
-5.9439998 11.101 0.727
-5.9369998 11.112 0.69499999
-5.9429998 11.099 0.66299999
-5.9380002 11.107 0.63099998
-6.0250001 11.121 2.97
-6.026 11.116 2.9360001
-6.0229998 11.122 2.904
-6.02 11.129 2.8729999
-6.026 11.113 2.8369999
-6.0180001 11.129 2.8069999
-6.0170002 11.129 2.7739999
-6.0159998 11.131 2.7409999
-6.0180001 11.123 2.707
-5.9910002 11.18 2.6830001
-5.974 11.214 2.6559999
-5.9770002 11.206 2.622
-5.9819999 11.194 2.5869999
-5.9770002 11.203 2.5550001
-5.9749999 11.205 2.523
-5.9759998 11.2 2.4890001
-5.9759998 11.199 2.4560001
-5.973 11.203 2.424
-5.9770002 11.193 2.3900001
-5.9770002 11.192 2.3570001
-5.9679999 11.208 2.326
-5.9660001 11.211 2.2939999
-5.9699998 11.2 2.26
-5.9910002 11.156 2.221
-6.0009999 11.131 2.1860001
-5.9660001 11.205 2.1619999
-5.967 11.199 2.1289999
-5.967 11.199 2.096
-5.974 11.182 2.0610001
-5.9699998 11.19 2.029
-5.9699998 11.188 1.997
-5.961 11.204 1.966
-5.9640002 11.197 1.932
-5.9720001 11.178 1.898
-5.9699998 11.18 1.865
-5.9679999 11.182 1.8329999
-5.9499998 11.218 1.804
-5.9650002 11.186 1.768
-5.9629998 11.188 1.7359999
-5.9629998 11.186 1.7029999
-5.9619999 11.186 1.67
-5.9629998 11.182 1.638
-5.96 11.187 1.605
-5.9619999 11.181 1.572
-5.954 11.195 1.541
-5.9510002 11.2 1.5089999
-5.954 11.194 1.476
-5.948 11.204 1.444
-5.9510002 11.195 1.411
-5.9569998 11.181 1.377
-5.9460001 11.203 1.347
-5.9549999 11.171 1.117
-5.947 11.187 1.086
-5.987 11.086 0.79000002
-5.9819999 11.095 0.75800002
-5.9840002 11.088 0.72600001
-5.973 11.111 0.69400001
-5.9759998 11.102 0.662
-6.053 11.137 2.97
-6.0489998 11.144 2.938
-6.0510001 11.138 2.904
-6.053 11.133 2.8699999
-6.059 11.118 2.835
-6.059 11.115 2.802
-6.0450001 11.145 2.7739999
-6.0320001 11.169 2.7449999
-6.0120001 11.212 2.7179999
-6.0079999 11.218 2.6860001
-6.0100002 11.212 2.6530001
-6.0089998 11.213 2.6199999
-6.006 11.216 2.5869999
-6.007 11.212 2.5539999
-6.0110002 11.202 2.52
-6.0089998 11.205 2.487
-6.0050001 11.211 2.4549999
-6.0040002 11.212 2.4230001
-6.0079999 11.202 2.388
-6.0089998 11.198 2.355
-6.0040002 11.207 2.3239999
-6 11.213 2.2920001
-6.0289998 11.15 2.2509999
-6.0190001 11.168 2.22
-6.0019999 11.204 2.1919999
-6.0009999 11.205 2.1600001
-6.0009999 11.204 2.1270001
-6.0040002 11.193 2.0929999
-6.0009999 11.2 2.0610001
-5.9920001 11.217 2.03
-6.0040002 11.192 1.995
-5.9990001 11.2 1.9630001
-5.9990001 11.198 1.9299999
-6.0029998 11.187 1.896
-5.9990001 11.194 1.865
-6.0019999 11.187 1.831
-5.9949999 11.199 1.8
-5.9980001 11.192 1.767
-5.9990001 11.187 1.734
-5.9970002 11.189 1.701
-5.9949999 11.193 1.669
-5.993 11.195 1.637
-5.993 11.193 1.604
-5.9910002 11.195 1.572
-5.9860001 11.205 1.54
-5.9879999 11.198 1.507
-5.9879999 11.197 1.474
-5.9920001 11.186 1.441
-5.993 11.183 1.408
-5.9879999 11.191 1.376
-5.9850001 11.195 1.344
-5.9879999 11.188 1.311
-5.9819999 11.189 1.084
-5.9850001 11.18 1.052
-6.0149999 11.1 0.75700003
-6.0139999 11.101 0.72500002
-5.967 11.165 0.016000001
-6.0929999 11.129 2.9649999
-6.0910001 11.132 2.9330001
-6.0819998 11.15 2.9030001
-6.0900002 11.13 2.8670001
-6.0780001 11.155 2.8380001
-6.0650001 11.182 2.8099999
-6.0469999 11.218 2.7820001
-6.0510001 11.207 2.7479999
-6.0419998 11.224 2.717
-6.0430002 11.22 2.684
-6.0409999 11.223 2.652
-6.0409999 11.222 2.619
-6.0440001 11.214 2.5840001
-6.0370002 11.226 2.553
-6.039 11.22 2.5190001
-6.0489998 11.197 2.483
-6.0430002 11.208 2.4519999
-6.0380001 11.218 2.421
-6.0430002 11.204 2.3859999
-6.0450001 11.199 2.3529999
-6.033 11.222 2.323
-6.0510001 11.183 2.2850001
-6.0349998 11.215 2.257
-6.04 11.202 2.2219999
-6.039 11.203 2.1900001
-6.0320001 11.215 2.158
-6.0289998 11.222 2.1270001
-6.0339999 11.209 2.092
-6.0339999 11.206 2.059
-6.0320001 11.208 2.027
-6.0279999 11.215 1.995
-6.0310001 11.207 1.962
-6.0310001 11.206 1.929
-6.0250001 11.218 1.898
-6.0310001 11.202 1.863
-6.0300002 11.202 1.831
-6.0279999 11.206 1.799
-6.0320001 11.194 1.765
-6.0279999 11.202 1.733
-6.0240002 11.208 1.701
-6.0240002 11.207 1.668
-6.027 11.199 1.635
-6.02 11.212 1.604
-6.0300002 11.19 1.569
-6.02 11.209 1.539
-6.0219998 11.204 1.506
-6.0229998 11.2 1.473
-6.026 11.193 1.4400001
-6.0180001 11.207 1.408
-6.0250001 11.19 1.375
-6.0149999 11.21 1.344
-6.0170002 11.205 1.311
-6.02 11.196 1.278
-6.0159998 11.195 1.0829999
-6.0170002 11.19 1.051
-6.013 11.197 1.0190001
-5.9990001 11.174 0.048
-6.0009999 11.169 0.016000001
-6.1199999 11.149 2.9660001
-6.1160002 11.155 2.934
-6.1069999 11.175 2.904
-6.1030002 11.182 2.872
-6.0780001 11.234 2.848
-6.0760002 11.236 2.8150001
-6.0780001 11.229 2.7809999
-6.0809999 11.221 2.747
-6.0840001 11.213 2.7130001
-6.0780001 11.225 2.6819999
-6.0809999 11.216 2.648
-6.0799999 11.217 2.615
-6.0749998 11.226 2.5829999
-6.072 11.231 2.5510001
-6.072 11.229 2.5179999
-6.0739999 11.222 2.484
-6.0739999 11.221 2.451
-6.079 11.209 2.4170001
-6.0700002 11.226 2.3859999
-6.0700002 11.223 2.3529999
-6.0689998 11.223 2.3210001
-6.0700002 11.221 2.2880001
-6.0570002 11.245 2.2579999
-6.0710001 11.214 2.221
-6.0710001 11.213 2.188
-6.0710001 11.21 2.1559999
-6.073 11.205 2.122
-6.059 11.233 2.0929999
-6.0700002 11.207 2.0569999
-6.0669999 11.213 2.0250001
-6.0669999 11.211 1.992
-6.0669999 11.21 1.96
-6.0689998 11.203 1.926
-6.0669999 11.206 1.8940001
-6.0630002 11.212 1.862
-6.0630002 11.21 1.829
-6.0640001 11.207 1.7970001
-6.059 11.215 1.765
-6.0609999 11.21 1.732
-6.059 11.211 1.699
-6.059 11.209 1.6670001
-6.0640001 11.198 1.633
-6.0560002 11.212 1.602
-6.0539999 11.215 1.5700001
-6.0549998 11.211 1.5369999
-6.059 11.201 1.5039999
-6.0570002 11.203 1.471
-6.0560002 11.205 1.439
-6.052 11.21 1.4069999
-6.0510001 11.211 1.375
-6.0510001 11.21 1.342
-6.0560002 11.197 1.309
-6.0500002 11.207 1.277
-6.0450001 11.218 1.245
-6.0510001 11.194 1.049
-6.0479999 11.199 1.017
-6.046 11.202 0.98500001
-6.0419998 11.164 0.112
-6.0440001 11.157 0.079999998
-6.0380001 11.169 0.046999998
-6.0320001 11.181 0.015
-6.1479998 11.165 2.9649999
-6.1389999 11.184 2.9360001
-6.1240001 11.214 2.908
-6.112 11.238 2.8789999
-6.1110001 11.238 2.846
-6.1149998 11.227 2.8110001
-6.1079998 11.242 2.78
-6.112 11.232 2.7460001
-6.1110001 11.232 2.7130001
-6.1100001 11.232 2.6800001
-6.1090002 11.233 2.6470001
-6.112 11.224 2.6129999
-6.1110001 11.224 2.5799999
-6.112 11.22 2.5469999
-6.1110001 11.221 2.5139999
-6.1129999 11.216 2.4809999
-6.1139998 11.21 2.447
-6.1040001 11.231 2.4170001
-6.1079998 11.22 2.3829999
-6.1020002 11.231 2.352
-6.1009998 11.231 2.319
-6.1090002 11.213 2.2839999
-6.105 11.219 2.2520001
-6.1100001 11.206 2.2179999
-6.1040001 11.217 2.187
-6.0970001 11.231 2.1559999
-6.1079998 11.205 2.1199999
-6.1020002 11.217 2.089
-6.1100001 11.197 2.0539999
-6.1030002 11.212 2.023
-6.1030002 11.211 1.99
-6.1009998 11.213 1.9579999
-6.0999999 11.212 1.925
-6.0960002 11.219 1.893
-6.1020002 11.205 1.859
-6.0939999 11.221 1.8279999
-6.092 11.222 1.796
-6.1009998 11.203 1.762
-6.0949998 11.213 1.73
-6.0970001 11.207 1.697
-6.0970001 11.205 1.664
-6.092 11.215 1.633
-6.0910001 11.213 1.6
-6.0939999 11.205 1.567
-6.092 11.208 1.535
-6.0910001 11.208 1.502
-6.0910001 11.207 1.47
-6.0929999 11.202 1.437
-6.092 11.202 1.405
-6.0879998 11.208 1.373
-6.0840001 11.216 1.341
-6.0929999 11.193 1.307
-6.0879998 11.203 1.275
-6.092 11.192 1.242
-6.0890002 11.198 1.21
-6.0840001 11.197 1.016
-6.0739999 11.216 0.98400003
-6.0780001 11.209 0.95200002
-6.0700002 11.182 0.14399999
-6.0799999 11.158 0.111
-6.0739999 11.17 0.079000004
-6.0700002 11.176 0.046999998
-6.0679998 11.179 0.015
-6.1360002 11.268 2.98
-6.125 11.29 2.951
-6.1230001 11.295 2.918
-6.1259999 11.285 2.8840001
-6.1300001 11.276 2.849
-6.119 11.298 2.819
-6.1240001 11.284 2.7839999
-6.1220002 11.287 2.7520001
-6.125 11.278 2.717
-6.125 11.277 2.684
-6.1259999 11.272 2.651
-6.1240001 11.275 2.618
-6.1240001 11.275 2.585
-6.1230001 11.274 2.552
-6.1209998 11.277 2.52
-6.1059999 11.307 2.4909999
-6.1079998 11.302 2.457
-6.118 11.278 2.421
-6.1170001 11.277 2.388
-6.1199999 11.272 2.355
-6.1199999 11.27 2.322
-6.1160002 11.277 2.29
-6.119 11.268 2.256
-6.1170001 11.271 2.224
-6.118 11.267 2.1900001
-6.1170001 11.268 2.158
-6.1209998 11.256 2.1240001
-6.1149998 11.269 2.092
-6.1170001 11.263 2.059
-6.119 11.256 2.026
-6.1110001 11.272 1.995
-6.1110001 11.27 1.962
-6.1139998 11.261 1.928
-6.1170001 11.254 1.895
-6.1149998 11.256 1.863
-6.119 11.245 1.829
-6.1149998 11.252 1.7970001
-6.1149998 11.25 1.7640001
-6.1090002 11.261 1.733
-6.1110001 11.254 1.699
-6.112 11.252 1.6670001
-6.1139998 11.245 1.6339999
-6.112 11.247 1.601
-6.1110001 11.249 1.569
-6.105 11.26 1.5369999
-6.1069999 11.253 1.5039999
-6.1009998 11.264 1.473
-6.1100001 11.243 1.438
-6.1059999 11.249 1.406
-6.1149998 11.228 1.372
-6.105 11.248 1.341
-6.112 11.232 1.308
-6.1069999 11.241 1.276
-6.1069999 11.239 1.243
-6.1100001 11.232 1.211
-6.112 11.224 1.178
-6.1020002 11.236 0.98400003
-6.1030002 11.232 0.95099998
-6.099 11.238 0.91900003
-6.099 11.2 0.175
-6.092 11.214 0.14300001
-6.1009998 11.191 0.111
-6.0960002 11.2 0.078000002
-6.0879998 11.216 0.046
-6.099 11.19 0.014
-6.1030002 11.42 2.9690001
-6.0970001 11.432 2.938
-6.1020002 11.419 2.902
-6.1030002 11.415 2.868
-6.092 11.437 2.839
-6.0929999 11.432 2.8050001
-6.0949998 11.427 2.7709999
-6.098 11.417 2.7360001
-6.092 11.43 2.7049999
-6.0970001 11.416 2.6689999
-6.0949998 11.419 2.6370001
-6.0960002 11.414 2.6029999
-6.0999999 11.404 2.5680001
-6.0939999 11.416 2.5369999
-6.099 11.402 2.5020001
-6.0929999 11.414 2.47
-6.0949998 11.409 2.4360001
-6.0960002 11.403 2.4030001
-6.0999999 11.393 2.368
-6.0960002 11.401 2.336
-6.0960002 11.399 2.303
-6.099 11.39 2.2690001
-6.0949998 11.396 2.237
-6.0949998 11.396 2.204
-6.0910001 11.402 2.1719999
-6.092 11.397 2.138
-6.1009998 11.377 2.1029999
-6.0900002 11.398 2.072
-6.092 11.392 2.039
-6.099 11.377 2.0039999
-6.1030002 11.366 1.97
-6.0939999 11.382 1.939
-6.0949998 11.38 1.906
-6.086 11.396 1.875
-6.0949998 11.376 1.84
-6.0949998 11.374 1.807
-6.0949998 11.371 1.774
-6.0890002 11.383 1.742
-6.098 11.362 1.7079999
-6.092 11.373 1.676
-6.098 11.358 1.642
-6.0960002 11.36 1.609
-6.0970001 11.357 1.576
-6.0970001 11.354 1.543
-6.0960002 11.356 1.511
-6.0960002 11.353 1.478
-6.0960002 11.351 1.4450001
-6.0949998 11.353 1.413
-6.0949998 11.35 1.38
-6.0910001 11.356 1.348
-6.0939999 11.349 1.314
-6.0879998 11.359 1.2819999
-6.085 11.365 1.25
-6.098 11.335 1.216
-6.0879998 11.355 1.184
-6.0890002 11.34 0.95499998
-6.085 11.346 0.92299998
-6.0809999 11.319 0.23999999
-6.0819998 11.315 0.207
-6.0879998 11.301 0.175
-6.0830002 11.31 0.142
-6.0780001 11.319 0.11
-6.086 11.3 0.077
-6.0869999 11.295 0.045000002
-6.0929999 11.281 0.013
-6.2399998 11.134 0.301
-6.2389998 11.133 0.26899999
-6.2789998 11.128 0.33199999
-6.2740002 11.139 0.30000001
-6.2709999 11.143 0.26800001
-6.27 11.143 0.236
-6.3140001 11.133 0.39500001
-6.3109999 11.138 0.36399999
-6.3140001 11.13 0.331
-6.3070002 11.143 0.30000001
-6.3099999 11.135 0.26699999
-6.309 11.135 0.235
-6.3049998 11.142 0.20299999
-6.3080001 11.132 0.171
-6.348 11.137 0.42699999
-6.3439999 11.143 0.39500001
-6.349 11.132 0.36300001
-6.3429999 11.143 0.331
-6.348 11.13 0.29899999
-6.3439999 11.136 0.26699999
-6.3400002 11.144 0.235
-6.336 11.151 0.20299999
-6.335 11.152 0.171
-6.3400002 11.138 0.139
-6.3839998 11.132 0.39399999
-6.3730001 11.154 0.36199999
-6.3769999 11.144 0.33000001
-6.3699999 11.158 0.29800001
-6.3759999 11.142 0.266
-6.3790002 11.134 0.234
-6.3720002 11.147 0.20200001
-6.375 11.138 0.17
-6.3699999 11.149 0.138
-6.3629999 11.161 0.106
-6.4039998 11.164 0.361
-6.414 11.14 0.329
-6.4089999 11.147 0.29699999
-6.4099998 11.144 0.26499999
-6.4060001 11.151 0.233
-6.408 11.145 0.20100001
-6.408 11.143 0.169
-6.4050002 11.147 0.13699999
-6.4029999 11.15 0.105
-6.4070001 11.14 0.072999999
-6.428 11.186 0.329
-6.4530001 11.127 0.296
-6.4419999 11.15 0.26499999
-6.4419999 11.149 0.233
-6.4380002 11.157 0.20100001
-6.4439998 11.141 0.169
-6.4349999 11.16 0.13699999
-6.4380002 11.151 0.105
-6.4369998 11.151 0.072999999
-6.4260001 11.174 0.041000001
-6.4569998 11.197 0.296
-6.4809999 11.14 0.264
-6.473 11.155 0.23199999
-6.4749999 11.149 0.2
-6.467 11.165 0.168
-6.474 11.148 0.13600001
-6.473 11.151 0.104
-6.4679999 11.159 0.071999997
-6.474 11.144 0.039999999
-6.4650002 11.164 0.0080000004
-6.4879999 11.202 0.26300001
-6.513 11.143 0.23100001
-6.5110002 11.147 0.199
-6.506 11.157 0.167
-6.5089998 11.148 0.13500001
-6.5100002 11.144 0.103
-6.5009999 11.162 0.071999997
-6.5089998 11.142 0.039999999
-6.5 11.161 0.0080000004
-6.4879999 11.285 0.26300001
-6.5219998 11.206 0.23100001
-6.5409999 11.161 0.199
-6.5479999 11.143 0.167
-6.5409999 11.156 0.13500001
-6.5419998 11.152 0.103
-6.5279999 11.184 0.071000002
-6.5380001 11.158 0.039000001
-6.5339999 11.165 0.0070000002
-6.5190001 11.291 0.23
-6.546 11.228 0.198
-6.5630002 11.185 0.16599999
-6.5760002 11.154 0.134
-6.5760002 11.153 0.102
-6.5700002 11.163 0.07
-6.5669999 11.169 0.037999999
-6.5669999 11.168 0.0070000002
-6.552 11.294 0.198
-6.5619998 11.268 0.16500001
-6.5949998 11.19 0.133
-6.6040001 11.169 0.102
-6.6069999 11.16 0.07
-6.605 11.162 0.037999999
-6.5999999 11.171 0.0060000001
-6.5780001 11.313 0.16500001
-6.5970001 11.266 0.133
-6.6300001 11.189 0.101
-6.6430001 11.156 0.068999998
-6.6350002 11.174 0.037
-6.631 11.18 0.0049999999
-6.6160002 11.302 0.1
-6.6500001 11.22 0.068000004
-6.677 11.155 0.037
-6.6700001 11.17 0.0049999999
-6.6430001 11.318 0.067000002
-6.6750002 11.241 0.035999998
-6.7020001 11.176 0.0040000002
-6.684 11.301 0.035
-6.7059999 11.248 0.003
-6.6929998 11.361 0.0020000001
-5.2199998 11.011 0.035999998
-5.217 11 0.0020000001
-5.2550001 11.01 0.07
-5.2589998 11.017 0.035999998
-5.289 11.003 0.105
-5.2880001 10.999 0.071000002
-5.3309999 11.023 0.139
-5.3280001 11.012 0.105
-5.368 11.03 0.17299999
-5.4029999 11.029 0.208
-5.4489999 11.059 0.27700001
-5.448 11.057 0.242
-5.4770002 11.035 0.31099999
-5.4809999 11.047 0.27700001
-5.5229998 11.064 0.34599999
-5.5669999 11.089 0.38100001
-5.71 11.298 0.45199999
-5.7189999 11.324 0.41800001
-5.7210002 11.328 0.38299999
-5.7179999 11.318 0.34799999
-5.717 11.314 0.31299999
-5.7090001 11.292 0.278
-5.704 11.276 0.243
-5.7090001 11.289 0.208
-5.7030001 11.272 0.17299999
-5.7059999 11.278 0.139
-5.7020001 11.268 0.104
-5.7049999 11.274 0.068999998
-5.7020001 11.264 0.034000002
-5.7160001 11.207 0.48699999
-5.7160001 11.206 0.45199999
-5.7129998 11.197 0.417
-5.7220001 11.219 0.38299999
-5.7220001 11.221 0.34799999
-5.7220001 11.22 0.31299999
-5.7179999 11.205 0.278
-5.7179999 11.205 0.244
-5.7160001 11.199 0.20900001
-5.7160001 11.197 0.17399999
-5.7150002 11.196 0.139
-5.7150002 11.195 0.105
-5.7160001 11.195 0.07
