ply
format ascii 1.0
comment PCL generated
element vertex 505
property float x
property float y
property float z
element camera 1
property float view_px
property float view_py
property float view_pz
property float x_axisx
property float x_axisy
property float x_axisz
property float y_axisx
property float y_axisy
property float y_axisz
property float z_axisx
property float z_axisy
property float z_axisz
property float focal
property float scalex
property float scaley
property float centerx
property float centery
property int viewportx
property int viewporty
property float k1
property float k2
end_header
29.050777 4.5448885 1.6955557
29.110001 4.5819998 1.698
28.932112 4.646111 1.6798888
29.038 4.6456003 1.6888001
28.844419 4.7580833 1.6607502
28.933399 4.7487998 1.6674
29.046429 4.7507148 1.6774286
29.156252 4.7519999 1.686875
28.756666 4.8043327 1.6629167
28.852835 4.8117504 1.66825
28.946335 4.8140836 1.6765833
29.048929 4.8193574 1.6848572
29.160303 4.8271999 1.6878
29.052999 4.4902496 1.70675
29.064999 4.5015001 1.722
29.147001 4.5458822 1.7088823
29.245844 4.5461059 1.7204739
29.45508 4.5483079 1.7519232
29.162502 4.6446667 1.7013334
29.263416 4.6563334 1.7088335
29.36162 4.6472769 1.7343447
29.066999 4.7709999 1.716
29.273748 4.7262502 1.7097501
29.357924 4.7506499 1.75815
29.161499 4.8155003 1.712
29.249334 4.8283339 1.7136668
29.356245 4.8305688 1.7587028
29.070999 4.5780001 1.818
29.112499 4.5810003 1.8385
29.379 4.5915003 1.8015001
29.431667 4.5926666 1.8383335
29.138752 4.6167498 1.87175
29.36702 4.6644673 1.8380224
29.435286 4.6379528 1.8550953
28.653601 4.7406001 1.8862
28.723499 4.73 1.8935
29.35182 4.7462921 1.8465002
28.361267 4.8505588 1.8490585
28.437428 4.8954287 1.8067143
28.537001 4.8874998 1.809
28.671667 4.8876667 1.8823333
28.763735 4.847867 1.8937336
28.820858 4.8581438 1.8972857
29.349045 4.85045 1.8461738
29.449249 4.8834171 1.8161668
28.368725 4.928196 1.870875
28.451406 4.9438725 1.8549842
28.547237 4.9688001 1.8644334
28.648954 4.9667277 1.875909
28.763222 4.9598889 1.883
28.845083 4.9430003 1.8927501
28.924374 4.9581251 1.898
29.054001 4.9943333 1.8863333
29.354063 4.9255867 1.8703793
28.426001 5.02 1.895
28.658749 5.00425 1.89025
28.745287 5.007 1.8895715
28.840399 5.0106001 1.89
28.9534 5.0154004 1.8889999
29.016333 5.0366664 1.898
28.633667 4.6756668 1.9090002
28.775 4.6810002 1.902
28.924999 4.6869998 1.91
29.051334 4.6960001 1.9253334
29.154251 4.6702499 1.92275
29.22575 4.6645002 1.9402499
29.382858 4.6834288 1.9201429
29.434286 4.6785717 1.9270002
28.367016 4.7648039 1.9402145
28.43343 4.7320004 1.948
28.5235 4.7509999 1.9365
28.708 4.704 1.9220001
28.848499 4.7845001 1.903
28.946083 4.7501669 1.9116666
29.05125 4.7510004 1.9230833
29.154099 4.7422504 1.9366997
29.243187 4.7470617 1.9476252
29.347242 4.7547245 1.9270346
29.461 4.71875 1.9354999
28.360224 4.8477335 1.9479554
28.400999 4.8990002 1.988
28.867428 4.8270006 1.903143
28.946003 4.8490829 1.9086665
29.04409 4.8539095 1.9171821
29.137224 4.8525558 1.9242221
29.247749 4.8519998 1.9365001
29.335255 4.848372 1.9270567
28.360579 4.9480882 1.9494796
28.436666 4.9934163 1.9109167
28.537666 4.9750004 1.9043334
28.662334 4.9926667 1.9096668
28.755501 4.9959998 1.9145
28.889999 4.9980001 1.933
28.950891 4.9348888 1.9023334
29.049616 4.949923 1.9083848
29.157288 4.9462862 1.9171429
29.249624 4.9501247 1.931375
28.369265 5.0243268 1.9680409
28.448236 5.0381594 1.9567999
28.519835 5.0278335 1.9570001
28.747665 5.0073333 1.9050001
28.855145 5.0124283 1.9117143
28.948334 5.0169997 1.9146667
29.052601 5.0218005 1.9152669
29.146667 5.0224171 1.9209166
29.251001 5.0269289 1.9297143
29.351423 5.0290003 1.9685768
28.379 4.7880001 2.0065
28.411501 4.7737498 2.0292499
29.365 4.7875004 2.0219998
28.366272 4.8582277 2.036242
28.434938 4.8370628 2.0497501
29.359903 4.8598294 2.0576341
28.359833 4.9465098 2.0489912
29.33909 4.9513903 2.0543334
28.357132 5.0495281 2.0491989
28.443333 5.087111 2.0136666
28.536627 5.086875 2.0291252
29.343058 5.0514708 2.0498333
28.367071 5.1255236 2.0749049
28.447313 5.1372442 2.0664225
28.554855 5.1482863 2.0847855
28.64325 5.1453753 2.096
28.740999 5.1479998 2.095
28.361 4.8990002 2.1070001
28.419374 4.8579998 2.1308751
28.546501 4.8824997 2.119
28.691 4.8850002 2.1110001
28.836 4.8909998 2.1199999
29.087999 4.8800001 2.151
29.153 4.8870001 2.1545
29.222 4.8930001 2.1589999
29.375235 4.8665881 2.1243532
29.42222 4.863667 2.126889
28.360294 4.962605 2.1449854
28.437963 4.947731 2.1661541
28.519001 4.9714999 2.1669998
28.780001 4.9980001 2.1140001
28.838667 4.9880004 2.1193333
28.948624 4.9532499 2.1333127
29.047926 4.9448457 2.1394615
29.146999 4.9524288 2.1480002
29.245924 4.9496927 2.1577694
29.340778 4.943224 2.1398106
29.449499 4.9282002 2.1636
28.355637 5.0460882 2.15168
28.406 5.0599999 2.0999999
28.6735 5.0747499 2.1034999
28.746674 5.060267 2.1094003
28.8465 5.0466423 2.1199284
28.947533 5.0500584 2.1284118
29.053804 5.0524669 2.1381335
29.150671 5.0508003 2.1456003
29.257847 5.0519228 2.1556153
29.331566 5.0501375 2.1328635
28.355524 5.1484771 2.1491883
28.440649 5.1858239 2.1181767
28.545908 5.1713638 2.1164546
28.659279 5.1613331 2.1125557
28.752193 5.1588845 2.1210001
28.847115 5.1660385 2.1245003
28.951296 5.1624074 2.1328149
29.046518 5.1763706 2.1414819
29.1474 5.1607504 2.1440003
29.243612 5.1631665 2.1534445
29.347939 5.1506252 2.1323752
29.442686 5.1734371 2.1290627
28.371309 5.2233124 2.1749372
28.447851 5.2324629 2.1660488
28.516857 5.232286 2.1671429
29.068501 5.2010002 2.1565001
29.149002 5.2161665 2.1515
29.257999 5.2044997 2.168375
29.34906 5.2170558 2.182389
28.378 4.9867501 2.217
28.437288 4.9632854 2.2237144
28.544001 4.9959998 2.2090001
29.351667 4.9660001 2.2106669
29.444199 4.9828 2.2274001
28.363022 5.0541883 2.2419555
28.446957 5.0398002 2.25384
28.526501 5.0640001 2.2614999
29.275 5.0289998 2.204
29.348751 5.0667496 2.2655001
29.447001 5.0222502 2.2646251
28.35265 5.1465263 2.2482891
28.535999 5.1110001 2.2980001
29.248665 5.1766667 2.2073333
29.328674 5.1577821 2.2618477
28.354582 5.2494001 2.2498286
28.4457 5.281261 2.2216086
28.526199 5.2796001 2.2250001
29.334871 5.2488551 2.2497735
28.366076 5.3211856 2.2776296
28.443834 5.3328571 2.2710714
28.508751 5.3415003 2.263
29.351845 5.3126159 2.2800002
29.4345 5.3129997 2.2813749
28.4825 5.4215002 2.296
28.450001 4.9949999 2.309
28.378 5.0907998 2.309
28.439877 5.0853124 2.3269999
28.540668 5.0938334 2.3336666
28.605 5.099 2.352
29.366501 5.0805836 2.3356667
29.435125 5.0611253 2.34375
28.364292 5.1585064 2.3364429
28.447428 5.1369615 2.3607311
28.543358 5.1218567 2.3400717
28.650047 5.1275721 2.3388572
28.747801 5.1340499 2.3487999
28.856646 5.1453524 2.3585298
28.947401 5.1540494 2.3597503
29.047073 5.1562858 2.3691432
29.156454 5.1579094 2.3736365
29.248125 5.1769996 2.380625
29.327173 5.1563969 2.3436036
28.349854 5.2506924 2.3499224
28.662001 5.2797999 2.3192003
28.754749 5.2614374 2.3341248
28.848963 5.2454076 2.3431485
28.955566 5.2464347 2.3523912
29.052351 5.2590499 2.3623502
29.14579 5.2509999 2.369421
29.254999 5.2519369 2.3776248
29.320669 5.2523704 2.3415158
28.353931 5.3489604 2.3478985
28.444847 5.3778086 2.3186154
28.545456 5.3716369 2.3117275
28.652409 5.3463187 2.320091
28.750422 5.3521051 2.3290524
28.850418 5.3511257 2.3399167
28.951193 5.3416667 2.3502858
29.044909 5.3571901 2.3582382
29.142729 5.3534098 2.3661821
29.248665 5.3507223 2.3759997
29.329517 5.3478012 2.3413329
28.36754 5.4197855 2.3776786
28.44898 5.4239283 2.3582385
28.546097 5.41855 2.3262002
28.647112 5.4218335 2.3288336
28.74995 5.4260478 2.340857
28.854002 5.431591 2.3413637
28.947849 5.4426918 2.3513076
29.048391 5.4433475 2.3539569
29.150167 5.4465003 2.3649168
29.252693 5.4555221 2.372087
29.346235 5.4496474 2.376647
29.244667 5.5010004 2.367667
28.386402 5.1900001 2.4196
28.440216 5.1780005 2.4143574
29.127001 5.184 2.4130001
29.36375 5.15275 2.4229999
29.43 5.1590004 2.4306667
28.358212 5.2573605 2.4422288
28.442503 5.228334 2.4549582
28.528999 5.278667 2.4886665
29.341557 5.2566667 2.4615555
29.452999 5.2360001 2.4920001
28.347612 5.3517723 2.4477839
29.152 5.309 2.408
29.330538 5.3591533 2.4662306
28.35317 5.4492583 2.4489074
28.441692 5.4757586 2.4251039
28.541334 5.4810004 2.4636669
29.099001 5.402 2.4000001
29.188999 5.461 2.4000001
29.290504 5.456583 2.4662502
29.330309 5.4543657 2.4652886
28.365524 5.5133157 2.479579
28.447563 5.5306759 2.4771085
28.524124 5.55375 2.4917502
28.312 4.0890002 2.5680001
28.253981 4.1544733 2.5476129
28.348619 4.1216555 2.5523102
28.438433 4.1442862 2.547857
28.347372 4.2764072 2.5485928
28.405716 4.27 2.5570002
28.410999 4.3785 2.5869999
28.36697 4.4452705 2.554527
28.417572 4.4352856 2.5502858
28.370335 4.5108337 2.5911667
28.378668 5.2790003 2.5225
28.434198 5.2735 2.5407
28.527748 5.2773747 2.5161247
29.367201 5.2823997 2.5716
29.422001 5.2730002 2.5396667
28.351637 5.3576069 2.5419245
28.438499 5.3265004 2.5591667
28.546785 5.3216424 2.5631428
28.646286 5.3342142 2.5679288
28.745735 5.3479338 2.5785336
28.853737 5.3500004 2.5846667
28.955997 5.3592501 2.5878999
29.042999 5.3640628 2.5939374
29.294199 5.3678002 2.5579002
29.315184 5.3593941 2.5498636
28.346575 5.4501114 2.5489442
28.657 5.4040003 2.5605001
28.764885 5.4603529 2.5682943
28.848537 5.4482331 2.5757668
28.950119 5.4489231 2.586077
29.046127 5.4520435 2.593739
29.108501 5.4375 2.599
29.29423 5.4563866 2.5461938
29.31386 5.4504137 2.5516553
28.354218 5.5465198 2.552
28.444124 5.5727553 2.5269752
28.544893 5.580369 2.5391052
28.654856 5.567214 2.5546432
28.752293 5.5592918 2.5629168
28.846146 5.548429 2.573
28.951761 5.5472403 2.5848
29.041368 5.5559998 2.5915451
29.120144 5.5675716 2.5971429
29.333672 5.5457134 2.552515
28.365833 5.6140838 2.5824168
28.440275 5.6219592 2.57828
28.538778 5.6097775 2.5669999
28.650915 5.6074162 2.5749166
28.761368 5.6097274 2.5786362
28.862785 5.6135006 2.5832856
28.944092 5.6116362 2.5874546
29.041166 5.6100001 2.5929999
29.136 5.6040001 2.599
28.253267 4.1547999 2.6476114
28.351377 4.1241035 2.6500344
28.437286 4.1431427 2.6477144
28.251228 4.2444172 2.6487143
28.345003 4.2752695 2.6480386
28.429501 4.2575002 2.6518335
28.381237 4.4705238 2.6224287
28.413336 4.4643331 2.648
28.372856 4.5444193 2.6541889
28.414749 4.54775 2.6573334
28.381399 4.6046 2.6818001
28.415001 4.6135001 2.6830001
29.368 5.2909999 2.6010001
28.372112 5.3808889 2.6226668
28.40786 5.3688574 2.6571431
28.66 5.388 2.6110001
28.76 5.348 2.602
28.839001 5.3566666 2.6096668
28.952002 5.3509998 2.6143336
29.063002 5.3544159 2.6149168
29.150822 5.3531818 2.6099091
29.2509 5.3622999 2.6210999
29.327826 5.362783 2.6258698
28.349524 5.4560132 2.6457663
29.08075 5.4679999 2.6082499
29.152302 5.4539504 2.60515
29.255146 5.4388933 2.6133571
29.317902 5.4477496 2.6410999
29.403999 5.4070001 2.678
28.344677 5.5514617 2.6491725
29.083 5.5469999 2.6009998
29.154116 5.5388227 2.6031766
29.256739 5.5442963 2.6112964
29.314503 5.5445833 2.6188335
28.357462 5.6452155 2.6539898
28.438702 5.6691227 2.6340487
28.52125 5.6600003 2.6407499
28.849001 5.6195002 2.6055
28.974201 5.6204004 2.6068001
29.052168 5.6253333 2.6121669
29.157667 5.625267 2.6087337
28.369101 5.7103996 2.6863
28.447998 5.7170548 2.6812778
28.500999 5.7249999 2.652
28.287001 4.099 2.7509999
28.251215 4.1561861 2.7497201
28.349417 4.1257739 2.7467742
28.440287 4.1458573 2.7452857
28.247459 4.2451177 2.7478178
28.339172 4.2770343 2.7438281
28.425001 4.256 2.7610002
28.380426 4.5798578 2.7203808
28.414 4.5564547 2.7415454
28.377354 4.6468697 2.7552898
28.425604 4.6422672 2.7548001
28.3895 4.7069998 2.7905002
28.369663 5.4767785 2.7330003
28.4205 5.434 2.7480001
29.337317 5.4677734 2.7347729
29.429144 5.4565721 2.7348573
28.345001 5.5548544 2.7451336
28.4685 5.5335002 2.7720001
28.664749 5.5249996 2.7877502
28.746714 5.5537143 2.7917144
28.842402 5.5738001 2.7976
29.286032 5.5694828 2.7609031
29.31229 5.544064 2.7490966
28.344439 5.6498504 2.7473443
28.6875 5.6824999 2.779
28.753002 5.6603117 2.7853751
28.838581 5.6555266 2.7945788
29.30892 5.6409998 2.7452915
28.354237 5.7454295 2.7540538
28.439461 5.7648787 2.7362437
28.555876 5.7614374 2.7595625
28.650719 5.7485595 2.7741201
28.747217 5.7484775 2.7839131
28.849163 5.7515001 2.7940834
28.925249 5.7464995 2.7985001
29.286341 5.7338285 2.7627561
28.368999 5.8064289 2.7900002
28.45578 5.8207502 2.7756562
28.545712 5.8347087 2.7687087
28.647423 5.8371053 2.7782104
28.742859 5.8352385 2.7834761
28.844337 5.8409443 2.7925556
28.913801 5.8180003 2.7977998
28.306499 4.0915003 2.845
28.248611 4.1586332 2.8483288
28.34642 4.129354 2.8474193
28.429401 4.145 2.8424001
28.248026 4.245347 2.8492138
28.337677 4.2780399 2.8466802
28.426857 4.2544289 2.8545716
28.380154 4.6763849 2.8199232
28.424665 4.664 2.8428333
28.378613 4.7417994 2.8536997
28.409752 4.7524366 2.8571253
28.3745 4.8125 2.8899999
28.417999 5.4970002 2.8110001
29.3664 5.4840002 2.8464
28.362158 5.576158 2.8287895
28.404499 5.5517502 2.8610001
28.504 5.5219998 2.802
28.678001 5.5205002 2.803
28.759501 5.533 2.8142498
28.860498 5.5468001 2.8108001
28.950417 5.5539999 2.8147497
29.054501 5.5625 2.828346
29.148081 5.5606403 2.8364401
29.263498 5.5635309 2.8351877
29.332773 5.5491934 2.8373227
28.344044 5.6552043 2.8446262
28.426001 5.6059999 2.8499999
28.875904 5.6417999 2.8067999
28.948843 5.6446881 2.8072188
29.044622 5.6484828 2.8157587
29.148167 5.6516247 2.8260839
29.267015 5.6506004 2.82812
29.304331 5.6530004 2.8167777
28.345699 5.7500305 2.8494387
28.883251 5.7407503 2.80075
28.955908 5.7484097 2.8049998
29.052111 5.751924 2.8141158
29.151808 5.7515383 2.822808
29.263115 5.7486825 2.8249772
28.352003 5.8433919 2.8553586
28.437431 5.862071 2.8396668
28.537376 5.849875 2.8296249
28.6705 5.8494997 2.8179998
28.748285 5.8592858 2.8152859
28.844603 5.8688006 2.8096001
28.951078 5.8497696 2.8106925
29.049137 5.850389 2.8138335
29.149769 5.8497095 2.8246777
28.37343 5.9057145 2.8911428
28.441771 5.9243846 2.8850002
28.507 5.987 2.888
29.181 5.9276671 2.829
29.204 5.9000001 2.8280001
29.324501 5.9084997 2.8569999
28.304001 4.098 2.9679999
28.251837 4.1568079 2.9475632
28.347931 4.1306896 2.9461381
28.419998 4.1443329 2.9526668
28.250484 4.2462702 2.9503093
28.353073 4.2740769 2.9520001
28.436249 4.2524996 2.9315
28.379248 4.7813129 2.9196875
28.416687 4.7637887 2.9416316
28.379492 4.8420157 2.9556882
28.422617 4.8450956 2.9600477
28.4065 4.9029999 2.9920001
29.372501 5.5819998 2.9419999
28.354353 5.6709571 2.9286089
28.41725 5.6487498 2.9419999
29.290602 5.6798 2.9258001
29.337627 5.6570525 2.9428947
28.339687 5.7539992 2.9480238
29.287365 5.747364 2.9687276
29.330997 5.7372499 2.9658751
28.337902 5.8498259 2.950592
28.6668 5.8839998 2.9843998
28.743431 5.8664279 2.9952857
29.275579 5.8580575 2.9605196
29.341888 5.8803334 2.9238887
28.352453 5.9419994 2.9557259
28.445551 5.9612274 2.9419823
28.553875 5.9674377 2.96525
28.651999 5.9568696 2.9830437
28.745138 5.9449549 2.9932272
28.820333 5.9716663 2.9973335
29.276899 5.9296751 2.9713249
28.363668 6.0020003 2.9966667
28.459484 6.0345454 2.9777279
28.544394 6.0413928 2.9748218
28.64584 6.0361595 2.9814
28.748047 6.0349998 2.9895239
28.833889 6.0547776 2.9967778
28.785999 5.9689999 3
0 0 0 1 0 0 0 1 0 0 0 1 0 0 0 0 0 505 1 0 0
