ply
format ascii 1.0
comment PCL generated
element vertex 1781
property float x
property float y
property float z
element camera 0
property float view_px
property float view_py
property float view_pz
property float x_axisx
property float x_axisy
property float x_axisz
property float y_axisx
property float y_axisy
property float y_axisz
property float z_axisx
property float z_axisy
property float z_axisz
property float focal
property float scalex
property float scaley
property float centerx
property float centery
property int viewportx
property int viewporty
property float k1
property float k2
end_header
19.541 -4.7150002 0.43599999
19.525999 -4.7319999 0.43000001
19.531 -4.7259998 0.42300001
19.538 -4.7189999 0.41600001
19.534 -4.723 0.41
19.537001 -4.7189999 0.403
19.518 -4.7420001 0.39700001
19.530001 -4.7270002 0.38999999
19.533001 -4.723 0.38299999
19.528999 -4.7280002 0.377
19.527 -4.73 0.37
19.535999 -4.7199998 0.36300001
19.535 -4.7210002 0.35699999
19.537001 -4.7189999 0.34999999
19.528999 -4.7280002 0.34400001
19.545 -4.7090001 0.33700001
19.535 -4.7210002 0.33000001
19.537001 -4.7179999 0.324
19.531 -4.7249999 0.317
19.528 -4.7280002 0.31099999
19.531 -4.7249999 0.30399999
19.532 -4.724 0.29699999
19.538 -4.717 0.29100001
19.514999 -4.743 0.28400001
19.532 -4.724 0.27700001
19.521999 -4.7350001 0.271
19.531 -4.724 0.264
19.524 -4.7319999 0.25799999
19.542999 -4.71 0.25099999
19.527 -4.7290001 0.244
19.535999 -4.717 0.23800001
19.527 -4.7290001 0.23100001
19.521 -4.7350001 0.22400001
19.521 -4.7350001 0.21799999
19.535 -4.7189999 0.211
19.534 -4.7199998 0.205
19.516001 -4.7399998 0.197
19.521999 -4.7329998 0.191
19.531 -4.723 0.185
19.517 -4.7399998 0.177
19.52 -4.7360001 0.171
19.523001 -4.7329998 0.164
19.525 -4.7290001 0.15800001
19.521999 -4.7329998 0.15099999
19.531 -4.7220001 0.145
19.51 -4.7470002 0.13699999
19.528 -4.7259998 0.131
19.528 -4.7249999 0.125
19.518999 -4.7360001 0.118
19.521 -4.7340002 0.111
19.52 -4.7340002 0.104
19.523001 -4.7309999 0.097999997
19.517 -4.7379999 0.090999998
19.530001 -4.723 0.085000001
19.525 -4.7290001 0.078000002
19.52 -4.7340002 0.071000002
19.527 -4.7259998 0.064999998
19.521 -4.7319999 0.057999998
19.528 -4.7249999 0.052000001
19.504999 -4.7509999 0.043000001
19.518999 -4.7350001 0.037
19.52 -4.7340002 0.030999999
19.521999 -4.7309999 0.025
19.518999 -4.7340002 0.017999999
19.517 -4.737 0.011
19.504999 -4.7509999 0.003
19.593 -4.7020001 2.984
19.593 -4.7010002 2.973
19.591999 -4.7030001 2.9649999
19.591 -4.7030001 2.9560001
19.598 -4.6950002 2.938
19.589001 -4.7049999 2.938
19.587 -4.7069998 2.9300001
19.594999 -4.698 2.9119999
19.598 -4.6939998 2.8989999
19.583 -4.7119999 2.9059999
19.587999 -4.7059999 2.8900001
19.598 -4.6939998 2.8699999
19.593 -4.6989999 2.865
19.589001 -4.704 2.859
19.594 -4.698 2.8440001
19.583 -4.711 2.846
19.591 -4.7010002 2.829
19.584999 -4.7080002 2.825
19.593 -4.6989999 2.8069999
19.587999 -4.7049999 2.803
19.59 -4.7020001 2.7909999
19.593 -4.6989999 2.779
19.59 -4.7020001 2.773
19.597 -4.6929998 2.756
19.597 -4.6929998 2.7460001
19.594 -4.697 2.74
19.586 -4.7059999 2.7390001
19.594 -4.697 2.721
19.601999 -4.6869998 2.704
19.594 -4.697 2.7030001
19.603001 -4.6859999 2.684
19.591 -4.6999998 2.687
19.587999 -4.7030001 2.681
19.584999 -4.7059999 2.674
19.598 -4.691 2.652
19.594999 -4.6939998 2.645
19.601 -4.6869998 2.631
19.596001 -4.6939998 2.6270001
19.593 -4.697 2.6210001
19.596001 -4.6929998 2.609
19.598 -4.6900001 2.5969999
19.598 -4.6900001 2.5880001
19.596001 -4.6929998 2.5810001
19.596001 -4.6919999 2.572
19.593 -4.6950002 2.566
19.596001 -4.6919999 2.5539999
19.587999 -4.7010002 2.553
19.605 -4.6810002 2.5280001
19.591 -4.697 2.5320001
19.597 -4.691 2.5179999
19.597 -4.6900001 2.5079999
19.597 -4.6900001 2.4990001
19.606001 -4.6799998 2.483
19.6 -4.6859999 2.4790001
19.603001 -4.6820002 2.467
19.59 -4.698 2.471
19.601 -4.6849999 2.4519999
19.598 -4.6869998 2.4449999
19.607 -4.677 2.4289999
19.584999 -4.7030001 2.4400001
19.598 -4.6880002 2.4200001
19.603001 -4.6820002 2.4070001
19.594 -4.6919999 2.405
19.591999 -4.6939998 2.3989999
19.606001 -4.678 2.378
19.593 -4.6929998 2.381
19.594 -4.691 2.3710001
19.594 -4.6919999 2.3629999
19.601999 -4.6820002 2.3469999
19.599001 -4.6849999 2.3410001
19.603001 -4.6810002 2.329
19.589001 -4.697 2.332
19.594999 -4.6900001 2.319
19.598 -4.6849999 2.3069999
19.599001 -4.6849999 2.299
19.597 -4.6869998 2.2920001
19.597 -4.6869998 2.283
19.6 -4.6830001 2.2720001
19.604 -4.678 2.2609999
19.6 -4.6830001 2.256
19.599001 -4.684 2.2479999
19.608 -4.6729999 2.2320001
19.603001 -4.6789999 2.2279999
19.591999 -4.691 2.2279999
19.599001 -4.684 2.2149999
19.599001 -4.6830001 2.2060001
19.603001 -4.6789999 2.1949999
19.598 -4.6849999 2.191
19.604 -4.677 2.177
19.599001 -4.6830001 2.1730001
19.6 -4.6820002 2.165
19.591999 -4.691 2.1630001
19.598 -4.6830001 2.1489999
19.596001 -4.6859999 2.1429999
19.611 -4.6680002 2.1229999
19.604 -4.677 2.1210001
19.599001 -4.6830001 2.1170001
19.601999 -4.678 2.1059999
19.6 -4.6810002 2.099
19.598 -4.6830001 2.0929999
19.593 -4.6890001 2.0880001
19.597 -4.684 2.0780001
19.601999 -4.6789999 2.066
19.591999 -4.6890001 2.0650001
19.593 -4.6880002 2.056
19.594 -4.6869998 2.0469999
19.603001 -4.6760001 2.033
19.598 -4.6820002 2.0280001
19.596001 -4.684 2.0220001
19.594 -4.6859999 2.0150001
19.59 -4.691 2.01
19.59 -4.691 2.0020001
19.603001 -4.6760001 1.985
19.598 -4.6820002 1.9809999
19.593 -4.6869998 1.977
19.594 -4.6859999 1.9680001
19.594999 -4.6849999 1.959
19.599001 -4.6799998 1.949
19.594 -4.6859999 1.944
19.594999 -4.684 1.936
19.601999 -4.6760001 1.923
19.597 -4.6820002 1.919
19.598 -4.6799998 1.91
19.599001 -4.6789999 1.902
19.594 -4.684 1.897
19.594999 -4.6830001 1.8890001
19.597 -4.6820002 1.88
19.586 -4.6939998 1.88
19.599001 -4.6789999 1.863
19.591 -4.6880002 1.8609999
19.591999 -4.6859999 1.852
19.598 -4.6789999 1.841
19.591 -4.6869998 1.837
19.596001 -4.6820002 1.827
19.591 -4.6880002 1.823
19.594999 -4.6830001 1.812
19.59 -4.6880002 1.808
19.597 -4.6789999 1.795
19.596001 -4.6810002 1.789
19.594 -4.6830001 1.7819999
19.594999 -4.6820002 1.774
19.596001 -4.6799998 1.766
19.594999 -4.6820002 1.7589999
19.59 -4.6880002 1.755
19.591 -4.6859999 1.7460001
19.59 -4.6880002 1.74
19.591 -4.6859999 1.7309999
19.586 -4.6919999 1.727
19.587 -4.6900001 1.7180001
19.591 -4.6859999 1.709
19.596001 -4.6799998 1.699
19.597 -4.6789999 1.6900001
19.594999 -4.6799998 1.684
19.587999 -4.6890001 1.681
19.583 -4.6950002 1.676
19.584 -4.6929998 1.668
19.589001 -4.6880002 1.658
19.587 -4.6900001 1.651
19.591999 -4.684 1.641
19.59 -4.6859999 1.635
19.591 -4.684 1.627
19.587 -4.6890001 1.622
19.576 -4.7020001 1.62
19.589001 -4.6859999 1.6059999
19.582001 -4.6950002 1.602
19.580999 -4.6960001 1.596
19.594 -4.6810002 1.581
19.583 -4.6929998 1.58
19.584999 -4.691 1.572
19.586 -4.6890001 1.563
19.594 -4.6799998 1.552
19.589001 -4.6859999 1.5470001
19.582001 -4.6939998 1.544
19.586 -4.6890001 1.534
19.587999 -4.6869998 1.526
19.583 -4.6919999 1.521
19.584999 -4.6900001 1.513
19.586 -4.6880002 1.505
19.587999 -4.6859999 1.497
19.587 -4.6880002 1.49
19.582001 -4.6929998 1.485
19.58 -4.6950002 1.479
19.576 -4.6999998 1.474
19.587 -4.6869998 1.461
19.594999 -4.677 1.45
19.594 -4.6789999 1.444
19.594999 -4.677 1.436
19.6 -4.671 1.426
19.594999 -4.677 1.4220001
19.601 -4.6700001 1.4119999
19.587 -4.6859999 1.411
19.591999 -4.6799998 1.402
19.584 -4.6890001 1.398
19.589001 -4.6830001 1.3890001
19.587999 -4.6849999 1.382
19.593 -4.6789999 1.373
19.601 -4.6690001 1.362
19.587 -4.6849999 1.3609999
19.594999 -4.6760001 1.351
19.597 -4.6729999 1.3430001
19.599001 -4.671 1.335
19.594999 -4.6760001 1.33
19.59 -4.6810002 1.325
19.591999 -4.6789999 1.317
19.594 -4.677 1.309
19.59 -4.6820002 1.304
19.604 -4.665 1.291
19.597 -4.6729999 1.2869999
19.598 -4.671 1.279
19.594 -4.6760001 1.274
19.601999 -4.6659999 1.2640001
19.598 -4.671 1.258
19.594 -4.6760001 1.253
19.586 -4.6849999 1.249
19.570999 -4.7030001 1.249
19.531 -4.75 1.257
19.533001 -4.7470002 1.25
19.525 -4.756 1.245
19.527 -4.7540002 1.237
19.535999 -4.744 1.227
19.538 -4.7410002 1.219
19.555 -4.7199998 1.205
19.563999 -4.71 1.1950001
19.575001 -4.697 1.184
19.568001 -4.7049999 1.1799999
19.579 -4.6919999 1.169
19.575001 -4.6960001 1.163
19.565001 -4.7090001 1.16
19.573 -4.6989999 1.15
19.575001 -4.6960001 1.143
19.577 -4.6939998 1.135
19.563999 -4.7090001 1.133
19.566 -4.7069998 1.125
19.566 -4.7069998 1.118
19.563999 -4.7090001 1.112
19.563 -4.71 1.105
19.562 -4.711 1.099
19.563999 -4.7090001 1.091
19.572001 -4.698 1.081
19.577999 -4.6919999 1.073
19.573999 -4.697 1.067
19.559999 -4.7129998 1.0650001
19.565001 -4.7059999 1.056
19.561001 -4.711 1.051
19.559999 -4.7119999 1.044
19.569 -4.7020001 1.035
19.568001 -4.7030001 1.028
19.573 -4.6960001 1.02
19.563 -4.7080002 1.016
19.565001 -4.7049999 1.008
19.568001 -4.7020001 1.001
19.561001 -4.71 0.99599999
19.569 -4.7010002 0.98699999
19.562 -4.7090001 0.98199999
19.563999 -4.7059999 0.97500002
19.559999 -4.711 0.96899998
19.563 -4.7069998 0.96100003
19.562 -4.7090001 0.95499998
19.556 -4.7150002 0.94999999
19.561001 -4.71 0.94199997
19.545 -4.7280002 0.93900001
19.556 -4.7150002 0.92900002
19.549 -4.723 0.92400002
19.549999 -4.7220001 0.917
19.556999 -4.7129998 0.90899998
19.562 -4.7080002 0.90100002
19.561001 -4.7090001 0.89399999
19.558001 -4.7129998 0.88800001
19.559999 -4.71 0.88099998
19.566 -4.7030001 0.87300003
19.562 -4.7080002 0.86699998
19.552 -4.7189999 0.86199999
19.552 -4.7199998 0.85600001
19.566 -4.7020001 0.84600002
19.555 -4.7150002 0.84200001
19.552 -4.7189999 0.83600003
19.561001 -4.7080002 0.82700002
19.556 -4.7129998 0.82099998
19.552999 -4.717 0.815
19.556 -4.7140002 0.80800003
19.561001 -4.7080002 0.80000001
19.549 -4.7210002 0.796
19.559 -4.71 0.787
19.552999 -4.717 0.78100002
19.558001 -4.71 0.77399999
19.556999 -4.7119999 0.76700002
19.554001 -4.7150002 0.76099998
19.556 -4.7119999 0.75400001
19.555 -4.7140002 0.74699998
19.555 -4.7129998 0.741
19.556999 -4.711 0.73400003
19.561001 -4.7069998 0.72600001
19.554001 -4.7150002 0.72100002
19.552 -4.717 0.71499997
19.538 -4.7329998 0.70999998
19.552999 -4.7160001 0.70099998
19.546 -4.724 0.69599998
19.551001 -4.717 0.68800002
19.555 -4.7129998 0.68099999
19.549999 -4.7179999 0.67500001
19.541 -4.7290001 0.67000002
19.556 -4.711 0.66000003
19.546 -4.7220001 0.65499997
19.542999 -4.7270002 0.64899999
19.556999 -4.71 0.63999999
19.559999 -4.7059999 0.63300002
19.549999 -4.717 0.62800002
19.549999 -4.7179999 0.62099999
19.546 -4.7220001 0.61500001
19.561001 -4.704 0.60699999
19.555 -4.7119999 0.60100001
19.547001 -4.7199998 0.59500003
19.548 -4.7199998 0.588
19.552 -4.7140002 0.58099997
19.542 -4.7259998 0.57599998
19.535 -4.7350001 0.56999999
19.534 -4.7360001 0.56300002
19.549999 -4.717 0.55500001
19.542 -4.7259998 0.54900002
19.540001 -4.7280002 0.54299998
19.541 -4.7259998 0.53600001
19.551001 -4.7150002 0.528
19.549999 -4.7160001 0.52200001
19.549999 -4.7160001 0.51499999
19.546 -4.7199998 0.509
19.538 -4.7290001 0.50300002
19.539 -4.7290001 0.49599999
19.540001 -4.7270002 0.48899999
19.538 -4.7290001 0.48300001
19.537001 -4.7309999 0.477
19.538 -4.73 0.47
19.528 -4.7420001 0.46399999
19.538 -4.7290001 0.456
19.537001 -4.7309999 0.44999999
19.528999 -4.7399998 0.44400001
19.533001 -4.7350001 0.43700001
19.549 -4.7160001 0.42899999
19.539 -4.7270002 0.42300001
19.528999 -4.7389998 0.417
19.535999 -4.7309999 0.41
19.544001 -4.7220001 0.403
19.542 -4.723 0.396
19.545 -4.7210002 0.38999999
19.538 -4.7280002 0.38299999
19.535 -4.7309999 0.377
19.545 -4.7199998 0.37
19.535 -4.7319999 0.36399999
19.525 -4.743 0.35699999
19.535 -4.7309999 0.34999999
19.528 -4.7389998 0.34400001
19.533001 -4.7329998 0.33700001
19.531 -4.7350001 0.331
19.546 -4.7179999 0.324
19.549 -4.7140002 0.317
19.533001 -4.7329998 0.31099999
19.546 -4.7179999 0.30399999
19.535999 -4.7290001 0.29699999
19.539 -4.7259998 0.29100001
19.546 -4.717 0.28400001
19.535999 -4.7290001 0.27700001
19.527 -4.7389998 0.271
19.533001 -4.7319999 0.264
19.532 -4.7329998 0.257
19.542 -4.7210002 0.25099999
19.535 -4.7290001 0.244
19.542 -4.7220001 0.23800001
19.535 -4.7290001 0.23100001
19.538 -4.7249999 0.22400001
19.538 -4.7249999 0.21799999
19.532 -4.7329998 0.211
19.535 -4.7290001 0.204
19.532 -4.7319999 0.198
19.525999 -4.7389998 0.191
19.540001 -4.723 0.185
19.527 -4.737 0.178
19.540001 -4.723 0.17200001
19.525999 -4.7389998 0.164
19.528 -4.7360001 0.15800001
19.534 -4.7290001 0.15099999
19.531 -4.7329998 0.145
19.534 -4.7290001 0.138
19.525 -4.7389998 0.131
19.528 -4.7360001 0.124
19.521999 -4.7420001 0.117
19.525999 -4.7379999 0.111
19.530001 -4.7329998 0.105
19.525 -4.7389998 0.097999997
19.528999 -4.7340002 0.090999998
19.534 -4.7280002 0.085000001
19.535999 -4.7259998 0.078000002
19.534 -4.7280002 0.071999997
19.528999 -4.7329998 0.064999998
19.523001 -4.7410002 0.057
19.523001 -4.7410002 0.050999999
19.527 -4.7360001 0.044
19.524 -4.7399998 0.037
19.524 -4.7389998 0.030999999
19.523001 -4.7399998 0.024
19.525 -4.7379999 0.017999999
19.535999 -4.724 0.012
19.527 -4.7350001 0.0040000002
19.586 -4.7199998 2.977
19.587999 -4.717 2.964
19.596001 -4.7069998 2.9460001
19.596001 -4.7080002 2.9360001
19.587 -4.7179999 2.9360001
19.597 -4.7059999 2.9159999
19.591 -4.7129998 2.9119999
19.587999 -4.717 2.905
19.587999 -4.717 2.8959999
19.593 -4.711 2.881
19.59 -4.7140002 2.8740001
19.587 -4.7179999 2.868
19.586 -4.7179999 2.858
19.594 -4.7090001 2.8410001
19.601999 -4.6989999 2.823
19.591 -4.7119999 2.825
19.593 -4.7090001 2.813
19.591999 -4.711 2.8039999
19.594 -4.7080002 2.793
19.591999 -4.71 2.7850001
19.6 -4.7010002 2.7679999
19.594 -4.7069998 2.7639999
19.594 -4.7069998 2.7550001
19.594 -4.7069998 2.7449999
19.594 -4.7069998 2.7360001
19.586 -4.7160001 2.734
19.591 -4.711 2.72
19.593 -4.7069998 2.7079999
19.593 -4.7069998 2.6989999
19.601 -4.698 2.6819999
19.593 -4.7069998 2.6800001
19.596001 -4.704 2.6689999
19.597 -4.7030001 2.658
19.594999 -4.7049999 2.651
19.594999 -4.704 2.641
19.604 -4.6929998 2.6229999
19.591999 -4.7069998 2.6259999
19.598 -4.7010002 2.6110001
19.601 -4.697 2.5999999
19.594999 -4.704 2.596
19.593 -4.7069998 2.589
19.593 -4.7059999 2.5799999
19.579 -4.7220001 2.5840001
19.598 -4.6989999 2.556
19.596001 -4.7020001 2.55
19.596001 -4.7020001 2.5409999
19.584999 -4.7150002 2.5420001
19.587999 -4.711 2.53
19.596001 -4.7010002 2.5139999
19.599001 -4.697 2.5020001
19.586 -4.7140002 2.506
19.594 -4.7030001 2.4890001
19.603001 -4.6929998 2.4719999
19.597 -4.6989999 2.4679999
19.587 -4.7119999 2.4690001
19.601 -4.6950002 2.448
19.601 -4.6950002 2.4389999
19.599001 -4.697 2.4319999
19.599001 -4.697 2.4230001
19.608 -4.6859999 2.4070001
19.587999 -4.7090001 2.415
19.591999 -4.7049999 2.404
19.603001 -4.691 2.385
19.591999 -4.704 2.3859999
19.601 -4.6939998 2.369
19.599001 -4.6960001 2.3629999
19.601 -4.6929998 2.352
19.591 -4.7049999 2.352
19.601999 -4.6919999 2.3340001
19.605 -4.6880002 2.323
19.597 -4.697 2.3210001
19.591999 -4.7030001 2.3169999
19.604 -4.6890001 2.2980001
19.601999 -4.6919999 2.2920001
19.597 -4.698 2.2880001
19.597 -4.697 2.279
19.589001 -4.7059999 2.277
19.598 -4.6960001 2.2609999
19.599001 -4.6950002 2.2520001
19.599001 -4.6939998 2.244
19.597 -4.6960001 2.237
19.6 -4.6919999 2.2260001
19.598 -4.6950002 2.2190001
19.601999 -4.691 2.2079999
19.594 -4.6999998 2.2060001
19.597 -4.6960001 2.1949999
19.604 -4.6880002 2.1819999
19.607 -4.684 2.171
19.601999 -4.6890001 2.1670001
19.611 -4.678 2.151
19.601 -4.691 2.151
19.604 -4.6869998 2.1400001
19.605 -4.6859999 2.132
19.606001 -4.6849999 2.1229999
19.601 -4.6900001 2.119
19.598 -4.6929998 2.112
19.608 -4.6820002 2.0969999
19.6 -4.691 2.095
19.601 -4.6900001 2.086
19.607 -4.6820002 2.073
19.594 -4.698 2.075
19.6 -4.6900001 2.062
19.601 -4.6890001 2.0539999
19.605 -4.684 2.043
19.603001 -4.6869998 2.036
19.601 -4.6890001 2.03
19.596001 -4.6950002 2.026
19.601999 -4.6869998 2.013
19.603001 -4.6859999 2.0050001
19.607 -4.6810002 1.994
19.599001 -4.6900001 1.992
19.606001 -4.6820002 1.979
19.598 -4.691 1.976
19.601999 -4.6869998 1.966
19.603001 -4.6849999 1.957
19.594999 -4.6950002 1.955
19.599001 -4.6900001 1.944
19.598 -4.691 1.937
19.598 -4.691 1.929
19.601999 -4.6859999 1.919
19.608999 -4.677 1.906
19.601 -4.6869998 1.904
19.59 -4.6989999 1.903
19.594999 -4.6939998 1.893
19.605 -4.6820002 1.878
19.6 -4.6880002 1.874
19.601 -4.6869998 1.865
19.599001 -4.6890001 1.859
19.591 -4.698 1.8559999
19.598 -4.6890001 1.844
19.601999 -4.684 1.834
19.610001 -4.6760001 1.821
19.608 -4.678 1.8150001
19.6 -4.6869998 1.812
19.604 -4.6820002 1.802
19.601999 -4.684 1.795
19.601 -4.6859999 1.789
19.601999 -4.684 1.781
19.594 -4.6929998 1.778
19.601 -4.6849999 1.766
19.594 -4.6939998 1.763
19.598 -4.6880002 1.753
19.591 -4.6960001 1.749
19.6 -4.6859999 1.7359999
19.601 -4.684 1.728
19.601999 -4.6820002 1.72
19.604 -4.6810002 1.711
19.611 -4.6719999 1.7
19.594 -4.6919999 1.702
19.608 -4.6760001 1.687
19.606001 -4.678 1.6799999
19.599001 -4.6859999 1.677
19.6 -4.6849999 1.669
19.598 -4.6869998 1.663
19.605 -4.678 1.651
19.594999 -4.6900001 1.65
19.593 -4.6919999 1.643
19.598 -4.6869998 1.633
19.599001 -4.6849999 1.625
19.597 -4.6869998 1.619
19.596001 -4.6890001 1.612
19.597 -4.6869998 1.604
19.596001 -4.6890001 1.598
19.597 -4.6869998 1.589
19.593 -4.6919999 1.585
19.591 -4.6939998 1.5779999
19.589001 -4.6960001 1.571
19.594 -4.6900001 1.562
19.601999 -4.6810002 1.55
19.579 -4.7069998 1.5549999
19.593 -4.691 1.541
19.591 -4.6929998 1.534
19.598 -4.6849999 1.523
19.587999 -4.6960001 1.521
19.593 -4.691 1.511
19.591 -4.6919999 1.505
19.601999 -4.6789999 1.492
19.589001 -4.6950002 1.492
19.598 -4.6849999 1.48
19.597 -4.6849999 1.473
19.580999 -4.704 1.474
19.589001 -4.6939998 1.4630001
19.608999 -4.6700001 1.446
19.611 -4.6680002 1.438
19.6 -4.6810002 1.436
19.608 -4.671 1.425
19.594999 -4.6869998 1.424
19.605 -4.6739998 1.4119999
19.607 -4.6719999 1.404
19.603001 -4.677 1.399
19.594999 -4.6859999 1.395
19.606001 -4.6729999 1.383
19.601999 -4.678 1.378
19.604 -4.6760001 1.37
19.6 -4.6810002 1.365
19.598 -4.6820002 1.359
19.603001 -4.6760001 1.349
19.608 -4.6700001 1.34
19.604 -4.6750002 1.335
19.603001 -4.677 1.3279999
19.598 -4.6820002 1.323
19.597 -4.6830001 1.317
19.596001 -4.684 1.3099999
19.607 -4.671 1.299
19.599001 -4.6799998 1.295
19.594999 -4.6849999 1.29
19.6 -4.6789999 1.28
19.599001 -4.6799998 1.274
19.591999 -4.6890001 1.27
19.6 -4.6789999 1.26
19.596001 -4.684 1.2539999
19.601 -4.678 1.245
19.608999 -4.6680002 1.235
19.58 -4.7020001 1.24
19.559999 -4.7249999 1.2410001
19.542999 -4.7459998 1.24
19.532 -4.7579999 1.237
19.528 -4.763 1.232
19.535999 -4.7529998 1.222
19.554001 -4.7319999 1.2079999
19.569 -4.7150002 1.1950001
19.573999 -4.7080002 1.186
19.576 -4.7059999 1.179
19.580999 -4.6999998 1.17
19.58 -4.7010002 1.163
19.579 -4.7020001 1.1569999
19.584999 -4.6950002 1.148
19.570999 -4.7119999 1.146
19.584999 -4.6939998 1.1339999
19.577999 -4.7030001 1.1289999
19.570999 -4.711 1.125
19.57 -4.711 1.118
19.584 -4.6950002 1.107
19.577 -4.7030001 1.102
19.577 -4.7030001 1.095
19.575001 -4.7049999 1.089
19.577 -4.7030001 1.081
19.583 -4.6960001 1.073
19.572001 -4.7080002 1.069
19.573999 -4.7059999 1.062
19.573 -4.7069998 1.0549999
19.587999 -4.6890001 1.044
19.577999 -4.7010002 1.04
19.577 -4.7020001 1.034
19.573 -4.7069998 1.028
19.577999 -4.6999998 1.02
19.572001 -4.7080002 1.015
19.577 -4.7010002 1.006
19.569 -4.711 1.002
19.572001 -4.7080002 0.99400002
19.577 -4.7010002 0.986
19.583 -4.6950002 0.97799999
19.569 -4.711 0.97500002
19.572001 -4.7080002 0.96700001
19.577 -4.7010002 0.95899999
19.57 -4.71 0.954
19.566999 -4.7129998 0.94800001
19.563 -4.717 0.94199997
19.570999 -4.7080002 0.93300003
19.566999 -4.7129998 0.92799997
19.565001 -4.7140002 0.921
19.576 -4.7020001 0.912
19.562 -4.7179999 0.90899998
19.563999 -4.7160001 0.90100002
19.57 -4.7090001 0.89300001
19.57 -4.7090001 0.88599998
19.570999 -4.7069998 0.87900001
19.573 -4.704 0.87199998
19.566999 -4.7119999 0.86699998
19.566 -4.7119999 0.86000001
19.569 -4.7090001 0.85299999
19.57 -4.7069998 0.84600002
19.559999 -4.7189999 0.84100002
19.563 -4.7160001 0.83399999
19.570999 -4.7059999 0.82599998
19.565001 -4.7140002 0.81999999
19.576 -4.6999998 0.81099999
19.559999 -4.7189999 0.80800003
19.563 -4.7160001 0.801
19.568001 -4.71 0.79299998
19.566999 -4.71 0.78600001
19.57 -4.7069998 0.77899998
19.563 -4.7150002 0.77399999
19.565001 -4.7119999 0.76599997
19.573999 -4.7010002 0.75800002
19.570999 -4.7049999 0.75199997
19.570999 -4.7049999 0.745
19.561001 -4.717 0.741
19.566 -4.711 0.73299998
19.565001 -4.711 0.72600001
19.559 -4.7189999 0.72100002
19.559 -4.7189999 0.71399999
19.563999 -4.7129998 0.70700002
19.556999 -4.7199998 0.70099998
19.559999 -4.717 0.69400001
19.552999 -4.7249999 0.68800002
19.556 -4.7220001 0.68099999
19.559 -4.7179999 0.67400002
19.563999 -4.711 0.667
19.566999 -4.7090001 0.66000003
19.559999 -4.717 0.65399998
19.559999 -4.717 0.64700001
19.563999 -4.711 0.63999999
19.556 -4.7210002 0.63499999
19.552 -4.7249999 0.62800002
19.551001 -4.7259998 0.62199998
19.563 -4.7119999 0.61400002
19.562 -4.7129998 0.60699999
19.568001 -4.7059999 0.60000002
19.559 -4.717 0.59399998
19.558001 -4.717 0.588
19.555 -4.7220001 0.58099997
19.563999 -4.711 0.574
19.556999 -4.7179999 0.56800002
19.554001 -4.723 0.56199998
19.569 -4.704 0.55299997
19.559 -4.7160001 0.54799998
19.552999 -4.724 0.542
19.556 -4.7189999 0.53500003
19.554001 -4.7210002 0.528
19.552999 -4.7220001 0.52200001
19.558001 -4.7160001 0.51499999
19.546 -4.7309999 0.509
19.558001 -4.717 0.50199997
19.542 -4.7350001 0.49599999
19.556999 -4.717 0.48800001
19.549999 -4.7249999 0.48199999
19.556 -4.7189999 0.47499999
19.562 -4.711 0.46799999
19.556 -4.7179999 0.46200001
19.552 -4.723 0.456
19.546 -4.73 0.44999999
19.556999 -4.717 0.442
19.563999 -4.7090001 0.435
19.551001 -4.724 0.42899999
19.548 -4.7270002 0.42300001
19.548 -4.7270002 0.41600001
19.554001 -4.7199998 0.40900001
19.534 -4.744 0.40400001
19.544001 -4.7319999 0.39700001
19.548 -4.7259998 0.38999999
19.542 -4.7329998 0.38299999
19.542999 -4.7329998 0.377
19.546 -4.7290001 0.37
19.540001 -4.7360001 0.36399999
19.545 -4.7290001 0.35699999
19.555 -4.7179999 0.34999999
19.549999 -4.724 0.34299999
19.540001 -4.7350001 0.33700001
19.540001 -4.7350001 0.33000001
19.551001 -4.7220001 0.324
19.556999 -4.7150002 0.317
19.541 -4.7340002 0.31
19.554001 -4.7179999 0.30399999
19.547001 -4.7259998 0.29699999
19.547001 -4.7259998 0.29100001
19.547001 -4.7259998 0.28400001
19.551001 -4.7220001 0.27700001
19.551001 -4.7210002 0.271
19.552999 -4.7189999 0.264
19.549999 -4.7220001 0.25799999
19.552999 -4.7179999 0.25099999
19.552999 -4.7179999 0.244
19.542999 -4.73 0.23800001
19.542999 -4.73 0.23100001
19.552999 -4.7179999 0.22499999
19.556999 -4.7129998 0.21799999
19.540001 -4.7329998 0.211
19.552999 -4.7179999 0.205
19.549999 -4.7210002 0.198
19.551001 -4.7210002 0.192
19.535 -4.7389998 0.184
19.541 -4.7319999 0.178
19.535999 -4.7379999 0.171
19.538 -4.7340002 0.16500001
19.539 -4.7329998 0.15800001
19.535999 -4.737 0.15099999
19.541 -4.7309999 0.145
19.542 -4.73 0.138
19.539 -4.7329998 0.131
19.549 -4.7220001 0.125
19.551001 -4.7179999 0.119
19.533001 -4.7389998 0.111
19.545 -4.7259998 0.105
19.537001 -4.7350001 0.097999997
19.535999 -4.7360001 0.090999998
19.540001 -4.7319999 0.085000001
19.540001 -4.7309999 0.078000002
19.534 -4.7379999 0.071000002
19.538 -4.7340002 0.064999998
19.538 -4.7329998 0.057999998
19.540001 -4.7309999 0.052000001
19.538 -4.7329998 0.045000002
19.531 -4.7410002 0.037999999
19.541 -4.73 0.032000002
19.532 -4.7389998 0.024
19.535 -4.7360001 0.017999999
19.535 -4.7350001 0.011
19.528 -4.744 0.0040000002
19.593 -4.7220001 2.9849999
19.591 -4.724 2.977
19.597 -4.717 2.961
19.591999 -4.723 2.9560001
19.591999 -4.723 2.947
19.584999 -4.73 2.944
19.596001 -4.717 2.921
19.586 -4.7290001 2.9230001
19.586 -4.73 2.9130001
19.596001 -4.717 2.892
19.59 -4.7249999 2.8889999
19.589001 -4.7249999 2.8800001
19.591999 -4.7220001 2.868
19.594 -4.7189999 2.8559999
19.596001 -4.7160001 2.8429999
19.596001 -4.7160001 2.8340001
19.598 -4.7129998 2.822
19.596001 -4.717 2.8150001
19.594999 -4.717 2.806
19.59 -4.723 2.802
19.59 -4.724 2.793
19.6 -4.711 2.773
19.594 -4.717 2.7690001
19.596001 -4.7150002 2.757
19.596001 -4.7150002 2.7479999
19.601 -4.7090001 2.733
19.593 -4.7179999 2.7320001
19.596001 -4.7150002 2.72
19.584999 -4.7280002 2.7219999
19.584999 -4.7280002 2.7119999
19.593 -4.7179999 2.6949999
19.594999 -4.7150002 2.6830001
19.597 -4.7129998 2.6719999
19.598 -4.7119999 2.6619999
19.594 -4.717 2.6570001
19.593 -4.7179999 2.6489999
19.594999 -4.7150002 2.638
19.599001 -4.71 2.625
19.596001 -4.7140002 2.618
19.594999 -4.7150002 2.6099999
19.589001 -4.7210002 2.6059999
19.594999 -4.7140002 2.592
19.591999 -4.717 2.585
19.591999 -4.717 2.576
19.601 -4.7069998 2.559
19.594999 -4.7129998 2.5550001
19.593 -4.7160001 2.549
19.604 -4.7030001 2.529
19.599001 -4.7090001 2.5250001
19.59 -4.7189999 2.5239999
19.593 -4.7150002 2.5120001
19.601999 -4.7049999 2.4949999
19.584999 -4.724 2.5020001
19.594 -4.7140002 2.4849999
19.597 -4.71 2.473
19.603001 -4.7030001 2.4590001
19.591999 -4.7160001 2.46
19.601 -4.7049999 2.444
19.601 -4.7049999 2.4349999
19.601 -4.704 2.4260001
19.599001 -4.7069998 2.4189999
19.610001 -4.6929998 2.4000001
19.597 -4.71 2.404
19.598 -4.7080002 2.3940001
19.597 -4.7080002 2.3859999
19.603001 -4.7010002 2.372
19.601 -4.704 2.365
19.598 -4.7069998 2.359
19.599001 -4.7059999 2.3499999
19.596001 -4.7090001 2.3429999
19.599001 -4.7049999 2.332
19.597 -4.7080002 2.326
19.589001 -4.717 2.3239999
19.601 -4.7030001 2.306
19.607 -4.6960001 2.2920001
19.599001 -4.7049999 2.29
19.599001 -4.7049999 2.2809999
19.6 -4.704 2.2720001
19.598 -4.7069998 2.266
19.601 -4.7020001 2.2550001
19.601 -4.7020001 2.2460001
19.601999 -4.7010002 2.237
19.608 -4.6929998 2.224
19.603001 -4.6989999 2.2190001
19.598 -4.7049999 2.2149999
19.599001 -4.704 2.2060001
19.599001 -4.7030001 2.198
19.606001 -4.6960001 2.184
19.598 -4.7049999 2.1819999
19.601 -4.7010002 2.171
19.605 -4.6960001 2.1600001
19.606001 -4.6950002 2.151
19.598 -4.7049999 2.1489999
19.604 -4.697 2.1359999
19.601999 -4.6989999 2.1300001
19.603001 -4.698 2.1210001
19.598 -4.704 2.1170001
19.601 -4.6999998 2.1059999
19.611 -4.6880002 2.0899999
19.6 -4.7010002 2.0910001
19.594999 -4.7069998 2.086
19.593 -4.7090001 2.0799999
19.605 -4.6939998 2.062
19.6 -4.6999998 2.0580001
19.612 -4.6859999 2.0409999
19.601999 -4.698 2.0409999
19.604 -4.6960001 2.0320001
19.601 -4.6989999 2.026
19.599001 -4.7010002 2.0190001
19.601999 -4.697 2.0090001
19.598 -4.7020001 2.0039999
19.601 -4.698 1.994
19.601999 -4.697 1.985
19.598 -4.7020001 1.98
19.608 -4.6900001 1.965
19.599001 -4.6999998 1.9630001
19.608999 -4.6880002 1.949
19.615999 -4.6799998 1.936
19.608 -4.6890001 1.934
19.603001 -4.6950002 1.929
19.604 -4.6939998 1.921
19.605 -4.6919999 1.9119999
19.608999 -4.6869998 1.902
19.601 -4.697 1.899
19.605 -4.6919999 1.8890001
19.608999 -4.6869998 1.878
19.601999 -4.6960001 1.876
19.6 -4.698 1.869
19.601 -4.6960001 1.8609999
19.599001 -4.6989999 1.854
19.606001 -4.6900001 1.842
19.604 -4.6919999 1.835
19.603001 -4.6939998 1.829
19.598 -4.6999998 1.824
19.593 -4.7049999 1.8200001
19.603001 -4.6929998 1.806
19.601 -4.6950002 1.799
19.606001 -4.6900001 1.789
19.601 -4.6950002 1.784
19.599001 -4.697 1.778
19.591 -4.7059999 1.775
19.599001 -4.698 1.763
19.6 -4.6960001 1.7539999
19.604 -4.691 1.744
19.599001 -4.6960001 1.74
19.603001 -4.6919999 1.73
19.601999 -4.6939998 1.723
19.603001 -4.6919999 1.715
19.607 -4.6869998 1.705
19.6 -4.6960001 1.702
19.594999 -4.7010002 1.697
19.605 -4.6890001 1.684
19.604 -4.691 1.677
19.599001 -4.6960001 1.6720001
19.608999 -4.684 1.659
19.605 -4.6890001 1.654
19.612 -4.6810002 1.643
19.610001 -4.6830001 1.636
19.608 -4.684 1.63
19.601 -4.6929998 1.627
19.601999 -4.691 1.619
19.607 -4.6859999 1.609
19.605 -4.6880002 1.602
19.607 -4.6859999 1.594
19.605 -4.6880002 1.5880001
19.594999 -4.6999998 1.586
19.611 -4.6799998 1.5700001
19.604 -4.6890001 1.567
19.596001 -4.698 1.563
19.598 -4.6960001 1.5549999
19.599001 -4.6939998 1.5470001
19.610001 -4.6810002 1.534
19.601999 -4.6900001 1.531
19.607 -4.684 1.521
19.593 -4.7010002 1.521
19.604 -4.6880002 1.508
19.596001 -4.697 1.505
19.598 -4.6950002 1.497
19.6 -4.6919999 1.489
19.604 -4.6869998 1.479
19.594 -4.6989999 1.477
19.597 -4.6960001 1.469
19.603001 -4.6880002 1.4579999
19.622999 -4.664 1.441
19.610001 -4.6799998 1.441
19.599001 -4.6919999 1.439
19.615999 -4.6719999 1.423
19.598 -4.6939998 1.425
19.604 -4.6859999 1.415
19.606001 -4.684 1.4069999
19.605 -4.6849999 1.4
19.607 -4.6830001 1.392
19.605 -4.684 1.386
19.607 -4.6820002 1.378
19.603001 -4.6869998 1.373
19.608 -4.6810002 1.364
19.606001 -4.6830001 1.357
19.605 -4.684 1.351
19.607 -4.6820002 1.3430001
19.612 -4.6760001 1.334
19.622999 -4.6630001 1.322
19.615999 -4.671 1.318
19.601999 -4.6869998 1.317
19.607 -4.6810002 1.308
19.615 -4.6719999 1.2970001
19.611 -4.677 1.2920001
19.613001 -4.6739998 1.284
19.613001 -4.6739998 1.277
19.598 -4.6919999 1.276
19.6 -4.6890001 1.2690001
19.608 -4.6789999 1.258
19.610001 -4.677 1.251
19.612 -4.6750002 1.243
19.614 -4.6719999 1.235
19.603001 -4.684 1.232
19.605 -4.6820002 1.225
19.594999 -4.6939998 1.222
19.577999 -4.7140002 1.221
19.562 -4.7329998 1.221
19.548 -4.75 1.219
19.542999 -4.7550001 1.214
19.58 -4.711 1.193
19.582001 -4.7090001 1.1849999
19.584 -4.7059999 1.177
19.583 -4.7080002 1.171
19.584999 -4.7049999 1.163
19.587 -4.7020001 1.155
19.583 -4.7069998 1.15
19.579 -4.7119999 1.145
19.577999 -4.7129998 1.138
19.583 -4.7069998 1.1289999
19.584999 -4.704 1.122
19.580999 -4.7090001 1.1160001
19.573999 -4.7179999 1.112
19.584999 -4.704 1.101
19.587 -4.7010002 1.0930001
19.583 -4.7059999 1.0880001
19.582001 -4.7069998 1.081
19.587999 -4.6999998 1.073
19.584 -4.7049999 1.067
19.579 -4.71 1.062
19.582001 -4.7069998 1.054
19.580999 -4.7080002 1.048
19.591999 -4.6939998 1.0369999
19.582001 -4.7059999 1.034
19.584 -4.704 1.026
19.584 -4.704 1.0190001
19.586 -4.7010002 1.012
19.582001 -4.7069998 1.006
19.577999 -4.711 1.001
19.591999 -4.6939998 0.99000001
19.582001 -4.7059999 0.986
19.577999 -4.71 0.98000002
19.584 -4.704 0.972
19.591999 -4.6929998 0.963
19.579 -4.7090001 0.95999998
19.57 -4.7199998 0.95499998
19.57 -4.7189999 0.94800001
19.570999 -4.7179999 0.94099998
19.570999 -4.7179999 0.935
19.563999 -4.7259998 0.93000001
19.577 -4.711 0.91900003
19.569 -4.7199998 0.91500002
19.577 -4.711 0.90600002
19.572001 -4.7160001 0.89999998
19.58 -4.7069998 0.89200002
19.570999 -4.7179999 0.88700002
19.582001 -4.704 0.87800002
19.584 -4.7020001 0.87099999
19.580999 -4.7049999 0.86500001
19.570999 -4.717 0.86000001
19.579 -4.7080002 0.852
19.577999 -4.7080002 0.84500003
19.580999 -4.7049999 0.838
19.573999 -4.7129998 0.833
19.577 -4.71 0.82499999
19.575001 -4.711 0.81900001
19.57 -4.7179999 0.81400001
19.568001 -4.7189999 0.80699998
19.573 -4.7129998 0.79900002
19.579 -4.7059999 0.79100001
19.563 -4.7249999 0.78799999
19.568001 -4.7189999 0.77999997
19.570999 -4.7160001 0.773
19.586 -4.698 0.76300001
19.57 -4.717 0.75999999
19.572001 -4.7140002 0.75300002
19.572001 -4.7140002 0.74599999
19.570999 -4.7150002 0.74000001
19.577 -4.7069998 0.73199999
19.57 -4.7160001 0.72600001
19.57 -4.7160001 0.72000003
19.576 -4.7090001 0.71200001
19.565001 -4.7220001 0.70700002
19.570999 -4.7140002 0.699
19.573999 -4.711 0.69199997
19.563999 -4.7220001 0.68699998
19.566 -4.7199998 0.68000001
19.57 -4.7150002 0.67299998
19.566999 -4.7189999 0.667
19.565001 -4.7210002 0.66000003
19.573999 -4.71 0.653
19.566999 -4.7189999 0.64700001
19.57 -4.7150002 0.63999999
19.559999 -4.7259998 0.63499999
19.565001 -4.7199998 0.62699997
19.563 -4.723 0.62099999
19.563 -4.723 0.61400002
19.561001 -4.7249999 0.60799998
19.559999 -4.7249999 0.60100001
19.568001 -4.717 0.59399998
19.579 -4.7030001 0.58600003
19.566999 -4.717 0.58099997
19.559 -4.7270002 0.57499999
19.570999 -4.7119999 0.56699997
19.568001 -4.7160001 0.56099999
19.565001 -4.7199998 0.55400002
19.561001 -4.724 0.54799998
19.551001 -4.7350001 0.54299998
19.566999 -4.7160001 0.53399998
19.569 -4.7140002 0.52700001
19.559999 -4.7249999 0.52200001
19.559 -4.7249999 0.51499999
19.566 -4.717 0.50800002
19.563 -4.7210002 0.50199997
19.549 -4.737 0.49599999
19.556 -4.7290001 0.48899999
19.565001 -4.7179999 0.48199999
19.563999 -4.7189999 0.47499999
19.563999 -4.7189999 0.46799999
19.563999 -4.7189999 0.46200001
19.556999 -4.7270002 0.456
19.548 -4.7379999 0.44999999
19.559999 -4.723 0.442
19.566 -4.7160001 0.435
19.556 -4.7270002 0.42899999
19.559 -4.7249999 0.42199999
19.572001 -4.7090001 0.41499999
19.554001 -4.7290001 0.41
19.558001 -4.7249999 0.403
19.562 -4.7210002 0.396
19.558001 -4.7249999 0.389
19.559 -4.724 0.38299999
19.555 -4.7290001 0.37599999
19.546 -4.7389998 0.37
19.547001 -4.7379999 0.36300001
19.548 -4.7360001 0.35699999
19.554001 -4.73 0.34999999
19.552 -4.7309999 0.34299999
19.549 -4.7350001 0.33700001
19.551001 -4.7319999 0.33000001
19.546 -4.7379999 0.324
19.562 -4.7189999 0.317
19.552 -4.7309999 0.31
19.559 -4.7220001 0.30399999
19.551001 -4.7319999 0.29699999
19.556 -4.7259998 0.28999999
19.549999 -4.7329998 0.28400001
19.552 -4.73 0.27700001
19.549999 -4.7329998 0.271
19.559 -4.7220001 0.264
19.570999 -4.7080002 0.25799999
19.552 -4.73 0.25099999
19.555 -4.7259998 0.244
19.551001 -4.73 0.23800001
19.548 -4.7340002 0.23100001
19.558001 -4.7220001 0.22499999
19.558001 -4.7220001 0.21799999
19.555 -4.7249999 0.211
19.549999 -4.7319999 0.204
19.546 -4.7360001 0.198
19.565001 -4.7129998 0.192
19.549 -4.7319999 0.185
19.547001 -4.7340002 0.178
19.562 -4.717 0.17200001
19.552 -4.7290001 0.16500001
19.562 -4.7160001 0.15899999
19.549 -4.7309999 0.152
19.552999 -4.7270002 0.145
19.549 -4.7309999 0.138
19.546 -4.7350001 0.131
19.546 -4.7340002 0.125
19.556 -4.723 0.119
19.551001 -4.7280002 0.112
19.544001 -4.737 0.105
19.554001 -4.7249999 0.098999999
19.544001 -4.7360001 0.092
19.551001 -4.7280002 0.085000001
19.544001 -4.7360001 0.078000002
19.535999 -4.7459998 0.071000002
19.549 -4.73 0.064999998
19.549 -4.7309999 0.059
19.545 -4.7340002 0.052000001
19.544001 -4.7360001 0.045000002
19.546 -4.7340002 0.039000001
19.547001 -4.7319999 0.032000002
19.541 -4.7389998 0.025
19.538 -4.743 0.017999999
19.539 -4.7410002 0.011
19.541 -4.7389998 0.0049999999
19.587999 -4.7379999 2.9760001
19.58 -4.7480001 2.9749999
19.584999 -4.7420001 2.96
19.591999 -4.7329998 2.9419999
19.591999 -4.7329998 2.9319999
19.587999 -4.737 2.9260001
19.587999 -4.7379999 2.9170001
19.589001 -4.7360001 2.905
19.587999 -4.7379999 2.8970001
19.594999 -4.7290001 2.8800001
19.586 -4.7389998 2.8789999
19.59 -4.7350001 2.8659999
19.591 -4.7329998 2.855
19.591 -4.7329998 2.845
19.587999 -4.737 2.839
19.587 -4.737 2.829
19.594999 -4.7280002 2.812
19.59 -4.7340002 2.8080001
19.594999 -4.7280002 2.793
19.601999 -4.7179999 2.7750001
19.594 -4.7280002 2.7739999
19.594 -4.7280002 2.7650001
19.596001 -4.7249999 2.753
19.587 -4.7360001 2.753
19.594 -4.7280002 2.7360001
19.596001 -4.7259998 2.7260001
19.594 -4.7270002 2.717
19.59 -4.7319999 2.7119999
19.589001 -4.7340002 2.704
19.598 -4.7220001 2.6860001
19.59 -4.7319999 2.6849999
19.594999 -4.7259998 2.6700001
19.591 -4.7309999 2.665
19.596001 -4.724 2.6500001
19.594999 -4.7249999 2.642
19.597 -4.723 2.631
19.594 -4.7259998 2.6240001
19.59 -4.7309999 2.6199999
19.587 -4.7340002 2.6129999
19.597 -4.7220001 2.5940001
19.584 -4.7379999 2.598
19.584 -4.7379999 2.589
19.580999 -4.7410002 2.582
19.589001 -4.7309999 2.5650001
19.59 -4.73 2.556
19.594 -4.7249999 2.5439999
19.594 -4.724 2.5339999
19.601 -4.7160001 2.5190001
19.598 -4.7189999 2.5120001
19.59 -4.7290001 2.5109999
19.604 -4.7119999 2.4890001
19.593 -4.7249999 2.49
19.599001 -4.7179999 2.4760001
19.594 -4.724 2.4719999
19.597 -4.7199998 2.46
19.6 -4.7160001 2.4489999
19.606001 -4.7090001 2.4349999
19.591999 -4.7249999 2.438
19.601 -4.7150002 2.421
19.596001 -4.7210002 2.4170001
19.596001 -4.7210002 2.408
19.601999 -4.7129998 2.3940001
19.594 -4.723 2.3929999
19.606001 -4.7090001 2.3740001
19.6 -4.7150002 2.3699999
19.601 -4.7140002 2.3610001
19.596001 -4.7210002 2.3570001
19.599001 -4.717 2.346
19.601 -4.7129998 2.335
19.599001 -4.7160001 2.3280001
19.601999 -4.7119999 2.3169999
19.6 -4.7150002 2.3099999
19.608 -4.704 2.2950001
19.604 -4.71 2.29
19.599001 -4.7160001 2.286
19.605 -4.7080002 2.2720001
19.603001 -4.711 2.266
19.603001 -4.71 2.257
19.606001 -4.7059999 2.2460001
19.596001 -4.7189999 2.2460001
19.605 -4.7080002 2.23
19.6 -4.7140002 2.2260001
19.597 -4.7160001 2.22
19.598 -4.7150002 2.211
19.601999 -4.711 2.2
19.597 -4.717 2.1960001
19.6 -4.7129998 2.184
19.594999 -4.7189999 2.1800001
19.601 -4.711 2.1670001
19.596001 -4.717 2.1630001
19.597 -4.7160001 2.154
19.601 -4.711 2.1429999
19.607 -4.7030001 2.1300001
19.599001 -4.7129998 2.128
19.597 -4.7150002 2.1210001
19.606001 -4.704 2.1059999
19.596001 -4.717 2.1059999
19.596001 -4.7160001 2.0969999
19.603001 -4.7080002 2.0840001
19.607 -4.7030001 2.073
19.613001 -4.6950002 2.0599999
19.6 -4.711 2.062
19.603001 -4.7069998 2.0510001
19.604 -4.7049999 2.043
19.608 -4.7010002 2.0320001
19.606001 -4.7030001 2.0250001
19.601 -4.7090001 2.0209999
19.610001 -4.698 2.007
19.6 -4.71 2.006
19.601 -4.7090001 1.997
19.599001 -4.711 1.9910001
19.605 -4.704 1.978
19.603001 -4.7059999 1.972
19.601 -4.7080002 1.965
19.594 -4.717 1.9630001
19.6 -4.7090001 1.95
19.604 -4.704 1.9400001
19.608 -4.6989999 1.929
19.608999 -4.698 1.921
19.607 -4.6999998 1.914
19.608 -4.6989999 1.906
19.601 -4.7080002 1.903
19.601999 -4.7059999 1.895
19.603001 -4.7049999 1.886
19.594999 -4.7140002 1.8839999
19.596001 -4.7129998 1.875
19.606001 -4.7010002 1.8609999
19.604 -4.7030001 1.854
19.611 -4.6939998 1.842
19.607 -4.6999998 1.837
19.611 -4.6950002 1.827
19.597 -4.711 1.8279999
19.610001 -4.6950002 1.812
19.601999 -4.704 1.809
19.603001 -4.7030001 1.801
19.605 -4.7010002 1.793
19.603001 -4.7030001 1.786
19.607 -4.698 1.776
19.611 -4.6929998 1.766
19.610001 -4.6950002 1.7589999
19.596001 -4.711 1.76
19.594 -4.7129998 1.753
19.601999 -4.704 1.7410001
19.6 -4.7059999 1.735
19.604 -4.7010002 1.725
19.601999 -4.7030001 1.7180001
19.608999 -4.6950002 1.707
19.607 -4.697 1.7
19.6 -4.7059999 1.697
19.604 -4.6999998 1.687
19.606001 -4.6989999 1.679
19.601 -4.704 1.674
19.601999 -4.7020001 1.666
19.598 -4.7080002 1.661
19.605 -4.6989999 1.649
19.601 -4.704 1.645
19.610001 -4.6919999 1.632
19.6 -4.704 1.63
19.601999 -4.7020001 1.622
19.6 -4.704 1.615
19.610001 -4.6919999 1.602
19.606001 -4.697 1.597
19.604 -4.6989999 1.591
19.6 -4.704 1.586
19.604 -4.6989999 1.576
19.612 -4.6900001 1.5650001
19.598 -4.7059999 1.5650001
19.606001 -4.697 1.553
19.613001 -4.6869998 1.5420001
19.603001 -4.6999998 1.54
19.607 -4.6939998 1.531
19.603001 -4.6999998 1.526
19.607 -4.6939998 1.516
19.606001 -4.6960001 1.51
19.605 -4.697 1.503
19.603001 -4.6989999 1.497
19.605 -4.697 1.489
19.606001 -4.6950002 1.4809999
19.608 -4.6929998 1.473
19.607 -4.6939998 1.466
19.624001 -4.6739998 1.451
19.615999 -4.6830001 1.447
19.615 -4.684 1.441
19.617001 -4.6820002 1.433
19.624001 -4.6729999 1.4220001
19.614 -4.6849999 1.42
19.627001 -4.6690001 1.406
19.622999 -4.6729999 1.401
19.618999 -4.678 1.396
19.615 -4.684 1.391
19.632 -4.6630001 1.376
19.615 -4.6830001 1.376
19.608 -4.6919999 1.373
19.622 -4.6750002 1.359
19.621 -4.6760001 1.353
19.615999 -4.6810002 1.348
19.618 -4.6789999 1.34
19.614 -4.684 1.335
19.622 -4.6739998 1.324
19.620001 -4.6750002 1.318
19.622 -4.6729999 1.3099999
19.618 -4.678 1.3049999
19.611 -4.6869998 1.301
19.618999 -4.677 1.291
19.621 -4.6750002 1.283
19.615999 -4.6799998 1.278
19.625 -4.6700001 1.267
19.625999 -4.6680002 1.26
19.610001 -4.6869998 1.26
19.621 -4.6739998 1.248
19.611 -4.6859999 1.245
19.615999 -4.6799998 1.2359999
19.611 -4.6849999 1.2309999
19.615999 -4.6789999 1.222
19.618 -4.6760001 1.214
19.611 -4.6849999 1.21
19.625999 -4.6680002 1.198
19.577999 -4.724 1.209
19.573 -4.7290001 1.204
19.551001 -4.757 1.206
19.584 -4.717 1.186
19.598 -4.6989999 1.174
19.597 -4.7010002 1.1670001
19.59 -4.7090001 1.163
19.594999 -4.7030001 1.154
19.591 -4.7080002 1.149
19.584 -4.7160001 1.145
19.591999 -4.7059999 1.135
19.591 -4.7069998 1.128
19.59 -4.7080002 1.122
19.591999 -4.7059999 1.114
19.584999 -4.7140002 1.11
19.587999 -4.71 1.102
19.586 -4.7129998 1.095
19.587999 -4.71 1.0880001
19.593 -4.704 1.079
19.59 -4.7080002 1.074
19.584999 -4.7129998 1.068
19.591 -4.7069998 1.0599999
19.596001 -4.6999998 1.051
19.586 -4.7129998 1.048
19.584999 -4.7140002 1.041
19.59 -4.7069998 1.033
19.589001 -4.7080002 1.026
19.587999 -4.7090001 1.0190001
19.584 -4.7140002 1.0140001
19.596001 -4.6999998 1.003
19.583 -4.7150002 1.001
19.591999 -4.704 0.991
19.59 -4.7059999 0.98500001
19.586 -4.711 0.97899997
19.582001 -4.7150002 0.97399998
19.594 -4.7020001 0.96399999
19.59 -4.7059999 0.958
19.589001 -4.7069998 0.95099998
19.589001 -4.7069998 0.94499999
19.59 -4.7049999 0.93800002
19.593 -4.7020001 0.93000001
19.573999 -4.7249999 0.92900002
19.582001 -4.7150002 0.91900003
19.577999 -4.7189999 0.91399997
19.584 -4.7129998 0.90499997
19.586 -4.71 0.898
19.591 -4.704 0.88999999
19.591 -4.704 0.88300002
19.580999 -4.7160001 0.87900001
19.583 -4.7129998 0.87199998
19.591 -4.7030001 0.86299998
19.594999 -4.6989999 0.85600001
19.59 -4.704 0.85000002
19.593 -4.7010002 0.84299999
19.575001 -4.7220001 0.83999997
19.582001 -4.7140002 0.83200002
19.584 -4.711 0.82499999
19.583 -4.7119999 0.81800002
19.589001 -4.7049999 0.81
19.584999 -4.7090001 0.80400002
19.584999 -4.71 0.79799998
19.573999 -4.7220001 0.79299998
19.577 -4.7189999 0.78600001
19.589001 -4.704 0.77700001
19.584999 -4.7090001 0.77100003
19.587999 -4.7049999 0.764
19.580999 -4.7140002 0.759
19.583 -4.71 0.75099999
19.577 -4.7179999 0.74599999
19.576 -4.7189999 0.73900002
19.584999 -4.7080002 0.73100001
19.575001 -4.7199998 0.72600001
19.582001 -4.7119999 0.71799999
19.586 -4.7059999 0.71100003
19.58 -4.7140002 0.70499998
19.583 -4.71 0.69800001
19.584999 -4.7080002 0.69099998
19.584999 -4.7080002 0.685
19.584 -4.7090001 0.67799997
19.573999 -4.7210002 0.67299998
19.587 -4.7049999 0.66399997
19.576 -4.7179999 0.66000003
19.572001 -4.7220001 0.653
19.569 -4.7259998 0.64700001
19.569 -4.7259998 0.64099997
19.573999 -4.7199998 0.63300002
19.577999 -4.7160001 0.62599999
19.586 -4.7059999 0.61799997
19.573 -4.7199998 0.61299998
19.576 -4.717 0.60600001
19.572001 -4.7220001 0.60000002
19.575001 -4.7189999 0.59299999
19.580999 -4.711 0.58600003
19.577999 -4.7150002 0.57999998
19.563999 -4.73 0.57499999
19.58 -4.7119999 0.56599998
19.569 -4.724 0.56099999
19.576 -4.717 0.55400002
19.584999 -4.7049999 0.546
19.577999 -4.7140002 0.54000002
19.575001 -4.717 0.53399998
19.566 -4.7270002 0.528
19.573999 -4.7179999 0.52100003
19.577999 -4.7129998 0.514
19.580999 -4.71 0.50700003
19.566999 -4.7259998 0.50199997
19.583 -4.7069998 0.49399999
19.57 -4.723 0.48800001
19.566 -4.7270002 0.48199999
19.559 -4.7350001 0.47600001
19.566999 -4.7259998 0.46799999
19.572001 -4.7199998 0.46200001
19.552999 -4.7420001 0.456
19.565001 -4.7270002 0.449
19.559 -4.7350001 0.44299999
19.580999 -4.7090001 0.435
19.58 -4.71 0.428
19.566999 -4.7249999 0.42199999
19.563 -4.73 0.41600001
19.573 -4.7179999 0.40900001
19.554001 -4.7399998 0.403
19.57 -4.7210002 0.396
19.575001 -4.7150002 0.389
19.563999 -4.7280002 0.38299999
19.555 -4.7389998 0.377
19.565001 -4.7259998 0.37
19.572001 -4.7179999 0.36300001
19.566 -4.7249999 0.35600001
19.566 -4.7249999 0.34999999
19.573 -4.7160001 0.34299999
19.575001 -4.7140002 0.336
19.558001 -4.7340002 0.33000001
19.559 -4.7329998 0.32300001
19.568001 -4.7220001 0.317
19.566999 -4.723 0.31
19.561001 -4.73 0.30399999
19.570999 -4.7189999 0.29699999
19.566999 -4.723 0.28999999
19.566999 -4.723 0.28400001
19.565001 -4.7259998 0.27700001
19.568001 -4.7220001 0.271
19.57 -4.7189999 0.264
19.561001 -4.7290001 0.257
19.566999 -4.7220001 0.25099999
19.566 -4.723 0.244
19.566 -4.723 0.23800001
19.563 -4.7270002 0.23100001
19.556999 -4.7340002 0.22400001
19.556999 -4.7340002 0.21799999
19.563999 -4.7259998 0.211
19.563 -4.7259998 0.205
19.556999 -4.7329998 0.198
19.563 -4.7259998 0.191
19.559999 -4.73 0.185
19.566999 -4.7210002 0.178
19.563999 -4.7249999 0.17200001
19.576 -4.71 0.16599999
19.561001 -4.7270002 0.15800001
19.561001 -4.7280002 0.152
19.558001 -4.7319999 0.145
19.562 -4.7270002 0.139
19.562 -4.7270002 0.132
19.552 -4.7379999 0.125
19.555 -4.7340002 0.118
19.552999 -4.737 0.112
19.547001 -4.743 0.105
19.549999 -4.7399998 0.097999997
19.552999 -4.7360001 0.092
19.549999 -4.7389998 0.085000001
19.549999 -4.7399998 0.078000002
19.559 -4.7290001 0.071999997
19.556 -4.7319999 0.064999998
19.552999 -4.7360001 0.059
19.556999 -4.7309999 0.052000001
19.551001 -4.737 0.045000002
19.554001 -4.7350001 0.039000001
19.554001 -4.7340002 0.032000002
19.546 -4.743 0.025
19.544001 -4.7459998 0.017999999
19.549 -4.7389998 0.012
19.549 -4.7399998 0.0049999999
19.586 -4.7519999 2.9849999
19.584999 -4.7519999 2.9749999
19.582001 -4.756 2.9679999
19.591999 -4.744 2.947
19.591 -4.7449999 2.9389999
19.599001 -4.7350001 2.9200001
19.596001 -4.7389998 2.914
19.584 -4.7529998 2.9170001
19.594 -4.7410002 2.8959999
19.589001 -4.7470002 2.892
19.589001 -4.7470002 2.882
19.586 -4.75 2.875
19.596001 -4.7379999 2.855
19.596001 -4.7379999 2.845
19.587999 -4.7480001 2.8440001
19.59 -4.7449999 2.832
19.594999 -4.7379999 2.8169999
19.594999 -4.7389998 2.8080001
19.597 -4.7350001 2.796
19.594 -4.7389998 2.789
19.598 -4.7340002 2.776
19.591 -4.7420001 2.773
19.591 -4.7420001 2.7639999
19.594 -4.7389998 2.7520001
19.596001 -4.7360001 2.74
19.591 -4.7420001 2.7360001
19.59 -4.743 2.727
19.606001 -4.724 2.701
19.59 -4.743 2.7079999
19.594999 -4.737 2.694
19.591999 -4.7399998 2.687
19.589001 -4.743 2.681
19.597 -4.7329998 2.6630001
19.593 -4.7379999 2.658
19.597 -4.7329998 2.645
19.587 -4.7459998 2.6459999
19.591 -4.7399998 2.6329999
19.594999 -4.7360001 2.6199999
19.587 -4.7449999 2.619
19.589001 -4.7420001 2.6070001
19.591999 -4.7389998 2.595
19.586 -4.7449999 2.592
19.589001 -4.7420001 2.5799999
19.584 -4.7480001 2.576
19.587 -4.7449999 2.5639999
19.598 -4.7309999 2.5439999
19.598 -4.7309999 2.5350001
19.605 -4.723 2.52
19.598 -4.73 2.517
19.587999 -4.7420001 2.517
19.597 -4.7319999 2.5
19.6 -4.7280002 2.4890001
19.599001 -4.7290001 2.4809999
19.603001 -4.724 2.4690001
19.6 -4.7280002 2.4630001
19.594 -4.7340002 2.4590001
19.594999 -4.7340002 2.4489999
19.598 -4.73 2.438
19.598 -4.7290001 2.4289999
19.601 -4.7259998 2.4170001
19.593 -4.7350001 2.4159999
19.604 -4.7210002 2.3970001
19.599001 -4.7270002 2.3929999
19.601999 -4.723 2.381
19.6 -4.7259998 2.375
19.607 -4.717 2.3599999
19.605 -4.7189999 2.3529999
19.601 -4.724 2.348
19.601999 -4.724 2.339
19.599001 -4.7259998 2.332
19.597 -4.7290001 2.326
19.601999 -4.7220001 2.313
19.591 -4.7360001 2.3139999
19.607 -4.7160001 2.2909999
19.601 -4.723 2.2880001
19.599001 -4.7259998 2.2820001
19.601999 -4.7220001 2.27
19.594 -4.7309999 2.2690001
19.597 -4.7270002 2.257
19.604 -4.7199998 2.244
19.593 -4.7319999 2.244
19.601999 -4.7210002 2.2279999
19.608 -4.7140002 2.2149999
19.603001 -4.7199998 2.211
19.594999 -4.7290001 2.2090001
19.599001 -4.7249999 2.198
19.594 -4.7309999 2.1930001
19.606001 -4.7160001 2.1760001
19.604 -4.7189999 2.1689999
19.593 -4.7309999 2.1689999
19.599001 -4.724 2.1559999
19.598 -4.7249999 2.1489999
19.601 -4.7220001 2.138
19.601 -4.7210002 2.1300001
19.608 -4.7129998 2.1170001
19.603001 -4.7189999 2.112
19.591999 -4.7309999 2.112
19.601999 -4.7199998 2.0969999
19.601999 -4.7189999 2.0880001
19.597 -4.7249999 2.0840001
19.598 -4.724 2.075
19.608 -4.7119999 2.0599999
19.597 -4.7249999 2.0599999
19.606001 -4.7129998 2.0450001
19.599001 -4.7220001 2.043
19.605 -4.7140002 2.03
19.612 -4.7059999 2.017
19.604 -4.7160001 2.0139999
19.601999 -4.7179999 2.0079999
19.601 -4.7189999 2.0009999
19.598 -4.7220001 1.995
19.601999 -4.7179999 1.984
19.605 -4.7140002 1.974
19.608999 -4.7090001 1.9630001
19.601999 -4.7179999 1.961
19.614 -4.7030001 1.944
19.601 -4.7189999 1.946
