ply
format ascii 1.0
comment PCL generated
element vertex 1003
property float x
property float y
property float z
element camera 1
property float view_px
property float view_py
property float view_pz
property float x_axisx
property float x_axisy
property float x_axisz
property float y_axisx
property float y_axisy
property float y_axisz
property float z_axisx
property float z_axisy
property float z_axisz
property float focal
property float scalex
property float scaley
property float centerx
property float centery
property int viewportx
property int viewporty
property float k1
property float k2
end_header
-27.327763 2.0265713 0.053333335
-27.294498 2.0035 0.0079999994
-29.243601 3.0150001 0.048800003
-29.140501 3.0509167 0.046416666
-29.092144 3.0708573 0.035857141
-29.114693 3.144769 0.051615387
-29.095751 3.1182499 0.066
-29.151001 3.2105 0.035500001
-28.852301 3.5841999 0.050300002
-27.2164 3.5776002 0.056799997
-27.183002 3.5916002 0.049200002
-28.817001 3.6524091 0.048954543
-27.135384 3.6109233 0.047307696
-27.039392 3.6556792 0.047214285
-26.981333 3.679889 0.032444444
-28.816462 3.7489233 0.045846161
-28.792799 3.7428002 0.0372
-27.028198 3.7597501 0.056000005
-26.986998 3.7258182 0.022454547
-28.57 4.0609999 0.059999999
-28.587002 4.138 0.041000001
-28.567556 4.2313333 0.02577778
-28.077 4.5770001 0.057999998
-27.327824 1.9797646 0.14723529
-27.428499 2.06725 0.16749999
-27.365168 2.0378335 0.1513889
-29.243002 3.0196667 0.13266668
-29.139402 3.0551002 0.1487
-29.087111 3.0680001 0.15133333
-29.116314 3.144875 0.15431249
-29.091999 3.1159999 0.146
-29.229 3.2719998 0.13850001
-29.156334 3.2280002 0.15433335
-28.835102 3.5856004 0.1481
-27.226099 3.5736001 0.1446
-27.168667 3.5941668 0.15566668
-28.815042 3.656044 0.14817391
-28.798 3.6900001 0.132
-27.127846 3.6154618 0.15246153
-27.046106 3.663857 0.14314286
-28.812626 3.7523749 0.14093751
-28.7885 3.75 0.141
-27.123001 3.779 0.171
-27.066189 3.7471251 0.14143749
-27.118799 3.8118 0.1652
-27.08075 3.81075 0.1235
-27.130001 3.9588335 0.14116667
-27.032001 3.9571431 0.1547143
-28.570999 4.6845002 0.1505
-28.565001 4.7480001 0.147
-28.549 4.8080001 0.178
-27.359356 1.971 0.24588238
-27.523499 2.0415001 0.28600001
-27.435562 2.0673752 0.25093749
-27.381601 2.0223999 0.24404998
-29.214666 3.029 0.25033334
-29.139112 3.053 0.25122222
-29.085375 3.0778751 0.2485
-29.113373 3.1551251 0.2445
-29.095001 3.1333997 0.2631
-29.226999 3.2720001 0.215
-29.141003 3.2390003 0.24833333
-28.841 3.584286 0.24028572
-27.3202 3.5416 0.25299999
-27.246367 3.570684 0.24942107
-27.153999 3.5935001 0.22999999
-28.820541 3.6516924 0.24296156
-28.797001 3.684 0.26300001
-27.133453 3.6337729 0.25527275
-27.078096 3.6574759 0.2389048
-28.811848 3.7556155 0.25107694
-28.792751 3.75 0.2385
-27.209 3.79 0.204
-27.134153 3.7493339 0.25358972
-27.090002 3.7174287 0.21285716
-28.838001 3.8015001 0.23800001
-27.150251 3.8095 0.22975001
-27.127501 3.9610002 0.24562499
-27.028334 3.9636669 0.2465
-26.971533 3.9783998 0.25146669
-28.574001 4.6865001 0.25083333
-28.559166 4.7485003 0.24216667
-28.558498 4.8200002 0.249
-27.41375 1.98025 0.3705
-27.386002 1.966875 0.33931246
-27.54175 2.04825 0.35325
-27.437078 2.049654 0.35169232
-27.389334 2.0143335 0.31099999
-29.236 3.0179999 0.361
-29.149399 3.0498002 0.3479
-29.089401 3.0808001 0.3576
-29.110155 3.151154 0.35269234
-29.09425 3.1247501 0.35175002
-29.135199 3.2302997 0.34110001
-28.837002 3.5846252 0.34575003
-27.337749 3.5406251 0.351625
-27.241949 3.571579 0.35705262
-27.172501 3.5910001 0.331
-28.818743 3.6464784 0.34313044
-28.795 3.6489999 0.30399999
-27.150164 3.6489832 0.35091519
-28.807846 3.7338462 0.35346153
-28.793167 3.7458334 0.34450004
-27.2218 3.7562497 0.37000003
-27.176685 3.7371559 0.33856252
-28.809 3.802 0.34649998
-28.799 3.8 0.34599999
-27.227501 3.8105001 0.34799999
-27.104252 3.9675 0.35049999
-27.0404 3.9608002 0.32660002
-26.973667 3.9762921 0.35133335
-27.004999 4.0799999 0.34299999
-26.972383 4.0381608 0.34977415
-26.974924 4.1455002 0.35261542
-26.982 4.2346001 0.35260001
-27.130501 4.3269997 0.34649998
-27.051334 4.3505001 0.35533333
-28.578249 4.6862502 0.33399999
-28.568832 4.7555003 0.35133332
-28.614 4.8354998 0.33899999
-28.564251 4.8214998 0.34850001
-27.43075 1.9680001 0.45089999
-27.5285 2.073875 0.45875001
-27.448931 2.0408931 0.44525012
-29.150183 3.0529091 0.45200002
-29.087 3.0852001 0.4542
-29.113619 3.1686156 0.45661542
-29.090462 3.1301541 0.45307693
-29.212 3.2219999 0.47
-29.136772 3.231231 0.44653842
-28.830799 3.5892003 0.44949999
-27.420002 3.5123334 0.46066672
-27.347857 3.5299051 0.45100003
-27.246714 3.5717149 0.45371428
-27.187 3.5913334 0.43366668
-28.818039 3.6484284 0.4482857
-28.794001 3.6800001 0.42399999
-27.219477 3.66276 0.46683997
-27.183071 3.6358929 0.43535709
-28.9275 3.7715001 0.45450002
-28.820944 3.74 0.44988886
-28.7925 3.7497499 0.45774999
-27.357 3.783 0.48100001
-27.246916 3.7333531 0.44679412
-27.200001 3.7030001 0.41100001
-27.101 3.974 0.479
-27.0776 3.9605999 0.44020006
-26.97324 3.9740798 0.44915998
-26.972561 4.0441217 0.44607314
-27.032333 4.1626668 0.45450002
-26.971342 4.1457238 0.45289657
-26.96525 4.2471247 0.45250002
-27.046585 4.3494167 0.44341668
-26.963667 4.346467 0.45646667
-28.580999 4.6760001 0.414
-28.574001 4.7478576 0.44700003
-28.573999 4.8280001 0.41
-27.521999 1.939 0.58899999
-27.463413 1.9687058 0.54670584
-27.622 2.049 0.58999997
-27.544334 2.0721111 0.54488885
-27.474611 2.0396667 0.55038887
-29.261999 3.026 0.54100001
-29.146503 3.0583 0.55660003
-29.0879 3.0763004 0.55089998
-29.109837 3.1641109 0.54455554
-29.088188 3.1301875 0.55650002
-29.211334 3.2266669 0.542
-29.131001 3.2258005 0.54733336
-27.463598 3.4895997 0.57359999
-28.831604 3.5910995 0.54589999
-28.787001 3.5799999 0.56699997
-27.412334 3.5076666 0.55583334
-27.336649 3.5349004 0.55330002
-27.249159 3.57552 0.54747987
-27.200001 3.598 0.50199997
-28.819504 3.6470587 0.54973537
-28.799999 3.6890001 0.55850005
-27.305 3.698 0.5715
-27.251419 3.6480546 0.54561824
-28.931999 3.7716665 0.542
-28.828564 3.7418125 0.55206245
-28.795334 3.7443333 0.53500003
-27.32078 3.7294447 0.57499999
-27.282936 3.722934 0.52580005
-27.067287 3.9682858 0.54242861
-26.974585 3.9768751 0.55116665
-26.970751 4.0483861 0.55134094
-27.048286 4.1734285 0.55071431
-26.972515 4.1477432 0.55265713
-27.035 4.2255001 0.54000002
-26.973402 4.2220001 0.54800004
-27.040751 4.3474998 0.50725001
-26.958 4.3309999 0.50349998
-27.533375 1.9372499 0.66675001
-27.479223 1.975778 0.64277774
-27.632668 2.0506668 0.64300007
-27.533693 2.069731 0.65861541
-27.489113 2.0203333 0.64433336
-27.561666 2.1030002 0.66266668
-29.153666 3.064111 0.65866673
-29.089087 3.0805001 0.65500003
-29.108858 3.1655717 0.64971429
-29.090477 3.1399999 0.6484285
-29.211334 3.2309999 0.65000004
-29.127924 3.2257695 0.64369231
-27.528 3.4784999 0.64900005
-27.464155 3.4865386 0.65730774
-28.82725 3.5927501 0.649625
-27.407249 3.5105 0.64750004
-27.348999 3.5349126 0.65417397
-27.274336 3.5746295 0.64692599
-28.818998 3.6448233 0.65308815
-28.7955 3.694 0.66750002
-27.322178 3.6632061 0.65797067
-27.283945 3.6324737 0.62663156
-28.936337 3.7723336 0.64766669
-28.833416 3.7463331 0.65116668
-28.797749 3.7342501 0.65000004
-27.415501 3.7234998 0.66350001
-27.341251 3.7160001 0.62849998
-27.055143 3.9702859 0.6442858
-26.972517 3.9785552 0.65148151
-26.969975 4.0449467 0.64835137
-27.050749 4.1800003 0.64287502
-26.969154 4.1472096 0.65171057
-27.045 4.2329998 0.63700002
-26.973 4.2084999 0.63199997
-27.632999 1.938 0.78399998
-27.541401 1.9535 0.75150007
-27.648401 2.0586002 0.74760002
-27.546177 2.058795 0.75620532
-27.499001 2.0209999 0.71899998
-27.681499 2.1170001 0.76950002
-27.573502 2.1075001 0.71850002
-29.147083 3.0668333 0.76458335
-29.092251 3.0821252 0.73874998
-29.107603 3.1678002 0.74290001
-29.088003 3.1334581 0.74983335
-29.221668 3.2266669 0.75866669
-29.125 3.2239168 0.75524998
-29.1 3.201 0.75999999
-27.533768 3.4602311 0.75846159
-27.451668 3.486083 0.74641675
-28.8365 3.5904999 0.77499998
-28.7915 3.5795 0.74349999
-27.411335 3.5128334 0.75383329
-27.339544 3.5591257 0.75427079
-27.29125 3.55425 0.71600002
-28.820868 3.6447842 0.7528919
-28.796 3.698 0.74000001
-27.403 3.698 0.79500002
-27.361261 3.6450946 0.74881113
-28.940001 3.7736669 0.75333333
-28.827785 3.7561302 0.76121736
-28.793499 3.7815001 0.76499999
-27.423 3.7115002 0.75600004
-27.364 3.707 0.704
-28.918499 3.8015001 0.77199996
-28.872 3.802 0.77999997
-27.151751 3.9780002 0.75275004
-27.035002 3.9703336 0.75283337
-26.97154 3.9761927 0.74573082
-26.969511 4.0444889 0.74668086
-27.048777 4.1803336 0.74344444
-26.964727 4.141818 0.74448484
-27.08 4.2189999 0.74000001
-26.982334 4.2019997 0.76300001
-27.631403 1.9438002 0.85540003
-27.552702 1.9705002 0.84910005
-27.705 2.043 0.84200001
-27.629364 2.0830002 0.85009098
-27.560999 2.0430977 0.84663415
-29.207001 3.0665002 0.87699997
-29.1415 3.0673573 0.85100001
-29.097668 3.092 0.82933331
-29.108799 3.1545999 0.84779996
-29.091089 3.1354349 0.85034776
-29.2265 3.2265 0.84949994
-29.122501 3.2244289 0.85328585
-29.1 3.2049999 0.83399999
-27.618668 3.4300001 0.85966671
-27.557234 3.4491768 0.85482359
-27.466833 3.4824998 0.85800004
-27.375999 3.494 0.86500001
-28.827 3.5899999 0.838
-27.41493 3.5292144 0.85471445
-27.376675 3.5560286 0.8479411
-28.824286 3.6484373 0.85237491
-27.4263 3.6421108 0.86022216
-27.390499 3.6274166 0.82908332
-28.937668 3.7843337 0.86300004
-28.827579 3.7551394 0.8488372
-28.79475 3.7722499 0.84999996
-28.917 3.803 0.82850003
-28.877001 3.8 0.89300001
-27.1294 3.9778001 0.84860003
-27.0124 3.9683998 0.83939999
-26.968 3.9770739 0.84966683
-26.966106 4.0459175 0.84852076
-27.062572 4.1838574 0.83557153
-26.97077 4.1498208 0.8454358
-27.013 4.2140002 0.82499999
-26.97625 4.2077503 0.85312498
-27.624001 1.9345 0.93449998
-27.57225 1.9818749 0.94112504
-27.7265 2.056 0.96649998
-27.62476 2.07444 0.95047992
-27.578789 2.0312355 0.94411749
-27.724001 2.1059999 0.995
-27.639999 2.1023335 0.95500004
-29.22225 3.0717499 0.94975007
-29.156301 3.0766001 0.95149994
-29.088499 3.0815001 0.95600003
-29.106144 3.1755717 0.92800003
-29.088684 3.1358185 0.95427281
-29.225002 3.2309999 0.93966669
-29.129637 3.2298183 0.95072722
-29.09 3.207 0.90799999
-27.623335 3.426667 0.94933337
-27.549997 3.45415 0.95679998
-27.4765 3.4867005 0.94890004
-28.831333 3.5916669 0.92700005
-27.430706 3.5472355 0.94738233
-27.3955 3.5395 0.91850001
-28.828917 3.6389165 0.94804168
-27.523499 3.6589999 0.95649999
-27.460579 3.6305163 0.94322574
-29.029499 3.7695 0.98650002
-28.9445 3.7775002 0.9465
-28.827415 3.7546098 0.94799989
-28.793999 3.7704999 0.97850001
-28.917252 3.8045001 0.95275003
-28.849249 3.8017502 0.96424997
-27.112999 3.9797502 0.94975007
-27.049667 3.97 0.94366664
-26.974318 3.9744799 0.94839996
-26.968796 4.0464315 0.94509101
-27.101 4.1859999 0.97000003
-27.039713 4.183857 0.94071436
-26.968164 4.1532097 0.94572091
-27.041 4.21 0.92049998
-26.961836 4.2056665 0.96000004
-27.704 1.946 1.035
-27.627857 1.9718573 1.0604286
-27.592251 1.99125 1.02025
-27.7498 2.0558 1.0476
-27.635101 2.05915 1.0551001
-27.593857 2.0202858 1.0342858
-27.711 2.108 1.082
-27.672171 2.109 1.0486667
-29.209499 3.0834999 1.073
-29.1434 3.0882003 1.0468
-29.08675 3.0757499 1.05625
-29.112251 3.1656249 1.046375
-29.089417 3.1435831 1.051625
-29.243668 3.22 1.0496668
-29.129221 3.2395554 1.0501112
-29.096001 3.2030001 1.0569999
-27.698999 3.3929999 1.081
-27.639309 3.418539 1.0426924
-27.553391 3.4485552 1.0498888
-27.4779 3.4819 1.0515
-28.835003 3.5930002 1.0453334
-27.50786 3.5705714 1.0825715
-27.466501 3.5362856 1.0395001
-28.829811 3.6494229 1.0471538
-27.529213 3.6294289 1.0492858
-27.487667 3.6193333 1.013
-29.033001 3.7679999 1.044
-28.958 3.7703333 1.0356667
-28.823669 3.7548497 1.0465001
-28.793003 3.7488 1.0444001
-28.914999 3.8062 1.0544
-28.846497 3.8113008 1.0585001
-27.048124 3.9721251 1.040375
-26.97875 3.9803748 1.0471876
-27.003 4.0635004 1.012
-26.966461 4.0492125 1.0418719
-27.106001 4.1835003 1.0355
-27.054111 4.1832223 1.0585556
-26.965591 4.1469603 1.0441765
-27.118 4.2090001 1.057
-27.01 4.2259998 1.067
-26.976166 4.2118335 1.0506668
-27.6348 1.9807999 1.1398
-27.801001 2.056 1.165
-27.738001 2.0827999 1.1548001
-27.651686 2.0488889 1.1438891
-27.745802 2.1172001 1.159
-27.673 2.0999999 1.1289999
-29.213001 3.089 1.1605
-29.151749 3.0925 1.142
-29.087334 3.0823333 1.1503334
-29.112431 3.1558573 1.1682857
-29.086044 3.1419997 1.1472727
-29.241001 3.2263334 1.1576667
-29.121065 3.2309377 1.1555624
-29.096748 3.2124999 1.15475
-27.714001 3.389667 1.1583333
-27.643003 3.4161668 1.1423334
-27.548607 3.4622507 1.1505715
-27.485334 3.4846668 1.1183333
-28.854 3.5875001 1.154
-27.541079 3.5598154 1.1536667
-27.482 3.5125 1.1125
-28.832212 3.6478693 1.1518697
-27.628 3.6289999 1.199
-27.568375 3.6244998 1.139375
-28.972668 3.763 1.1426667
-28.822498 3.7519758 1.1452142
-28.795334 3.7449999 1.1530001
-28.909668 3.8100002 1.1443334
-28.84543 3.8128574 1.1401429
-27.132 3.9760001 1.197
-27.041498 3.9763751 1.138875
-26.97843 3.9780002 1.1522144
-26.971663 4.0517197 1.14844
-27.104336 4.1896667 1.164
-27.035288 4.1828575 1.1608572
-26.966711 4.1472082 1.1461877
-27.115999 4.2090001 1.158
-27.048 4.2276669 1.1316667
-26.969999 4.2096252 1.1595
-27.662001 1.983 1.2573333
-27.812 2.0480001 1.212
-27.733164 2.0840001 1.257
-27.673653 2.0381305 1.240913
-27.729801 2.1071999 1.2528
-29.184502 3.0904999 1.2579999
-29.083668 3.0773332 1.235
-29.104374 3.1431251 1.25825
-29.088049 3.1424501 1.2485
-29.245501 3.2259998 1.2485
-29.118158 3.2414207 1.2586843
-29.095144 3.2222857 1.2514286
-27.761398 3.3674004 1.2622
-27.683498 3.391 1.2509999
-27.631435 3.4216876 1.2455626
-27.564911 3.4618258 1.2524348
-28.848333 3.5910001 1.2593334
-27.6171 3.5616002 1.2778
-27.575947 3.5388889 1.2378888
-28.839117 3.6539414 1.2589999
-27.632 3.6138573 1.2377144
-28.975334 3.7650001 1.2486666
-28.823711 3.7554462 1.2481488
-28.831749 3.83025 1.249
-27.13525 3.97925 1.2515
-27.028667 3.9766669 1.2521667
-26.977335 3.981667 1.2517999
-26.972326 4.0517344 1.2483063
-27.106001 4.1923332 1.2613333
-27.041668 4.185667 1.2586668
-26.967152 4.1480002 1.2491875
-27.1185 4.2090001 1.2335
-26.974888 4.2101111 1.2334443
-27.730335 1.9563334 1.3673333
-27.696333 1.9866667 1.3590001
-27.831249 2.0632501 1.3382499
-27.724998 2.0609288 1.3620714
-27.686117 2.025588 1.332059
-27.741302 2.1078002 1.3437001
-29.164749 3.09375 1.3560001
-29.065001 3.096 1.3049999
-29.306 3.1819999 1.382
-29.11475 3.125 1.3500001
-29.084064 3.1468065 1.3488709
-29.118624 3.2445004 1.3555001
-29.0912 3.2113998 1.3456
-29.155001 3.336 1.392
-27.808001 3.358 1.33
-27.764778 3.3663332 1.3591112
-27.687 3.391 1.373
-27.623459 3.4450002 1.3580836
-27.592718 3.4614286 1.3248572
-28.858 3.5869999 1.368
-27.725 3.595 1.376
-27.65 3.5494812 1.3511853
-28.838839 3.651737 1.3533685
-27.725 3.6140001 1.377
-28.972 3.771667 1.354
-28.828497 3.7466841 1.3497369
-28.799 3.77 1.34
-28.819668 3.823 1.3566668
-27.139801 3.9857998 1.35
-27.019833 3.9836669 1.347
-26.981094 3.9827726 1.3529546
-26.971325 4.0489578 1.3484998
-27.107 4.1960001 1.342
-27.043501 4.1878338 1.3556666
-26.968937 4.1463923 1.3507845
-27.122 4.2053337 1.3533334
-27.007999 4.2249999 1.346
-26.974144 4.2104287 1.3474286
-27.737202 1.966 1.4294001
-27.865202 2.0664001 1.4442
-27.737688 2.0531373 1.4466081
-27.694 2.02 1.41
-27.778999 2.1121666 1.4361666
-29.165001 3.0969999 1.418
-29.14275 3.1140003 1.458125
-29.082737 3.1469121 1.4458822
-29.255001 3.2260001 1.4484999
-29.119373 3.2460001 1.4410625
-29.092617 3.2273846 1.4544617
-29.223 3.3210001 1.499
-29.142334 3.329 1.4533333
-27.919001 3.358 1.461
-27.848835 3.3450837 1.4597499
-27.758251 3.3696251 1.456875
-27.698 3.392 1.4220001
-27.658829 3.453759 1.4506208
-28.844 3.589 1.448
-27.728001 3.5549169 1.4672501
-27.680334 3.5325558 1.4283334
-28.841688 3.6537499 1.4474374
-28.948801 3.7765999 1.4654
-28.831203 3.7462671 1.4500332
-28.837002 3.8343334 1.4510001
-27.122999 3.9890003 1.4537145
-27.033146 3.9837143 1.4392859
-26.980556 3.9827771 1.4468334
-26.973137 4.0511775 1.4539777
-27.118999 4.1900001 1.457
-27.045834 4.1896667 1.4526666
-26.971018 4.1483698 1.4494814
-27.11725 4.204 1.4454999
-27.023001 4.2270002 1.49
-26.9676 4.2114 1.4489001
-27.819 1.949 1.55
-27.753601 1.9872 1.5438
-27.91367 2.059 1.5649999
-27.815666 2.0943334 1.5323334
-27.761732 2.0520568 1.5461318
-27.826 2.1117778 1.5547779
-27.783001 2.102 1.502
-29.207001 3.118 1.574
-29.142502 3.1119001 1.5518
-29.079473 3.1495504 1.55
-29.250334 3.2343338 1.557
-29.123753 3.2478333 1.549
-29.089354 3.232353 1.5428823
-29.129599 3.3138001 1.5550001
-27.914001 3.3200002 1.5513334
-27.842136 3.3442004 1.5552667
-27.760849 3.3731542 1.5516156
-27.725182 3.4667273 1.5647273
-27.689802 3.4454 1.5262002
-28.8785 3.585 1.53
-27.82 3.5699999 1.566
-27.754814 3.53125 1.5471251
-28.841331 3.6496193 1.5463809
-28.944 3.7792501 1.5555
-28.833803 3.76036 1.5539201
-28.84943 3.8345711 1.5417143
-27.120144 3.9934285 1.5455716
-27.027859 3.9814289 1.5467143
-26.977892 3.9827902 1.5466841
-27.122999 4 1.549
-27.004999 4.02 1.506
-26.975779 4.0485554 1.5496222
-27.1175 4.1949997 1.5539999
-27.042799 4.1911998 1.5430001
-26.971758 4.1505218 1.5471085
-27.110334 4.2070003 1.5413334
-27.031334 4.2189999 1.5783334
-26.9725 4.211875 1.5466249
-27.837999 1.971 1.665
-27.785801 1.9882001 1.6534001
-27.936501 2.0704999 1.6705
-27.825354 2.0815294 1.6571766
-27.782396 2.039212 1.6465455
-27.834599 2.1080997 1.6536999
-29.224333 3.1290002 1.6589999
-29.148703 3.1180999 1.6468
-29.077776 3.1556389 1.6498612
-29.2605 3.2294998 1.6495
-29.118387 3.2557695 1.6497692
-29.088398 3.2382495 1.6567
-27.951332 3.2913337 1.6646669
-29.1285 3.3099999 1.6735001
-29.094999 3.302 1.6194999
-27.937889 3.3114443 1.6539999
-27.847469 3.3362668 1.6507335
-27.761433 3.3740001 1.6462144
-27.772778 3.4598334 1.6385556
-28.897999 3.5825 1.638
-27.900999 3.566 1.646
-27.836861 3.5288572 1.6612858
-27.7824 3.5125999 1.6246001
-28.844852 3.6537499 1.6515999
-28.962748 3.7795 1.645
-28.830667 3.7584331 1.6532334
-28.840666 3.8231668 1.6424167
-27.110001 3.9933999 1.6496
-27.04775 3.9876668 1.658
-26.974821 3.9846365 1.6492728
-27.122 4 1.607
-27.041668 4.0113335 1.6400001
-26.974434 4.0536222 1.6492453
-27.132 4.1849999 1.653
-27.050667 4.1929998 1.6471667
-26.972939 4.1517191 1.64732
-27.113749 4.2055001 1.6435
-27.021 4.2410002 1.6884999
-26.972692 4.212461 1.6414616
-27.827 1.9875 1.75825
-27.791 1.9910001 1.728
-27.940334 2.0776668 1.7359999
-27.829947 2.0639446 1.7570833
-27.793779 2.0294445 1.723111
-27.874601 2.1102998 1.7566999
-29.074038 3.1559999 1.7424444
-29.252666 3.2396667 1.7386668
-29.145666 3.2683334 1.7486668
-29.086294 3.2369258 1.7519996
-28.018999 3.283 1.734
-27.966902 3.2854002 1.7549
-29.087999 3.3042502 1.766
-28.045 3.3010001 1.762
-27.930601 3.3113999 1.7520001
-27.842382 3.3438573 1.7471428
-27.785 3.3665001 1.73225
-28.0135 3.4579999 1.7645
-27.822529 3.4488237 1.7472943
-27.782333 3.4099998 1.7086667
-28.876999 3.5855 1.7445
-27.9205 3.54 1.7425001
-27.8615 3.5076249 1.74575
-28.844898 3.6571503 1.75205
-28.951168 3.7814999 1.7413334
-28.831192 3.7558382 1.7524838
-28.846889 3.8270001 1.7427778
-28.799 3.8050001 1.768
-27.044926 3.9906929 1.751308
-26.977333 3.9876666 1.75825
-27.124001 4.0013332 1.7506669
-27.080999 4.0050001 1.776
-26.9765 4.0502052 1.7469318
-27.125 4.1956668 1.7496667
-27.048599 4.1942 1.7508
-26.970526 4.1491456 1.7471457
-27.105999 4.2104998 1.737
-27.0378 4.2403998 1.7386001
-26.9646 4.2122002 1.7517999
-27.861288 1.9795715 1.8494288
-27.966251 2.0855 1.84075
-27.84981 2.0588093 1.8451905
-27.921001 2.1226666 1.8696668
-27.891573 2.1084285 1.8538572
-29.08161 3.2316954 1.846826
-28.025 3.2751999 1.8528
-27.962601 3.2865002 1.8485998
-29.106001 3.309 1.853
-29.087999 3.3050001 1.851
-27.921499 3.309875 1.8516251
-27.856638 3.3524399 1.8487202
-28.034002 3.4446666 1.8540001
-27.932999 3.4849999 1.8578001
-27.863575 3.4349291 1.8393571
-28.885 3.5845001 1.8525
-27.927 3.5009999 1.88
-27.899 3.5050001 1.8099999
-28.842852 3.6576669 1.8526192
-28.950504 3.786 1.8474998
-28.830078 3.7556491 1.8511081
-28.81925 3.81375 1.8582501
-27.119667 3.9920001 1.8566668
-27.044634 3.9929092 1.8489093
-26.975277 3.99 1.8470911
-27.145 4.0020003 1.8726667
-27.077499 4.0030003 1.8625
-26.975361 4.0535808 1.8484399
-27.063 4.1890001 1.8269999
-26.968941 4.1508393 1.8452597
-27.116501 4.2077503 1.8374999
-27.054998 4.2058001 1.8516001
-26.963373 4.2143745 1.8469377
-27.9135 1.9779999 1.9614999
-27.889 1.9833335 1.948
-28.003 2.0799999 1.9450001
-27.934715 2.079 1.9508573
-27.874859 2.0545557 1.9450279
-27.935732 2.1220002 1.9592668
-27.892599 2.1060002 1.9248002
-29.124146 3.2704287 1.9437145
-29.085037 3.2379632 1.9417409
-28.126999 3.2366002 1.9614
-28.036644 3.2668574 1.9517146
-27.967875 3.2855 1.95375
-29.126001 3.3418 1.9574002
-29.095333 3.3036668 1.9200001
-27.935833 3.3301666 1.9580834
-27.885868 3.3506 1.9446002
-28.041 3.4423332 1.959
-27.940735 3.4504001 1.9514667
-27.896 3.4105 1.9265001
-27.944 3.5120001 1.911
-28.843922 3.665185 1.9534814
-29.004 3.77 1.96
-28.938 3.78825 1.94425
-28.832361 3.7550557 1.9519441
-28.870335 3.8280001 1.9530001
-27.152 3.9990001 1.946
-27.034229 3.992846 1.9437691
-26.97677 3.9896154 1.9490001
-27.146833 4.0043335 1.9583334
-27.0135 4.039 1.9449999
-26.975027 4.0500793 1.9478602
-27.052334 4.1960001 1.9396666
-26.967632 4.1534462 1.9463401
-27.11475 4.21 1.9359999
-27.064751 4.20575 1.94525
-26.967121 4.2171249 1.9538751
-27.929836 1.9826667 2.0458336
-28.033749 2.08425 2.0545001
-27.917068 2.0677242 2.0545516
-27.890257 2.0392501 2.0262001
-28.012501 2.125 2.0370002
-27.945221 2.114222 2.0500557
-28.126001 3.2327144 2.0558574
-28.051081 3.2603846 2.055923
-27.974001 3.2844441 2.0542221
-28.150999 3.3959999 2.076
-27.945776 3.3415184 2.0522964
-28.129002 3.4135001 2.0204999
-28.028502 3.4420002 2.069
-27.975376 3.4260001 2.0493748
-28.847498 3.6605003 2.0511432
-28.927 3.7903335 2.0583334
-28.836626 3.7472188 2.0564065
-28.8598 3.8240001 2.0529001
-27.115 3.994 2.006
-27.037285 3.994 2.0347145
-26.980936 3.9911251 2.0534999
-27.139858 4.0075717 2.0555716
-27.055166 4.0038333 2.0521667
-26.973911 4.053431 2.0448444
-26.967283 4.152956 2.0461953
-27.122335 4.2096667 2.0416667
-27.057503 4.2092505 2.0365
-26.961369 4.2140002 2.0542104
-27.952335 1.9786667 2.1346667
-28.078751 2.08075 2.1554999
-27.936644 2.055151 2.1470566
-27.980629 2.1170001 2.1510527
-28.209999 3.1919999 2.1570001
-28.173 3.1960001 2.1215
-28.143232 3.2277696 2.154923
-28.043215 3.2667859 2.1472144
-27.983999 3.2872224 2.1629999
-28.153999 3.3963335 2.146667
-28.014111 3.3470001 2.1829998
-27.978998 3.3306248 2.13925
-28.052923 3.4253078 2.1544616
-28.104 3.5109999 2.1340001
-28.846418 3.6612082 2.1492085
-28.970669 3.7973335 2.1546667
-28.837595 3.7552814 2.1583438
-28.926199 3.8121998 2.1712
-28.843502 3.8126667 2.1556668
-27.054401 3.9888 2.1422002
-26.983269 3.9936001 2.1509335
-27.139126 4.0108747 2.1487501
-27.042801 4.007 2.1342003
-26.971857 4.0496435 2.1440895
-27.077332 4.1963334 2.1486669
-26.96664 4.1482506 2.1470196
-27.124001 4.2119999 2.139667
-27.0632 4.2090001 2.1294
-26.966158 4.2184734 2.1513159
-28.042 1.946 2.217
-27.964001 1.993 2.2226667
-28.133499 2.069 2.2835
-28.043499 2.0929999 2.2550001
-27.965731 2.0530813 2.2518978
-28.017166 2.1250834 2.2534168
-27.989334 2.1078889 2.2325556
-28.255001 3.1824999 2.2519999
-28.183001 3.1960001 2.2609999
-28.143692 3.223 2.2520003
-28.042957 3.269125 2.2496252
-28.275002 3.3415 2.25
-28.146601 3.3894002 2.2588003
-28.048559 3.3465624 2.2517498
-28.141668 3.4433334 2.2646666
-28.080002 3.4126 2.2228
-28.850159 3.6657369 2.2462106
-28.936001 3.79 2.2373333
-28.8388 3.7566998 2.2530336
-28.943501 3.8134999 2.251375
-28.851086 3.8144166 2.2516668
-27.106499 3.9949999 2.2364998
-27.022202 3.9821999 2.2336004
-26.9814 3.9937 2.2491002
-27.124668 4.0096664 2.2396669
-27.080286 4.0065713 2.2627144
-26.972258 4.0485725 2.2462573
-27.069 4.1984997 2.2020001
-26.962259 4.1503534 2.2483704
-27.134001 4.2066669 2.2396667
-27.053625 4.2147498 2.2523751
-26.968105 4.2205267 2.2582631
-28.015499 1.9944999 2.3555002
-28.129333 2.0823333 2.3483334
-28.011955 2.0684285 2.372
-27.98554 2.0492692 2.3397694
-28.040548 2.1236362 2.352773
-28.276751 3.17225 2.37975
-28.173 3.1975 2.3385
-28.145603 3.2262003 2.3519998
-28.073441 3.2605 2.3473749
-28.27467 3.3456669 2.3376667
-28.135073 3.3698668 2.3590002
-28.082199 3.3285 2.3313
-28.151751 3.40975 2.3299999
-28.8505 3.6718128 2.3403749
-28.9345 3.7955 2.3255
-28.840719 3.760278 2.3509722
-28.946201 3.8123996 2.3535001
-28.852667 3.8147502 2.3482502
-27.115999 3.9960001 2.309
-27.044001 3.9947999 2.3434
-26.98189 3.9918892 2.3515556
-27.13825 4.0120001 2.3462501
-27.078144 4.0058575 2.3585718
-26.975477 4.0486712 2.3509505
-26.961117 4.1535769 2.3533654
-27.134001 4.2110004 2.337667
-27.05578 4.214889 2.3503335
-26.972155 4.224052 2.3541052
-28.139999 1.961 2.4530001
-28.053999 1.987 2.4629998
-28.201 2.0780001 2.4960001
-28.1675 2.0739999 2.431
-28.026821 2.0598836 2.4554191
-27.997002 2.023 2.4143333
-28.11517 2.131 2.4651666
-28.057476 2.1190002 2.4549475
-28.319 3.164 2.44275
-28.265751 3.1735001 2.4632499
-28.174999 3.1975 2.4445
-28.205 3.204 2.4419999
-28.137138 3.2427731 2.4521823
-28.091999 3.263 2.4100001
-28.247665 3.3499999 2.4408336
-28.157766 3.3381765 2.451
-28.214001 3.4089999 2.47
-28.16 3.4089999 2.4030001
-28.953251 3.79775 2.4625001
-28.840279 3.7607443 2.4488606
-28.942719 3.8135715 2.4451432
-28.859856 3.8143578 2.452786
-27.118 3.9960001 2.454
-27.054169 3.9908333 2.4420004
-26.980331 3.9941664 2.4468334
-27.143202 4.0112 2.4661999
-27.041901 4.0064001 2.4514
-26.972654 4.0494099 2.4505084
-26.959694 4.1504641 2.4532788
-27.132668 4.2156668 2.4353333
-27.053999 4.2183328 2.453778
-26.964684 4.2152109 2.4514735
-28.1385 1.972 2.5434999
-28.078501 1.9949999 2.5675001
-28.221668 2.0533333 2.5686667
-28.144501 2.0925 2.5625
-28.056911 2.0576136 2.5547955
-28.131111 2.131 2.569
-28.080753 2.1176667 2.5370002
-28.411499 3.1245 2.5895
-28.34967 3.1528335 2.5391667
-28.261402 3.1760001 2.5578001
-28.191 3.1919999 2.5315001
-28.406 3.2865 2.552
-28.212999 3.2985001 2.5799999
-28.171822 3.2373526 2.5432942
-28.312 3.323 2.592
-28.238869 3.3433332 2.553067
-28.185169 3.3185 2.5251665
-28.945667 3.7963333 2.559
-28.844692 3.7568376 2.5479534
-28.936169 3.8156669 2.5463336
-28.853333 3.8205004 2.5532222
-27.123669 3.9966667 2.5513334
-27.016333 3.9773335 2.553
-26.979668 3.9925001 2.5476668
-27.142376 4.0129995 2.555125
-27.044748 4.0059996 2.5586252
-26.967682 4.0504088 2.5494428
-26.958792 4.1528368 2.5522857
-27.147667 4.2066669 2.5370002
-27.047998 4.2164445 2.554889
-26.963476 4.2188945 2.5488949
-28.149002 1.9796666 2.6366668
-28.2365 2.082 2.658
-28.116112 2.0726666 2.6707778
-28.081785 2.0575132 2.6499455
-28.129507 2.1254091 2.654273
-28.098999 2.1115 2.6364999
-28.428574 3.1187143 2.6484289
-28.353582 3.1509168 2.6447501
-28.259918 3.1794167 2.6587501
-28.403999 3.2939999 2.6760001
-28.3955 3.299 2.6205001
-28.235876 3.2611873 2.6561875
-28.192999 3.2150002 2.6256666
-28.32 3.3257501 2.6712499
-28.267582 3.3317499 2.6445835
-28.842981 3.7601089 2.6471524
-28.935001 3.8107502 2.6420002
-28.855412 3.8195882 2.6411178
-27.107 3.994 2.6459999
-26.976873 3.988625 2.6453748
-27.136499 4.0111246 2.6556249
-27.052999 4.0088749 2.645
-26.970304 4.0485506 2.6511884
-27.163 4.197 2.6389999
-26.961733 4.1512446 2.6514444
-27.1525 4.2060003 2.6364999
-27.0431 4.2202997 2.6513002
-26.962206 4.2194209 2.6488423
-28.171001 1.9777499 2.72525
-28.276501 2.0681667 2.7618332
-28.116678 2.06652 2.7489603
-28.095001 2.0418572 2.7338574
-28.212002 2.1293335 2.7353332
-28.153751 2.1205356 2.7519643
-28.439405 3.1147001 2.7478998
-28.354801 3.1432002 2.7462001
-28.278545 3.1828184 2.7539999
-28.518999 3.244 2.7650001
-28.412001 3.2896667 2.7483335
-28.31525 3.2655001 2.7739999
-28.280254 3.2554166 2.7476668
-28.330334 3.3109999 2.7628336
-28.2885 3.316 2.707
-28.860693 3.665308 2.7484617
-28.936666 3.7953334 2.7376666
-28.838509 3.7613833 2.7472341
-28.860062 3.8143749 2.7474375
-27.118999 3.9960001 2.744
-27.02 3.9960001 2.723
-26.971748 3.9872501 2.747
-27.125908 4.0159092 2.7529092
-27.066502 4.013 2.7524998
-26.969627 4.0472531 2.7488356
-27.187 4.1805 2.743
-26.959103 4.1536069 2.7491767
-27.101999 4.2140002 2.7620001
-27.035183 4.2222729 2.7554545
-26.957056 4.2205553 2.7461114
-28.219 1.9796667 2.8383331
-28.183334 1.9803333 2.8386667
-28.322001 2.0769999 2.881
-28.251499 2.0915 2.8169999
-28.140577 2.0651937 2.8418388
-28.223232 2.1362307 2.8566923
-28.168875 2.1150832 2.8477085
-28.5065 3.0885 2.8594999
-28.487333 3.0880001 2.836
-28.428999 3.1173334 2.8493335
-28.338734 3.1586006 2.8438001
-28.291 3.1715 2.8105001
-28.513 3.2519999 2.8353336
-28.418669 3.2880001 2.8566666
-28.338499 3.2454 2.8480499
-28.450001 3.3039999 2.882
-28.3675 3.3215001 2.8334999
-28.862925 3.6671541 2.8527691
-28.843838 3.7567081 2.8474166
-28.861633 3.8181052 2.8523159
-27.132999 3.9979999 2.842
-26.974167 3.9923334 2.8305001
-27.136402 4.0183997 2.8234
-27.072336 4.0125556 2.8577778
-26.972464 4.0484352 2.8486667
-27.193001 4.1794996 2.8600001
-26.959044 4.1512828 2.84937
-27.040232 4.2319999 2.8474615
-26.96294 4.2167649 2.8532941
-28.253332 1.9743333 2.9383335
-28.3172 2.076 2.928
-28.203499 2.069 2.9860001
-28.171383 2.0690687 2.9488621
-28.230749 2.1273127 2.951
-28.186169 2.1151667 2.9403334
-28.530285 3.0835717 2.9387145
-28.480251 3.095 2.9542501
-28.427832 3.1133335 2.9350002
-28.368084 3.158917 2.9458332
-28.529333 3.2420001 2.9463334
-28.419249 3.2609999 2.9606247
-28.370646 3.2319999 2.9360003
-28.844568 3.7536931 2.9463677
-28.859278 3.8163888 2.9486666
-26.979834 3.9914999 2.9490001
-27.0625 4.0123339 2.9489999
-26.972546 4.0501285 2.9467261
-26.960726 4.1503334 2.9487441
-27.045183 4.2238183 2.9513638
-26.960882 4.2185874 2.9485295
0 0 0 1 0 0 0 1 0 0 0 1 0 0 0 0 0 1003 1 0 0
