ply
format ascii 1.0
comment PCL generated
element vertex 1882
property float x
property float y
property float z
element camera 0
property float view_px
property float view_py
property float view_pz
property float x_axisx
property float x_axisy
property float x_axisz
property float y_axisx
property float y_axisy
property float y_axisz
property float z_axisx
property float z_axisy
property float z_axisz
property float focal
property float scalex
property float scaley
property float centerx
property float centery
property int viewportx
property int viewporty
property float k1
property float k2
end_header
-10.805 -2.915 0.62599999
-10.796 -2.908 0.62
-10.803 -2.914 0.61199999
-10.805 -2.9159999 0.60399997
-10.794 -2.9070001 0.59899998
-10.797 -2.9100001 0.59100002
-10.791 -2.905 0.58499998
-10.796 -2.9089999 0.57700002
-10.805 -2.918 0.56800002
-10.805 -2.9170001 0.56099999
-10.8 -2.914 0.55400002
-10.807 -2.9200001 0.546
-10.794 -2.908 0.54100001
-10.803 -2.9159999 0.53299999
-10.791 -2.9059999 0.52700001
-10.809 -2.9219999 0.51700002
-10.8 -2.915 0.51099998
-10.807 -2.921 0.50300002
-10.813 -2.927 0.495
-10.798 -2.914 0.49000001
-10.798 -2.914 0.48300001
-10.787 -2.904 0.477
-10.8 -2.9159999 0.46799999
-10.804 -2.9189999 0.461
-10.801 -2.9170001 0.454
-10.802 -2.918 0.447
-10.795 -2.9130001 0.44
-10.795 -2.9119999 0.433
-10.798 -2.915 0.426
-10.798 -2.9159999 0.419
-10.801 -2.918 0.41100001
-10.802 -2.9200001 0.40400001
-10.797 -2.915 0.39700001
-10.803 -2.921 0.38999999
-10.807 -2.925 0.382
-10.801 -2.9189999 0.37599999
-10.798 -2.9170001 0.36899999
-10.808 -2.9260001 0.361
-10.808 -2.927 0.354
-10.794 -2.914 0.34799999
-10.804 -2.9230001 0.34
-10.803 -2.9230001 0.333
-10.792 -2.9130001 0.32600001
-10.803 -2.924 0.31799999
-10.802 -2.9230001 0.31099999
-10.794 -2.9159999 0.30500001
-10.799 -2.9200001 0.29699999
-10.797 -2.918 0.28999999
-10.805 -2.9260001 0.28299999
-10.804 -2.925 0.27599999
-10.788 -2.9119999 0.26899999
-10.789 -2.9130001 0.26199999
-10.8 -2.9230001 0.255
-10.803 -2.925 0.248
-10.81 -2.931 0.23999999
-10.799 -2.9219999 0.233
-10.783 -2.908 0.227
-10.816 -2.938 0.219
-10.796 -2.9200001 0.212
-10.802 -2.9260001 0.205
-10.82 -2.941 0.198
-10.8 -2.925 0.191
-10.805 -2.9289999 0.184
-10.804 -2.928 0.177
-10.799 -2.924 0.17
-10.818 -2.941 0.162
-10.825 -2.948 0.155
-10.825 -2.948 0.148
-10.836 -2.9579999 0.141
-10.836 -2.9579999 0.134
-10.854 -2.974 0.127
-10.861 -2.98 0.12
-10.854 -2.974 0.113
-10.865 -2.984 0.106
-10.861 -2.9809999 0.098999999
-10.869 -2.9879999 0.093000002
-10.89 -3.007 0.086000003
-10.887 -3.0039999 0.079000004
-10.887 -3.0039999 0.071999997
-10.894 -3.0109999 0.064999998
-10.894 -3.0109999 0.059
-10.89 -3.0079999 0.052000001
-10.92 -3.0339999 0.046
-10.921 -3.0350001 0.039000001
-10.92 -3.0350001 0.032000002
-10.924 -3.0380001 0.025
-10.913 -3.0280001 0.017999999
-10.928 -3.0420001 0.012
-10.924 -3.039 0.0049999999
-10.92 -2.9349999 2.9920001
-10.928 -2.9419999 2.974
-10.921 -2.9360001 2.97
-10.922 -2.938 2.9579999
-10.922 -2.938 2.948
-10.927 -2.9430001 2.9319999
-10.918 -2.9349999 2.931
-10.926 -2.9419999 2.9130001
-10.919 -2.9360001 2.9089999
-10.918 -2.9360001 2.8989999
-10.918 -2.9360001 2.8889999
-10.918 -2.937 2.878
-10.904 -2.924 2.881
-10.912 -2.9319999 2.8629999
-10.911 -2.9319999 2.8540001
-10.899 -2.921 2.8540001
-10.905 -2.927 2.839
-10.897 -2.9200001 2.836
-10.893 -2.9159999 2.829
-10.892 -2.915 2.8199999
-10.894 -2.918 2.8080001
-10.878 -2.9030001 2.812
-10.88 -2.9059999 2.8
-10.873 -2.9000001 2.796
-10.87 -2.8970001 2.7880001
-10.861 -2.8889999 2.786
-10.872 -2.8989999 2.767
-10.863 -2.891 2.7639999
-10.856 -2.8859999 2.76
-10.852 -2.8829999 2.753
-10.845 -2.8759999 2.7490001
-10.836 -2.868 2.747
-10.832 -2.865 2.7409999
-10.839 -2.872 2.724
-10.826 -2.8599999 2.7249999
-10.829 -2.8629999 2.7130001
-10.828 -2.8629999 2.704
-10.818 -2.8540001 2.7019999
-10.817 -2.8529999 2.6930001
-10.808 -2.846 2.6900001
-10.818 -2.855 2.6719999
-10.805 -2.8429999 2.6730001
-10.79 -2.8310001 2.674
-10.802 -2.842 2.655
-10.796 -2.836 2.6500001
-10.795 -2.836 2.6400001
-10.802 -2.842 2.625
-10.798 -2.839 2.618
-10.798 -2.839 2.608
-10.801 -2.842 2.596
-10.794 -2.8369999 2.5910001
-10.797 -2.8399999 2.579
-10.804 -2.846 2.5639999
-10.797 -2.8399999 2.5599999
-10.797 -2.8399999 2.55
-10.797 -2.8410001 2.54
-10.791 -2.835 2.536
-10.794 -2.8380001 2.523
-10.8 -2.8440001 2.5090001
-10.794 -2.839 2.5039999
-10.799 -2.8440001 2.49
-10.803 -2.848 2.4779999
-10.806 -2.8510001 2.4660001
-10.796 -2.842 2.4630001
-10.79 -2.8369999 2.4590001
-10.8 -2.846 2.4419999
-10.8 -2.846 2.4319999
-10.793 -2.8410001 2.427
-10.802 -2.849 2.411
-10.797 -2.845 2.4059999
-10.791 -2.839 2.401
-10.807 -2.8540001 2.3789999
-10.798 -2.846 2.3770001
-10.804 -2.852 2.3629999
-10.795 -2.8440001 2.3599999
-10.788 -2.839 2.355
-10.795 -2.845 2.3410001
-10.792 -2.8429999 2.3340001
-10.799 -2.849 2.3199999
-10.809 -2.858 2.303
-10.8 -2.8499999 2.3010001
-10.8 -2.8510001 2.2909999
-10.8 -2.8510001 2.2820001
-10.797 -2.849 2.2750001
-10.801 -2.852 2.263
-10.792 -2.8440001 2.26
-10.802 -2.8540001 2.244
-10.792 -2.846 2.2409999
-10.813 -2.8640001 2.2179999
-10.81 -2.862 2.211
-10.798 -2.8510001 2.21
-10.801 -2.8540001 2.1989999
-10.801 -2.855 2.1900001
-10.815 -2.8670001 2.1719999
-10.799 -2.8529999 2.1730001
-10.806 -2.8599999 2.1600001
-10.8 -2.855 2.154
-10.797 -2.852 2.148
-10.797 -2.8529999 2.138
-10.801 -2.8570001 2.1270001
-10.805 -2.8610001 2.115
-10.803 -2.859 2.108
-10.8 -2.8559999 2.1010001
-10.79 -2.848 2.098
-10.798 -2.855 2.0840001
-10.799 -2.8559999 2.075
-10.803 -2.8599999 2.0639999
-10.8 -2.858 2.0569999
-10.804 -2.862 2.0450001
-10.801 -2.8599999 2.0380001
-10.806 -2.8640001 2.027
-10.81 -2.868 2.0150001
-10.804 -2.8629999 2.01
-10.801 -2.8610001 2.003
-10.808 -2.8670001 1.99
-10.806 -2.865 1.983
-10.803 -2.8629999 1.976
-10.804 -2.8640001 1.967
-10.806 -2.8659999 1.957
-10.802 -2.8629999 1.95
-10.81 -2.8699999 1.937
-10.804 -2.865 1.932
-10.809 -2.869 1.921
-10.799 -2.8610001 1.918
-10.804 -2.8659999 1.9069999
-10.808 -2.8699999 1.895
-10.795 -2.859 1.8940001
-10.8 -2.8629999 1.883
-10.797 -2.8610001 1.876
-10.802 -2.865 1.865
-10.81 -2.872 1.852
-10.794 -2.858 1.853
-10.811 -2.8740001 1.834
-10.803 -2.8670001 1.831
-10.804 -2.868 1.822
-10.799 -2.8640001 1.816
-10.791 -2.8570001 1.812
-10.798 -2.8629999 1.8
-10.797 -2.8629999 1.791
-10.803 -2.868 1.78
-10.8 -2.8659999 1.773
-10.812 -2.8770001 1.758
-10.802 -2.869 1.755
-10.796 -2.8640001 1.75
-10.801 -2.868 1.739
-10.799 -2.8670001 1.732
-10.797 -2.865 1.725
-10.806 -2.8729999 1.712
-10.796 -2.8640001 1.709
-10.801 -2.8699999 1.698
-10.788 -2.858 1.696
-10.8 -2.869 1.682
-10.798 -2.868 1.675
-10.799 -2.869 1.666
-10.811 -2.8789999 1.652
-10.798 -2.868 1.65
-10.8 -2.8699999 1.641
-10.804 -2.875 1.631
-10.802 -2.8729999 1.623
-10.797 -2.868 1.618
-10.809 -2.8789999 1.604
-10.789 -2.862 1.605
-10.801 -2.8729999 1.591
-10.813 -2.8840001 1.5779999
-10.808 -2.8789999 1.572
-10.81 -2.881 1.563
-10.804 -2.8759999 1.558
-10.809 -2.881 1.548
-10.796 -2.8699999 1.545
-10.798 -2.872 1.5369999
-10.806 -2.8789999 1.525
-10.808 -2.881 1.516
-10.813 -2.8859999 1.506
-10.801 -2.8759999 1.503
-10.796 -2.8710001 1.497
-10.805 -2.8789999 1.485
-10.81 -2.8840001 1.475
-10.811 -2.885 1.467
-10.803 -2.8789999 1.462
-10.801 -2.8770001 1.455
-10.813 -2.888 1.442
-10.793 -2.8710001 1.443
-10.809 -2.8840001 1.428
-10.811 -2.8870001 1.419
-10.805 -2.882 1.414
-10.804 -2.881 1.4069999
-10.799 -2.8759999 1.401
-10.81 -2.8870001 1.388
-10.796 -2.875 1.386
-10.804 -2.882 1.375
-10.809 -2.8870001 1.365
-10.807 -2.885 1.358
-10.799 -2.878 1.354
-10.806 -2.885 1.3430001
-10.803 -2.882 1.337
-10.803 -2.882 1.329
-10.809 -2.888 1.318
-10.803 -2.8829999 1.313
-10.805 -2.885 1.304
-10.795 -2.8759999 1.301
-10.808 -2.888 1.288
-10.807 -2.888 1.28
-10.81 -2.8900001 1.272
-10.815 -2.895 1.262
-10.8 -2.882 1.26
-10.808 -2.8889999 1.249
-10.796 -2.8789999 1.2460001
-10.802 -2.885 1.2359999
-10.819 -2.8989999 1.222
-10.803 -2.8859999 1.22
-10.801 -2.8840001 1.2130001
-10.806 -2.8889999 1.204
-10.798 -2.882 1.199
-10.81 -2.8929999 1.187
-10.805 -2.8889999 1.181
-10.815 -2.8970001 1.171
-10.802 -2.8870001 1.1670001
-10.812 -2.8959999 1.156
-10.801 -2.8859999 1.152
-10.802 -2.8870001 1.1440001
-10.795 -2.881 1.1390001
-10.807 -2.892 1.128
-10.812 -2.8959999 1.118
-10.814 -2.8989999 1.11
-10.805 -2.891 1.105
-10.811 -2.8970001 1.096
-10.806 -2.892 1.09
-10.816 -2.901 1.08
-10.803 -2.891 1.076
-10.8 -2.888 1.069
-10.804 -2.892 1.061
-10.803 -2.891 1.053
-10.813 -2.9000001 1.043
-10.811 -2.8989999 1.036
-10.799 -2.888 1.0319999
-10.809 -2.8970001 1.022
-10.807 -2.8959999 1.015
-10.81 -2.898 1.006
-10.8 -2.8900001 1.002
-10.805 -2.895 0.99299997
-10.813 -2.902 0.98299998
-10.813 -2.902 0.97600001
-10.811 -2.9000001 0.96899998
-10.807 -2.8970001 0.963
-10.813 -2.9030001 0.954
-10.807 -2.898 0.94800001
-10.817 -2.9070001 0.93800002
-10.809 -2.9000001 0.93199998
-10.8 -2.892 0.92699999
-10.794 -2.8870001 0.921
-10.807 -2.8989999 0.91100001
-10.816 -2.9070001 0.90100002
-10.805 -2.898 0.89600003
-10.806 -2.8989999 0.889
-10.802 -2.895 0.88200003
-10.793 -2.8870001 0.87699997
-10.797 -2.891 0.86900002
-10.812 -2.905 0.85799998
-10.815 -2.908 0.85000002
-10.809 -2.902 0.84399998
-10.806 -2.9000001 0.83700001
-10.809 -2.9030001 0.829
-10.804 -2.8989999 0.82300001
-10.803 -2.898 0.81599998
-10.809 -2.904 0.80699998
-10.805 -2.9000001 0.801
-10.811 -2.9059999 0.792
-10.804 -2.9000001 0.78600001
-10.816 -2.9100001 0.77700001
-10.807 -2.9030001 0.77100003
-10.814 -2.9089999 0.76200002
-10.81 -2.9059999 0.75599998
-10.823 -2.918 0.74599999
-10.812 -2.908 0.741
-10.811 -2.908 0.73400003
-10.806 -2.904 0.72799999
-10.809 -2.9059999 0.72000003
-10.819 -2.9159999 0.71100003
-10.814 -2.911 0.704
-10.799 -2.898 0.69999999
-10.812 -2.9100001 0.69
-10.819 -2.9170001 0.68199998
-10.805 -2.904 0.67699999
-10.82 -2.918 0.667
-10.816 -2.915 0.66100001
-10.815 -2.914 0.653
-10.807 -2.9070001 0.648
-10.8 -2.901 0.64200002
-10.815 -2.914 0.63200003
-10.802 -2.9030001 0.62699997
-10.811 -2.9119999 0.61799997
-10.817 -2.9170001 0.61000001
-10.811 -2.9119999 0.60399997
-10.81 -2.911 0.597
-10.82 -2.9200001 0.588
-10.815 -2.9159999 0.58200002
-10.812 -2.9130001 0.57499999
-10.814 -2.915 0.56699997
-10.805 -2.908 0.56099999
-10.804 -2.908 0.55400002
-10.796 -2.901 0.54799998
-10.819 -2.921 0.53799999
-10.81 -2.914 0.53200001
-10.81 -2.9130001 0.52499998
-10.809 -2.9130001 0.51800001
-10.808 -2.9119999 0.51099998
-10.811 -2.915 0.50300002
-10.808 -2.9130001 0.49599999
-10.796 -2.902 0.491
-10.808 -2.9130001 0.48199999
-10.803 -2.9089999 0.47600001
-10.816 -2.921 0.46700001
-10.804 -2.911 0.461
-10.812 -2.9170001 0.45300001
-10.804 -2.911 0.447
-10.819 -2.924 0.43799999
-10.806 -2.9130001 0.43200001
-10.809 -2.9159999 0.42500001
-10.805 -2.9119999 0.41800001
-10.81 -2.9170001 0.41100001
-10.815 -2.9219999 0.403
-10.808 -2.9159999 0.39700001
-10.811 -2.918 0.389
-10.821 -2.927 0.38100001
-10.821 -2.928 0.37400001
-10.816 -2.924 0.36700001
-10.806 -2.915 0.361
-10.816 -2.924 0.35299999
-10.813 -2.921 0.34599999
-10.813 -2.9219999 0.33899999
-10.819 -2.928 0.33199999
-10.808 -2.918 0.32499999
-10.795 -2.9070001 0.31900001
-10.818 -2.927 0.31099999
-10.804 -2.915 0.30399999
-10.808 -2.918 0.29699999
-10.813 -2.9230001 0.28999999
-10.809 -2.9200001 0.28299999
-10.817 -2.927 0.27500001
-10.813 -2.924 0.26800001
-10.808 -2.9200001 0.26199999
-10.814 -2.925 0.25400001
-10.809 -2.921 0.24699999
-10.808 -2.9200001 0.23999999
-10.815 -2.927 0.233
-10.806 -2.9189999 0.226
-10.806 -2.9189999 0.219
-10.801 -2.915 0.212
-10.8 -2.915 0.205
-10.798 -2.9130001 0.198
-10.803 -2.918 0.191
-10.803 -2.918 0.184
-10.805 -2.9200001 0.177
-10.812 -2.9260001 0.169
-10.834 -2.9460001 0.162
-10.83 -2.9419999 0.155
-10.841 -2.9519999 0.148
-10.841 -2.9519999 0.141
-10.847 -2.9579999 0.134
-10.859 -2.9679999 0.127
-10.851 -2.9619999 0.12
-10.866 -2.9749999 0.113
-10.873 -2.9820001 0.106
-10.876 -2.9849999 0.098999999
-10.888 -2.9949999 0.093000002
-10.888 -2.9949999 0.086000003
-10.899 -3.0050001 0.079000004
-10.91 -3.0150001 0.071999997
-10.907 -3.0120001 0.066
-10.906 -3.0120001 0.059
-10.906 -3.0120001 0.052000001
-10.925 -3.029 0.045000002
-10.911 -3.017 0.037999999
-10.929 -3.033 0.032000002
-10.929 -3.033 0.025
-10.925 -3.03 0.017999999
-10.933 -3.0369999 0.012
-10.921 -3.027 0.0049999999
-10.933 -2.937 2.984
-10.923 -2.9289999 2.983
-10.917 -2.9230001 2.9779999
-10.922 -2.928 2.9630001
-10.915 -2.9219999 2.9590001
-10.924 -2.9300001 2.9400001
-10.922 -2.9289999 2.9319999
-10.912 -2.9200001 2.9300001
-10.918 -2.9260001 2.914
-10.92 -2.928 2.902
-10.916 -2.925 2.895
-10.913 -2.9219999 2.888
-10.922 -2.931 2.869
-10.914 -2.924 2.8659999
-10.91 -2.921 2.859
-10.91 -2.921 2.849
-10.918 -2.9289999 2.8310001
-10.917 -2.928 2.8210001
-10.903 -2.915 2.8239999
-10.903 -2.9159999 2.8139999
-10.881 -2.8959999 2.8239999
-10.889 -2.904 2.806
-10.881 -2.8970001 2.803
-10.882 -2.898 2.7920001
-10.872 -2.8900001 2.79
-10.874 -2.891 2.779
-10.871 -2.8889999 2.7709999
-10.867 -2.8859999 2.7639999
-10.864 -2.8829999 2.757
-10.872 -2.891 2.74
-10.857 -2.8770001 2.743
-10.852 -2.8740001 2.737
-10.846 -2.869 2.7320001
-10.834 -2.858 2.7320001
-10.843 -2.8659999 2.7149999
-10.839 -2.8629999 2.7079999
-10.83 -2.855 2.7060001
-10.832 -2.8570001 2.694
-10.82 -2.8469999 2.6930001
-10.835 -2.8599999 2.671
-10.822 -2.849 2.6719999
-10.815 -2.8429999 2.668
-10.802 -2.832 2.668
-10.81 -2.839 2.652
-10.807 -2.836 2.645
-10.813 -2.842 2.6300001
-10.806 -2.8369999 2.625
-10.809 -2.839 2.6129999
-10.8 -2.8310001 2.6110001
-10.803 -2.8340001 2.598
-10.806 -2.8369999 2.586
-10.812 -2.8429999 2.5710001
-10.815 -2.846 2.559
-10.805 -2.8380001 2.5569999
-10.808 -2.8410001 2.5450001
-10.802 -2.835 2.54
-10.808 -2.8410001 2.5250001
-10.811 -2.8440001 2.513
-10.814 -2.8469999 2.5020001
-10.802 -2.836 2.5009999
-10.802 -2.836 2.4920001
-10.808 -2.842 2.4779999
-10.817 -2.8510001 2.461
-10.808 -2.8429999 2.4579999
-10.808 -2.8429999 2.4489999
-10.821 -2.855 2.4289999
-10.818 -2.8529999 2.4219999
-10.811 -2.8469999 2.4170001
-10.808 -2.845 2.4100001
-10.815 -2.8510001 2.3959999
-10.802 -2.8399999 2.3959999
-10.809 -2.846 2.382
-10.812 -2.849 2.3699999
-10.809 -2.8469999 2.362
-10.809 -2.8469999 2.3529999
-10.813 -2.8510001 2.3410001
-10.813 -2.8510001 2.3310001
-10.804 -2.8429999 2.329
-10.814 -2.852 2.312
-10.804 -2.8440001 2.3099999
-10.811 -2.8510001 2.296
-10.804 -2.8440001 2.2920001
-10.805 -2.846 2.2820001
-10.809 -2.849 2.27
-10.809 -2.8499999 2.26
-10.8 -2.842 2.2579999
-10.803 -2.845 2.2460001
-10.814 -2.855 2.23
-10.801 -2.8440001 2.2290001
-10.811 -2.8529999 2.2130001
-10.812 -2.8540001 2.204
-10.806 -2.849 2.1989999
-10.806 -2.8499999 2.1889999
-10.809 -2.8529999 2.178
-10.82 -2.862 2.1619999
-10.817 -2.8599999 2.155
-10.808 -2.852 2.152
-10.822 -2.865 2.1340001
-10.819 -2.8629999 2.1270001
-10.811 -2.8559999 2.1229999
-10.814 -2.859 2.112
-10.827 -2.8710001 2.095
-10.811 -2.8570001 2.096
-10.812 -2.858 2.0869999
-10.809 -2.8559999 2.0799999
-10.813 -2.8599999 2.069
-10.804 -2.8510001 2.066
-10.811 -2.858 2.052
-10.812 -2.859 2.043
-10.803 -2.8510001 2.04
-10.802 -2.8499999 2.0320001
-10.805 -2.8540001 2.0209999
-10.815 -2.8629999 2.006
-10.811 -2.859 2
-10.807 -2.8570001 1.993
-10.808 -2.8570001 1.984
-10.812 -2.8610001 1.973
-10.805 -2.855 1.969
-10.81 -2.8599999 1.957
-10.814 -2.8640001 1.946
-10.811 -2.862 1.939
-10.823 -2.872 1.924
-10.807 -2.858 1.925
-10.804 -2.8559999 1.918
-10.802 -2.8540001 1.91
-10.813 -2.8640001 1.895
-10.81 -2.862 1.888
-10.815 -2.8670001 1.877
-10.809 -2.862 1.872
-10.803 -2.8570001 1.867
-10.811 -2.8640001 1.854
-10.815 -2.868 1.8430001
-10.81 -2.8629999 1.8380001
-10.81 -2.8640001 1.829
-10.822 -2.8740001 1.814
-10.809 -2.8629999 1.813
-10.81 -2.865 1.804
-10.811 -2.8659999 1.795
-10.816 -2.8699999 1.784
-10.81 -2.865 1.779
-10.815 -2.8699999 1.768
-10.799 -2.8559999 1.768
-10.821 -2.8759999 1.748
-10.811 -2.868 1.744
-10.813 -2.869 1.735
-10.824 -2.8800001 1.721
-10.815 -2.872 1.7180001
-10.817 -2.8729999 1.709
-10.807 -2.865 1.705
-10.812 -2.8699999 1.694
-10.814 -2.8710001 1.686
-10.808 -2.8659999 1.6799999
-10.823 -2.8800001 1.664
-10.821 -2.8789999 1.6569999
-10.819 -2.8770001 1.65
-10.803 -2.8629999 1.65
-10.816 -2.875 1.635
-10.813 -2.8729999 1.628
-10.818 -2.8770001 1.618
-10.812 -2.872 1.613
-10.813 -2.8740001 1.604
-10.815 -2.875 1.595
-10.806 -2.8670001 1.591
-10.811 -2.872 1.581
-10.812 -2.8740001 1.572
-10.814 -2.875 1.563
-10.815 -2.8770001 1.5549999
-10.811 -2.8740001 1.548
-10.812 -2.875 1.54
-10.8 -2.8640001 1.5369999
-10.812 -2.875 1.524
-10.803 -2.8670001 1.52
-10.815 -2.878 1.507
-10.811 -2.875 1.5
-10.811 -2.875 1.492
-10.827 -2.8900001 1.477
-10.822 -2.8859999 1.472
-10.813 -2.8770001 1.4680001
-10.827 -2.8900001 1.454
-10.823 -2.8870001 1.448
-10.808 -2.8729999 1.446
-10.806 -2.872 1.439
-10.815 -2.8800001 1.427
-10.806 -2.8729999 1.423
-10.806 -2.872 1.416
-10.814 -2.881 1.404
-10.816 -2.882 1.395
-10.806 -2.8729999 1.392
-10.803 -2.8710001 1.385
-10.811 -2.878 1.374
-10.809 -2.8770001 1.367
-10.808 -2.8759999 1.36
-10.81 -2.878 1.351
-10.815 -2.8829999 1.341
-10.82 -2.888 1.331
-10.822 -2.8900001 1.323
-10.818 -2.8870001 1.317
-10.813 -2.882 1.311
-10.811 -2.881 1.304
-10.82 -2.8889999 1.293
-10.814 -2.8840001 1.2869999
-10.812 -2.882 1.28
-10.818 -2.888 1.27
-10.814 -2.8840001 1.2640001
-10.812 -2.8829999 1.257
-10.817 -2.8870001 1.248
-10.806 -2.878 1.244
-10.808 -2.8800001 1.235
-10.816 -2.888 1.225
-10.801 -2.8740001 1.223
-10.802 -2.8759999 1.215
-10.814 -2.8870001 1.2029999
-10.82 -2.892 1.193
-10.812 -2.885 1.188
-10.81 -2.8829999 1.181
-10.813 -2.8859999 1.173
-10.811 -2.885 1.166
-10.824 -2.8970001 1.154
-10.819 -2.8929999 1.148
-10.821 -2.895 1.1390001
-10.816 -2.891 1.133
-10.823 -2.8970001 1.124
-10.816 -2.891 1.118
-10.808 -2.8840001 1.114
-10.818 -2.8929999 1.103
-10.819 -2.895 1.095
-10.826 -2.901 1.085
-10.817 -2.8929999 1.081
-10.83 -2.905 1.069
-10.818 -2.8940001 1.0650001
-10.82 -2.8959999 1.057
-10.819 -2.895 1.05
-10.811 -2.888 1.045
-10.817 -2.8940001 1.036
-10.822 -2.8989999 1.026
-10.821 -2.898 1.0190001
-10.817 -2.895 1.013
-10.812 -2.8900001 1.007
-10.822 -2.9000001 0.99699998
-10.809 -2.888 0.99299997
-10.822 -2.9000001 0.98199999
-10.815 -2.8940001 0.97600001
-10.818 -2.8970001 0.96799999
-10.818 -2.8970001 0.96100003
-10.818 -2.8970001 0.95300001
-10.816 -2.8959999 0.94599998
-10.811 -2.892 0.94
-10.807 -2.888 0.93400002
-10.827 -2.9059999 0.921
-10.818 -2.8989999 0.91600001
-10.811 -2.892 0.91100001
-10.821 -2.902 0.90100002
-10.827 -2.9070001 0.89200002
-10.806 -2.8889999 0.88999999
-10.814 -2.8959999 0.88
-10.816 -2.898 0.87300003
-10.816 -2.898 0.86500001
-10.832 -2.9130001 0.85399997
-10.816 -2.8989999 0.85000002
-10.819 -2.902 0.84200001
-10.82 -2.9030001 0.83499998
-10.824 -2.9059999 0.82700002
-10.823 -2.9059999 0.81999999
-10.818 -2.902 0.81300002
-10.818 -2.902 0.80599999
-10.817 -2.901 0.79900002
-10.816 -2.901 0.792
-10.828 -2.9119999 0.78200001
-10.817 -2.902 0.77700001
-10.813 -2.8989999 0.77100003
-10.819 -2.905 0.76200002
-10.815 -2.901 0.75599998
-10.832 -2.9159999 0.745
-10.813 -2.9000001 0.741
-10.822 -2.908 0.73199999
-10.817 -2.904 0.72600001
-10.817 -2.904 0.71899998
-10.815 -2.902 0.71200001
-10.827 -2.9130001 0.70300001
-10.819 -2.9070001 0.69700003
-10.806 -2.895 0.69199997
-10.817 -2.905 0.68300003
-10.813 -2.902 0.676
-10.837 -2.924 0.66500002
-10.828 -2.9159999 0.65899998
-10.821 -2.9089999 0.653
-10.813 -2.9030001 0.64700001
-10.827 -2.915 0.63800001
-10.811 -2.901 0.63300002
-10.815 -2.905 0.625
-10.824 -2.914 0.61699998
-10.813 -2.904 0.611
-10.81 -2.902 0.60399997
-10.815 -2.9059999 0.597
-10.821 -2.911 0.588
-10.825 -2.915 0.58099997
-10.824 -2.914 0.574
-10.818 -2.9089999 0.56699997
-10.817 -2.9089999 0.56
-10.824 -2.915 0.55199999
-10.813 -2.9059999 0.546
-10.823 -2.914 0.53799999
-10.829 -2.921 0.52999997
-10.819 -2.9119999 0.52399999
-10.824 -2.9170001 0.51599997
-10.821 -2.914 0.50999999
-10.809 -2.904 0.50400001
-10.823 -2.9159999 0.495
-10.82 -2.9130001 0.48800001
-10.823 -2.9159999 0.48100001
-10.816 -2.9100001 0.47499999
-10.825 -2.9189999 0.46599999
-10.813 -2.908 0.461
-10.828 -2.9219999 0.45199999
-10.83 -2.924 0.44499999
-10.817 -2.9119999 0.43900001
-10.811 -2.9070001 0.43200001
-10.822 -2.918 0.42399999
-10.823 -2.918 0.417
-10.825 -2.921 0.40900001
-10.817 -2.914 0.403
-10.821 -2.918 0.396
-10.83 -2.9260001 0.38800001
-10.816 -2.9130001 0.382
-10.821 -2.918 0.37400001
-10.825 -2.9219999 0.36700001
-10.822 -2.9189999 0.36000001
-10.821 -2.9189999 0.35299999
-10.825 -2.9219999 0.34599999
-10.835 -2.9319999 0.338
-10.824 -2.9219999 0.33199999
-10.815 -2.915 0.32499999
-10.813 -2.9130001 0.31799999
-10.81 -2.911 0.31099999
-10.816 -2.9159999 0.30399999
-10.812 -2.9119999 0.29699999
-10.818 -2.918 0.289
-10.825 -2.925 0.28200001
-10.82 -2.9200001 0.27500001
-10.811 -2.9130001 0.26899999
-10.828 -2.928 0.26100001
-10.82 -2.921 0.25400001
-10.816 -2.918 0.24699999
-10.823 -2.924 0.23999999
-10.829 -2.9300001 0.23199999
-10.822 -2.9230001 0.226
-10.815 -2.918 0.219
-10.815 -2.918 0.212
-10.828 -2.9300001 0.204
-10.819 -2.9219999 0.197
-10.824 -2.927 0.19
-10.817 -2.9200001 0.183
-10.82 -2.9230001 0.176
-10.827 -2.9300001 0.169
-10.835 -2.937 0.162
-10.831 -2.934 0.155
-10.852 -2.9530001 0.148
-10.846 -2.947 0.141
-10.86 -2.96 0.134
-10.875 -2.973 0.127
-10.871 -2.97 0.12
-10.874 -2.973 0.113
-10.871 -2.97 0.106
-10.885 -2.983 0.098999999
-10.888 -2.9860001 0.092
-10.888 -2.9860001 0.086000003
-10.903 -3 0.079000004
-10.896 -2.993 0.071999997
-10.911 -3.007 0.064999998
-10.911 -3.007 0.057999998
-10.918 -3.0139999 0.052000001
-10.926 -3.0209999 0.045000002
-10.918 -3.0139999 0.037999999
-10.918 -3.0139999 0.030999999
-10.929 -3.0239999 0.025
-10.924 -3.0190001 0.017999999
-10.945 -3.0380001 0.012
-10.926 -3.0220001 0.0040000002
-10.922 -2.918 2.9890001
-10.916 -2.9119999 2.984
-10.921 -2.918 2.9679999
-10.916 -2.9130001 2.9630001
-10.921 -2.918 2.947
-10.921 -2.9189999 2.937
-10.92 -2.918 2.927
-10.911 -2.9100001 2.925
-10.912 -2.911 2.9130001
-10.912 -2.9119999 2.9030001
-10.923 -2.9219999 2.882
-10.913 -2.9130001 2.881
-10.917 -2.9170001 2.8670001
-10.909 -2.9100001 2.8640001
-10.899 -2.902 2.8629999
-10.905 -2.9070001 2.8469999
-10.913 -2.915 2.829
-10.912 -2.914 2.8199999
-10.903 -2.9059999 2.819
-10.908 -2.911 2.803
-10.896 -2.901 2.8039999
-10.897 -2.901 2.793
-10.886 -2.892 2.7920001
-10.895 -2.901 2.7739999
-10.885 -2.892 2.773
-10.879 -2.8859999 2.7679999
-10.878 -2.8859999 2.7590001
-10.863 -2.8729999 2.7620001
-10.871 -2.8800001 2.7449999
-10.856 -2.8670001 2.747
-10.858 -2.869 2.7360001
-10.86 -2.872 2.724
-10.848 -2.8610001 2.724
-10.855 -2.868 2.7079999
-10.846 -2.8599999 2.7060001
-10.847 -2.8599999 2.6949999
-10.836 -2.8510001 2.694
-10.833 -2.849 2.6860001
-10.829 -2.845 2.6800001
-10.823 -2.8399999 2.675
-10.818 -2.836 2.6689999
-10.825 -2.842 2.654
-10.821 -2.839 2.6459999
-10.819 -2.8369999 2.6389999
-10.821 -2.839 2.6270001
-10.821 -2.8399999 2.6170001
-10.827 -2.845 2.602
-10.817 -2.8369999 2.5999999
-10.823 -2.8429999 2.585
-10.826 -2.846 2.573
-10.823 -2.8429999 2.566
-10.817 -2.8380001 2.5610001
-10.813 -2.835 2.5539999
-10.826 -2.8469999 2.5339999
-10.819 -2.8410001 2.53
-10.816 -2.839 2.523
-10.819 -2.8410001 2.5109999
-10.823 -2.845 2.4979999
-10.819 -2.842 2.4909999
-10.822 -2.845 2.48
-10.816 -2.839 2.4749999
-10.822 -2.846 2.46
-10.813 -2.8380001 2.4579999
-10.822 -2.846 2.441
-10.824 -2.848 2.431
-10.817 -2.842 2.4260001
-10.826 -2.8499999 2.4100001
-10.82 -2.846 2.405
-10.816 -2.8429999 2.398
-10.817 -2.8429999 2.3889999
-10.817 -2.8429999 2.3789999
-10.814 -2.8410001 2.372
-10.807 -2.836 2.3670001
-10.817 -2.845 2.3499999
-10.811 -2.839 2.346
-10.815 -2.8429999 2.3340001
-10.812 -2.8410001 2.3269999
-10.812 -2.8410001 2.3169999
-10.806 -2.836 2.312
-10.816 -2.845 2.296
-10.819 -2.849 2.2839999
-10.817 -2.846 2.277
-10.827 -2.8559999 2.26
-10.824 -2.8540001 2.253
-10.814 -2.845 2.2509999
-10.821 -2.852 2.237
-10.812 -2.8440001 2.234
-10.816 -2.8469999 2.2219999
-10.822 -2.8529999 2.2090001
-10.817 -2.849 2.204
-10.82 -2.852 2.1919999
-10.827 -2.859 2.1789999
-10.824 -2.8559999 2.171
-10.825 -2.8570001 2.1619999
-10.825 -2.858 2.1530001
-10.819 -2.8529999 2.148
-10.823 -2.8559999 2.1359999
-10.821 -2.855 2.1289999
-10.815 -2.8499999 2.1240001
-10.825 -2.859 2.108
-10.82 -2.8540001 2.1029999
-10.826 -2.8599999 2.0899999
-10.83 -2.8640001 2.0780001
-10.824 -2.859 2.073
-10.832 -2.8659999 2.0599999
-10.812 -2.849 2.063
-10.817 -2.8529999 2.052
-10.827 -2.8629999 2.036
-10.812 -2.849 2.0369999
-10.809 -2.8469999 2.03
-10.819 -2.8570001 2.0150001
-10.83 -2.8670001 1.999
-10.818 -2.8559999 1.999
-10.81 -2.849 1.995
-10.813 -2.852 1.984
-10.819 -2.858 1.971
-10.824 -2.862 1.96
-10.821 -2.8599999 1.9529999
-10.812 -2.852 1.95
-10.823 -2.862 1.9349999
-10.824 -2.8629999 1.926
-10.819 -2.8599999 1.92
-10.819 -2.8599999 1.911
-10.812 -2.8529999 1.9069999
-10.828 -2.868 1.8890001
-10.824 -2.865 1.883
-10.815 -2.8570001 1.88
-10.831 -2.872 1.862
-10.828 -2.869 1.855
-10.812 -2.855 1.8559999
-10.813 -2.8570001 1.846
-10.824 -2.8670001 1.832
-10.815 -2.859 1.829
-10.816 -2.8599999 1.8200001
-10.821 -2.8640001 1.809
-10.829 -2.872 1.796
-10.816 -2.8610001 1.795
-10.811 -2.8559999 1.789
-10.812 -2.858 1.78
-10.824 -2.868 1.765
-10.825 -2.8699999 1.756
-10.821 -2.8659999 1.75
-10.827 -2.872 1.738
-10.822 -2.8670001 1.733
-10.817 -2.8640001 1.727
-10.811 -2.858 1.722
-10.822 -2.868 1.7079999
-10.823 -2.869 1.7
-10.82 -2.868 1.693
-10.815 -2.8629999 1.687
-10.823 -2.8699999 1.675
-10.818 -2.8659999 1.669
-10.822 -2.8699999 1.659
-10.831 -2.878 1.646
-10.806 -2.8559999 1.65
-10.817 -2.8659999 1.637
-10.825 -2.8740001 1.625
-10.826 -2.875 1.6160001
-10.807 -2.858 1.617
-10.822 -2.8710001 1.602
-10.827 -2.8770001 1.591
-10.815 -2.8659999 1.589
-10.812 -2.8629999 1.582
-10.828 -2.878 1.567
-10.826 -2.8759999 1.5599999
-10.821 -2.872 1.554
-10.826 -2.8770001 1.544
-10.827 -2.878 1.535
-10.819 -2.8710001 1.531
-10.824 -2.8759999 1.52
-10.822 -2.875 1.513
-10.82 -2.8729999 1.506
-10.824 -2.8770001 1.497
-10.836 -2.888 1.483
-10.825 -2.878 1.48
-10.826 -2.8789999 1.472
-10.828 -2.881 1.4630001
-10.82 -2.8740001 1.459
-10.825 -2.8789999 1.449
-10.819 -2.8740001 1.443
-10.818 -2.8729999 1.436
-10.825 -2.8789999 1.425
-10.823 -2.878 1.418
-10.824 -2.8800001 1.409
-10.823 -2.878 1.402
-10.825 -2.881 1.393
-10.819 -2.8759999 1.388
-10.828 -2.8840001 1.377
-10.826 -2.8829999 1.37
-10.83 -2.8859999 1.36
-10.824 -2.881 1.355
-10.821 -2.8789999 1.348
-10.823 -2.881 1.34
-10.812 -2.8710001 1.336
-10.838 -2.8940001 1.318
-10.819 -2.8770001 1.318
-10.823 -2.882 1.308
-10.822 -2.881 1.301
-10.824 -2.8829999 1.293
-10.836 -2.8940001 1.28
-10.828 -2.8870001 1.276
-10.834 -2.892 1.266
-10.825 -2.885 1.262
-10.813 -2.8740001 1.258
-10.818 -2.8789999 1.249
-10.823 -2.8840001 1.239
-10.836 -2.895 1.227
-10.825 -2.8859999 1.223
-10.819 -2.881 1.2180001
-10.817 -2.8789999 1.211
-10.819 -2.881 1.202
-10.829 -2.8900001 1.191
-10.818 -2.8800001 1.188
-10.815 -2.878 1.181
-10.825 -2.8870001 1.17
-10.82 -2.8840001 1.164
-10.825 -2.888 1.155
-10.82 -2.8829999 1.149
-10.819 -2.8829999 1.142
-10.828 -2.892 1.131
-10.827 -2.891 1.124
-10.828 -2.892 1.1160001
-10.827 -2.891 1.109
-10.826 -2.891 1.101
-10.828 -2.892 1.0930001
-10.817 -2.8829999 1.089
-10.822 -2.888 1.08
-10.825 -2.891 1.072
-10.828 -2.8929999 1.063
-10.819 -2.885 1.059
-10.823 -2.8900001 1.05
-10.815 -2.882 1.045
-10.828 -2.8940001 1.033
-10.823 -2.8900001 1.027
-10.833 -2.8989999 1.017
-10.829 -2.8959999 1.011
-10.828 -2.895 1.0039999
-10.822 -2.8900001 0.99800003
-10.828 -2.895 0.98900002
-10.827 -2.895 0.98199999
-10.822 -2.891 0.97500002
-10.821 -2.8900001 0.96799999
-10.826 -2.895 0.95899999
-10.824 -2.8929999 0.95300001
-10.82 -2.8900001 0.94599998
-10.838 -2.9059999 0.93400002
-10.826 -2.8959999 0.93000001
-10.832 -2.902 0.921
-10.824 -2.8940001 0.91600001
-10.827 -2.8970001 0.90799999
-10.833 -2.9030001 0.89899999
-10.828 -2.8989999 0.89300001
-10.823 -2.8940001 0.88700002
-10.826 -2.898 0.87800002
-10.835 -2.905 0.86900002
-10.828 -2.9000001 0.86299998
-10.837 -2.908 0.85399997
-10.835 -2.9059999 0.847
-10.825 -2.8970001 0.84200001
-10.824 -2.8970001 0.83499998
-10.814 -2.8889999 0.82999998
-10.83 -2.9030001 0.81900001
-10.837 -2.9100001 0.81
-10.837 -2.9100001 0.80299997
-10.825 -2.8989999 0.79799998
-10.827 -2.901 0.79000002
-10.834 -2.908 0.78200001
-10.829 -2.9030001 0.77499998
-10.825 -2.9000001 0.76899999
-10.837 -2.911 0.759
-10.841 -2.914 0.75099999
-10.832 -2.9059999 0.74599999
-10.835 -2.9089999 0.73799998
-10.834 -2.9089999 0.73100001
-10.833 -2.908 0.72399998
-10.828 -2.904 0.71799999
-10.832 -2.908 0.70999998
-10.84 -2.915 0.70099998
-10.827 -2.904 0.69599998
-10.833 -2.9089999 0.68800002
-10.821 -2.8989999 0.68300003
-10.831 -2.908 0.67400002
-10.83 -2.908 0.667
-10.833 -2.9100001 0.65899998
-10.829 -2.9070001 0.65200001
-10.826 -2.904 0.64600003
-10.831 -2.9100001 0.63800001
-10.83 -2.908 0.63099998
-10.84 -2.918 0.62199998
-10.832 -2.911 0.616
-10.831 -2.9100001 0.60900003
-10.827 -2.9070001 0.602
-10.837 -2.9159999 0.59399998
-10.829 -2.9089999 0.588
-10.837 -2.9159999 0.579
-10.831 -2.911 0.57300001
-10.831 -2.911 0.56599998
-10.823 -2.904 0.56
-10.832 -2.9130001 0.551
-10.843 -2.9230001 0.54299998
-10.835 -2.9159999 0.537
-10.832 -2.9130001 0.52999997
-10.831 -2.9130001 0.523
-10.828 -2.9100001 0.51599997
-10.826 -2.908 0.509
-10.829 -2.911 0.50199997
-10.827 -2.9100001 0.495
-10.827 -2.911 0.48800001
-10.834 -2.9159999 0.47999999
-10.833 -2.9159999 0.47299999
-10.829 -2.9130001 0.46599999
-10.836 -2.9189999 0.458
-10.832 -2.9159999 0.45199999
-10.84 -2.9230001 0.44400001
-10.843 -2.9260001 0.43599999
-10.839 -2.9230001 0.43000001
-10.831 -2.9159999 0.42300001
-10.837 -2.921 0.41600001
-10.823 -2.9089999 0.41
-10.829 -2.915 0.40200001
-10.832 -2.918 0.39500001
-10.824 -2.911 0.389
-10.828 -2.915 0.38100001
-10.845 -2.9300001 0.373
-10.835 -2.921 0.366
-10.823 -2.911 0.36000001
-10.842 -2.928 0.352
-10.832 -2.9200001 0.345
-10.83 -2.918 0.338
-10.822 -2.911 0.33199999
-10.825 -2.914 0.32499999
-10.808 -2.8989999 0.31900001
-10.82 -2.9100001 0.31099999
-10.834 -2.9219999 0.303
-10.83 -2.9189999 0.296
-10.834 -2.9230001 0.289
-10.82 -2.9100001 0.28200001
-10.839 -2.927 0.27399999
-10.829 -2.9189999 0.26800001
-10.822 -2.9130001 0.26100001
-10.832 -2.9219999 0.25400001
-10.832 -2.9219999 0.24600001
-10.832 -2.9230001 0.23899999
-10.842 -2.9319999 0.23199999
-10.832 -2.9219999 0.22499999
-10.84 -2.9300001 0.21799999
-10.832 -2.9230001 0.211
-10.832 -2.9230001 0.204
-10.837 -2.928 0.197
-10.823 -2.9159999 0.19
-10.855 -2.9449999 0.183
-10.834 -2.9260001 0.176
-10.838 -2.9300001 0.169
-10.847 -2.938 0.162
-10.843 -2.9349999 0.155
-10.854 -2.9449999 0.148
-10.861 -2.951 0.141
-10.883 -2.971 0.134
-10.879 -2.9679999 0.127
-10.872 -2.961 0.12
-10.872 -2.961 0.113
-10.889 -2.977 0.106
-10.893 -2.9809999 0.098999999
-10.889 -2.9779999 0.092
-10.893 -2.9809999 0.085000001
-10.897 -2.9849999 0.079000004
-10.915 -3.0009999 0.071999997
-10.923 -3.0079999 0.064999998
-10.912 -2.9979999 0.057999998
-10.924 -3.01 0.052000001
-10.938 -3.0220001 0.045000002
-10.919 -3.006 0.037999999
-10.93 -3.016 0.030999999
-10.93 -3.016 0.025
-10.927 -3.013 0.017999999
-10.923 -3.01 0.011
-10.923 -3.01 0.0040000002
-10.921 -2.908 2.983
-10.91 -2.898 2.983
-10.921 -2.908 2.9619999
-10.914 -2.902 2.9579999
-10.923 -2.9100001 2.9389999
-10.916 -2.904 2.9349999
-10.915 -2.904 2.925
-10.914 -2.9030001 2.9159999
-10.911 -2.901 2.908
-10.921 -2.911 2.888
-10.91 -2.901 2.888
-10.898 -2.8900001 2.8889999
-10.902 -2.8940001 2.875
-10.916 -2.908 2.8510001
-10.91 -2.902 2.8469999
-10.918 -2.9100001 2.829
-10.904 -2.8970001 2.832
-10.908 -2.901 2.8180001
-10.902 -2.8959999 2.813
-10.906 -2.9000001 2.799
-10.906 -2.9000001 2.789
-10.895 -2.8900001 2.789
-10.903 -2.898 2.7709999
-10.89 -2.8870001 2.773
-10.886 -2.8840001 2.766
-10.886 -2.8840001 2.756
-10.873 -2.872 2.7579999
-10.874 -2.8729999 2.7460001
-10.869 -2.869 2.74
-10.869 -2.8699999 2.73
-10.869 -2.8699999 2.72
-10.868 -2.869 2.711
-10.87 -2.8710001 2.7
-10.845 -2.849 2.71
-10.856 -2.859 2.691
-10.845 -2.849 2.691
-10.841 -2.846 2.684
-10.847 -2.8510001 2.6689999
-10.843 -2.848 2.6619999
-10.836 -2.842 2.658
-10.833 -2.8399999 2.651
-10.833 -2.8399999 2.641
-10.832 -2.8399999 2.631
-10.826 -2.8340001 2.6270001
-10.822 -2.8310001 2.6199999
-10.825 -2.8340001 2.6070001
-10.828 -2.8369999 2.595
-10.831 -2.8399999 2.5829999
-10.825 -2.835 2.5780001
-10.831 -2.8410001 2.563
-10.831 -2.8410001 2.5539999
-10.831 -2.8410001 2.5439999
-10.828 -2.8380001 2.5369999
-10.824 -2.836 2.53
-10.827 -2.8380001 2.5179999
-10.827 -2.839 2.5079999
-10.833 -2.845 2.494
-10.83 -2.842 2.487
-10.82 -2.8340001 2.484
-10.824 -2.8369999 2.4719999
-10.824 -2.8369999 2.4630001
-10.817 -2.832 2.4579999
-10.821 -2.836 2.4449999
-10.837 -2.8499999 2.424
-10.821 -2.836 2.427
-10.824 -2.839 2.415
-10.828 -2.842 2.4030001
-10.831 -2.846 2.391
-10.825 -2.8399999 2.3859999
-10.822 -2.8380001 2.3789999
-10.825 -2.8410001 2.3670001
-10.829 -2.845 2.355
-10.822 -2.839 2.3499999
-10.832 -2.849 2.3340001
-10.836 -2.852 2.322
-10.833 -2.8499999 2.3150001
-10.83 -2.8469999 2.3069999
-10.827 -2.845 2.3
-10.827 -2.846 2.2909999
-10.824 -2.8429999 2.2839999
-10.831 -2.8499999 2.27
-10.832 -2.8499999 2.26
-10.825 -2.845 2.2550001
-10.829 -2.849 2.244
-10.833 -2.852 2.2320001
-10.833 -2.852 2.223
-10.833 -2.8529999 2.214
-10.834 -2.8540001 2.204
-10.837 -2.858 2.1930001
-10.831 -2.852 2.188
-10.828 -2.8499999 2.181
-10.836 -2.8570001 2.1670001
-10.83 -2.852 2.161
-10.824 -2.846 2.1570001
-10.837 -2.859 2.1389999
-10.821 -2.845 2.1400001
-10.825 -2.849 2.1289999
-10.823 -2.846 2.122
-10.83 -2.8529999 2.108
-10.831 -2.855 2.098
-10.822 -2.846 2.096
-10.833 -2.8570001 2.079
-10.843 -2.8659999 2.0650001
-10.837 -2.8610001 2.0599999
-10.827 -2.8529999 2.0569999
-10.822 -2.848 2.0510001
-10.822 -2.848 2.043
-10.833 -2.858 2.027
-10.833 -2.859 2.0179999
-10.828 -2.8540001 2.013
-10.824 -2.8510001 2.006
-10.832 -2.859 1.993
-10.837 -2.8629999 1.9809999
-10.83 -2.858 1.976
-10.832 -2.859 1.967
-10.826 -2.8540001 1.962
-10.827 -2.855 1.9529999
-10.824 -2.8529999 1.9450001
-10.821 -2.8510001 1.939
-10.827 -2.8559999 1.927
-10.826 -2.8559999 1.918
-10.825 -2.855 1.911
-10.828 -2.858 1.9
-10.83 -2.8599999 1.891
-10.827 -2.858 1.8839999
-10.828 -2.859 1.875
-10.83 -2.8610001 1.865
-10.827 -2.858 1.859
-10.831 -2.862 1.848
-10.839 -2.8699999 1.835
-10.826 -2.858 1.834
-10.824 -2.8570001 1.826
-10.828 -2.8610001 1.8150001
-10.826 -2.859 1.808
-10.834 -2.8670001 1.795
-10.828 -2.8610001 1.791
-10.822 -2.8559999 1.785
-10.827 -2.8610001 1.774
-10.829 -2.8629999 1.765
-10.823 -2.858 1.76
-10.82 -2.855 1.753
-10.831 -2.8659999 1.739
-10.824 -2.859 1.734
-10.837 -2.872 1.719
-10.832 -2.8670001 1.714
-10.834 -2.869 1.704
-10.827 -2.8640001 1.699
-10.825 -2.862 1.692
-10.831 -2.8670001 1.681
-10.828 -2.865 1.675
-10.823 -2.8610001 1.669
-10.829 -2.8659999 1.658
-10.827 -2.8640001 1.651
-10.817 -2.8559999 1.647
-10.826 -2.8640001 1.635
-10.836 -2.8740001 1.6210001
-10.831 -2.869 1.6160001
-10.826 -2.865 1.61
-10.821 -2.8610001 1.605
-10.832 -2.8710001 1.591
-10.834 -2.8729999 1.582
-10.835 -2.8740001 1.574
-10.83 -2.8699999 1.568
-10.824 -2.8640001 1.563
-10.833 -2.8729999 1.551
-10.835 -2.875 1.5420001
-10.843 -2.8829999 1.53
-10.837 -2.878 1.524
-10.836 -2.8770001 1.517
-10.837 -2.878 1.5089999
-10.842 -2.882 1.499
-10.817 -2.8610001 1.502
-10.835 -2.8770001 1.4859999
-10.84 -2.882 1.476
-10.838 -2.8800001 1.469
-10.831 -2.8740001 1.464
-10.835 -2.878 1.454
-10.829 -2.8729999 1.449
-10.831 -2.875 1.4400001
-10.823 -2.8670001 1.436
-10.83 -2.8740001 1.425
-10.836 -2.8800001 1.414
-10.83 -2.875 1.409
-10.835 -2.8800001 1.399
-10.836 -2.881 1.391
-10.833 -2.878 1.3839999
-10.834 -2.8789999 1.376
-10.833 -2.878 1.369
-10.824 -2.8710001 1.365
-10.826 -2.8729999 1.3559999
-10.827 -2.8740001 1.348
-10.829 -2.8759999 1.339
-10.831 -2.878 1.33
-10.839 -2.885 1.3200001
-10.837 -2.8840001 1.313
-10.826 -2.8740001 1.309
-10.828 -2.8759999 1.301
-10.829 -2.878 1.2920001
-10.829 -2.878 1.285
-10.84 -2.888 1.273
-10.832 -2.881 1.268
-10.831 -2.8800001 1.261
-10.84 -2.888 1.25
-10.828 -2.878 1.247
-10.841 -2.8900001 1.234
-10.831 -2.881 1.23
-10.834 -2.8840001 1.222
-10.831 -2.881 1.215
-10.83 -2.881 1.2079999
-10.835 -2.8859999 1.198
-10.833 -2.8840001 1.191
-10.839 -2.8900001 1.182
-10.83 -2.882 1.177
-10.841 -2.892 1.166
-10.839 -2.8900001 1.159
-10.829 -2.882 1.155
-10.835 -2.888 1.145
-10.835 -2.888 1.138
-10.837 -2.8889999 1.13
-10.832 -2.8859999 1.123
-10.835 -2.888 1.115
-10.836 -2.8889999 1.107
-10.824 -2.8789999 1.104
-10.83 -2.8840001 1.094
-10.828 -2.8829999 1.087
-10.842 -2.895 1.075
-10.837 -2.891 1.0700001
-10.832 -2.8870001 1.064
-10.837 -2.892 1.054
-10.833 -2.888 1.048
-10.839 -2.8940001 1.039
-10.831 -2.8870001 1.034
-10.835 -2.891 1.025
-10.841 -2.8970001 1.016
-10.83 -2.8870001 1.012
-10.828 -2.8859999 1.005
-10.835 -2.892 0.99599999
-10.837 -2.8940001 0.98699999
-10.839 -2.8959999 0.97899997
-10.828 -2.8859999 0.97500002
-10.835 -2.8929999 0.96600002
-10.83 -2.888 0.95999998
-10.841 -2.8989999 0.949
-10.841 -2.8989999 0.94199997
-10.836 -2.8940001 0.93599999
-10.825 -2.885 0.93099999
-10.831 -2.891 0.92199999
-10.837 -2.8959999 0.91399997
-10.829 -2.8889999 0.90799999
-10.837 -2.8970001 0.89899999
-10.85 -2.9089999 0.88800001
-10.835 -2.8959999 0.88499999
-10.838 -2.898 0.87699997
-10.84 -2.9000001 0.86900002
-10.842 -2.902 0.861
-10.841 -2.902 0.85399997
-10.84 -2.901 0.847
-10.835 -2.8970001 0.84100002
-10.838 -2.9000001 0.833
-10.841 -2.902 0.82499999
-10.844 -2.905 0.81699997
-10.828 -2.892 0.81300002
-10.842 -2.904 0.80299997
-10.841 -2.9030001 0.796
-10.843 -2.905 0.78799999
-10.842 -2.905 0.78100002
-10.844 -2.9070001 0.773
-10.837 -2.901 0.76700002
-10.835 -2.9000001 0.75999999
-10.825 -2.8900001 0.755
-10.842 -2.9059999 0.745
-10.823 -2.8889999 0.741
-10.833 -2.8989999 0.73199999
-10.837 -2.9030001 0.72399998
-10.842 -2.9070001 0.71600002
-10.836 -2.902 0.70899999
-10.829 -2.8959999 0.704
-10.839 -2.905 0.69499999
-10.838 -2.904 0.68699998
-10.837 -2.904 0.68000001
-10.831 -2.898 0.67400002
-10.825 -2.8929999 0.66799998
-10.838 -2.905 0.65899998
-10.842 -2.908 0.65100002
-10.842 -2.9089999 0.64399999
-10.828 -2.8970001 0.639
-10.828 -2.8970001 0.63200003
-10.85 -2.9159999 0.62099999
-10.835 -2.9030001 0.616
-10.821 -2.892 0.611
-10.839 -2.908 0.60100001
-10.835 -2.905 0.59399998
-10.841 -2.9100001 0.58600003
-10.827 -2.8970001 0.58099997
-10.834 -2.904 0.57300001
-10.846 -2.915 0.56400001
-10.847 -2.9159999 0.55699998
-10.835 -2.9059999 0.55199999
-10.842 -2.9119999 0.54400003
-10.833 -2.904 0.53799999
-10.833 -2.905 0.52999997
-10.831 -2.9030001 0.52399999
-10.838 -2.9100001 0.51499999
-10.847 -2.918 0.50700003
-10.834 -2.9070001 0.50199997
-10.84 -2.9119999 0.49399999
-10.84 -2.9130001 0.48699999
-10.848 -2.9200001 0.479
-10.842 -2.915 0.472
-10.842 -2.915 0.465
-10.838 -2.911 0.45899999
-10.833 -2.9070001 0.45199999
-10.84 -2.914 0.44400001
-10.841 -2.915 0.43700001
-10.84 -2.914 0.43000001
-10.839 -2.914 0.42300001
-10.842 -2.9159999 0.41600001
-10.839 -2.914 0.40900001
-10.839 -2.914 0.40200001
-10.83 -2.9059999 0.39500001
-10.844 -2.9189999 0.38699999
-10.843 -2.918 0.38
-10.844 -2.9200001 0.373
-10.842 -2.918 0.366
-10.849 -2.925 0.35800001
-10.846 -2.9219999 0.352
-10.838 -2.915 0.345
-10.837 -2.914 0.338
-10.829 -2.9070001 0.33199999
-10.838 -2.9159999 0.324
-10.846 -2.9230001 0.31600001
-10.835 -2.914 0.31
-10.843 -2.9200001 0.30199999
-10.828 -2.9070001 0.296
-10.839 -2.9170001 0.289
-10.838 -2.9170001 0.28200001
-10.843 -2.921 0.27399999
-10.833 -2.9130001 0.26800001
-10.833 -2.9130001 0.26100001
-10.838 -2.918 0.25299999
-10.844 -2.9230001 0.24600001
-10.84 -2.9200001 0.23899999
-10.838 -2.918 0.23199999
-10.854 -2.9330001 0.22499999
-10.844 -2.924 0.21799999
-10.839 -2.9200001 0.211
-10.839 -2.9200001 0.204
-10.847 -2.927 0.197
-10.849 -2.9289999 0.19
-10.852 -2.9319999 0.183
-10.848 -2.9289999 0.176
-10.848 -2.9289999 0.169
-10.848 -2.9289999 0.162
-10.862 -2.9419999 0.154
-10.859 -2.9389999 0.148
-10.859 -2.9400001 0.141
-10.873 -2.9519999 0.134
-10.876 -2.9560001 0.127
-10.88 -2.9590001 0.12
-10.887 -2.9660001 0.113
-10.894 -2.9719999 0.106
-10.892 -2.97 0.098999999
-10.905 -2.9820001 0.092
-10.905 -2.9820001 0.085000001
-10.913 -2.9890001 0.079000004
-10.92 -2.9960001 0.071999997
-10.924 -2.9990001 0.064999998
-10.935 -3.01 0.059
-10.924 -3 0.050999999
-10.935 -3.01 0.045000002
-10.92 -2.997 0.037999999
-10.931 -3.007 0.030999999
-10.935 -3.0109999 0.025
-10.927 -3.0039999 0.017000001
-10.924 -3.0009999 0.0099999998
-10.92 -2.9979999 0.003
-10.917 -2.8940001 2.9920001
-10.915 -2.8929999 2.983
-10.917 -2.895 2.97
-10.908 -2.8870001 2.9679999
-10.905 -2.885 2.961
-10.915 -2.8940001 2.941
-10.91 -2.8900001 2.934
-10.909 -2.8900001 2.925
-10.918 -2.898 2.9059999
-10.908 -2.8889999 2.905
-10.91 -2.891 2.892
-10.908 -2.8900001 2.8840001
-10.916 -2.8970001 2.8659999
-10.913 -2.8940001 2.859
-10.914 -2.8959999 2.8469999
-10.914 -2.8970001 2.8369999
-10.914 -2.8959999 2.8269999
-10.907 -2.8900001 2.823
-10.903 -2.8870001 2.816
-10.905 -2.8900001 2.8039999
-10.904 -2.8889999 2.7939999
-10.907 -2.892 2.7820001
-10.901 -2.8870001 2.777
-10.898 -2.8840001 2.77
-10.903 -2.8889999 2.7550001
-10.897 -2.8840001 2.75
-10.887 -2.875 2.7490001
-10.882 -2.8710001 2.743
-10.882 -2.8710001 2.733
-10.872 -2.8629999 2.7309999
-10.879 -2.869 2.7149999
-10.864 -2.8559999 2.7179999
-10.866 -2.8570001 2.707
-10.866 -2.858 2.697
-10.865 -2.8570001 2.687
-10.849 -2.8429999 2.691
-10.844 -2.8380001 2.6849999
-10.846 -2.8410001 2.674
-10.849 -2.8440001 2.661
-10.844 -2.8399999 2.655
-10.844 -2.8399999 2.645
-10.838 -2.835 2.6400001
-10.84 -2.8369999 2.6289999
-10.843 -2.8399999 2.6159999
-10.833 -2.832 2.6140001
-10.843 -2.8399999 2.5969999
-10.834 -2.832 2.5940001
-10.833 -2.832 2.585
-10.839 -2.8380001 2.5699999
-10.833 -2.832 2.566
-10.839 -2.8380001 2.5510001
-10.836 -2.836 2.5439999
-10.836 -2.836 2.5339999
-10.838 -2.8380001 2.5220001
-10.829 -2.8310001 2.52
-10.841 -2.842 2.5009999
-10.838 -2.839 2.494
-10.835 -2.8369999 2.4860001
-10.838 -2.8399999 2.474
-10.829 -2.8310001 2.4719999
-10.832 -2.835 2.46
-10.835 -2.8380001 2.448
-10.838 -2.8410001 2.4360001
-10.839 -2.842 2.4260001
-10.836 -2.8399999 2.4189999
-10.842 -2.845 2.405
-10.836 -2.8399999 2.4000001
-10.842 -2.846 2.3859999
-10.833 -2.8380001 2.3829999
-10.836 -2.8410001 2.3710001
-10.847 -2.8510001 2.3540001
-10.837 -2.842 2.352
-10.837 -2.8429999 2.3429999
-10.837 -2.8429999 2.3329999
-10.841 -2.8469999 2.322
-10.838 -2.8440001 2.3139999
-10.845 -2.8510001 2.3
-10.842 -2.848 2.293
-10.835 -2.8429999 2.2880001
-10.839 -2.8469999 2.277
-10.839 -2.8469999 2.267
-10.84 -2.848 2.2579999
-10.843 -2.8510001 2.2460001
-10.841 -2.849 2.2390001
-10.834 -2.8440001 2.234
-10.835 -2.845 2.2249999
-10.851 -2.8599999 2.204
-10.845 -2.8540001 2.2
-10.836 -2.846 2.197
-10.829 -2.8410001 2.1919999
-10.837 -2.848 2.178
-10.84 -2.8510001 2.1670001
-10.834 -2.846 2.1619999
-10.845 -2.8559999 2.1459999
-10.845 -2.8570001 2.1359999
-10.829 -2.842 2.138
-10.84 -2.852 2.122
-10.837 -2.8499999 2.115
-10.835 -2.848 2.108
-10.843 -2.855 2.0940001
-10.836 -2.8499999 2.089
-10.834 -2.848 2.082
-10.837 -2.8510001 2.0710001
-10.839 -2.8529999 2.0610001
-10.835 -2.8499999 2.0539999
-10.833 -2.849 2.0469999
-10.837 -2.852 2.036
-10.834 -2.8499999 2.029
-10.828 -2.845 2.0239999
-10.835 -2.8510001 2.0109999
-10.834 -2.8499999 2.003
-10.843 -2.859 1.988
-10.841 -2.8570001 1.9809999
-10.845 -2.8610001 1.97
-10.836 -2.8529999 1.967
-10.83 -2.848 1.962
-10.832 -2.8510001 1.952
-10.839 -2.8570001 1.9400001
-10.84 -2.858 1.9299999
-10.835 -2.8540001 1.925
-10.827 -2.8469999 1.921
-10.852 -2.8699999 1.898
-10.851 -2.869 1.89
-10.844 -2.8629999 1.885
-10.836 -2.8559999 1.881
-10.837 -2.8570001 1.872
-10.847 -2.8659999 1.858
-10.834 -2.855 1.857
-10.835 -2.8559999 1.848
-10.827 -2.849 1.844
-10.83 -2.852 1.834
-10.842 -2.8629999 1.819
-10.833 -2.855 1.816
-10.845 -2.8659999 1.8
-10.842 -2.8640001 1.793
-10.837 -2.859 1.788
-10.838 -2.8610001 1.779
-10.846 -2.868 1.766
-10.84 -2.8629999 1.762
-10.838 -2.862 1.7539999
-10.836 -2.8599999 1.747
-10.827 -2.852 1.743
-10.838 -2.8629999 1.729
-10.834 -2.859 1.723
-10.837 -2.862 1.7130001
-10.845 -2.869 1.701
-10.846 -2.8710001 1.692
-10.844 -2.869 1.6849999
-10.836 -2.862 1.681
-10.827 -2.8540001 1.678
-10.835 -2.862 1.665
-10.826 -2.8540001 1.661
-10.835 -2.862 1.649
-10.844 -2.8699999 1.636
-10.833 -2.8610001 1.633
-10.832 -2.8599999 1.626
-10.842 -2.8699999 1.613
-10.842 -2.8699999 1.605
-10.842 -2.8699999 1.597
-10.838 -2.8659999 1.591
-10.849 -2.8770001 1.577
-10.832 -2.8610001 1.577
-10.846 -2.8740001 1.563
-10.841 -2.8699999 1.557
-10.838 -2.868 1.55
-10.836 -2.8670001 1.543
-10.834 -2.865 1.536
-10.842 -2.8729999 1.524
-10.837 -2.868 1.518
-10.838 -2.8699999 1.51
-10.841 -2.872 1.501
-10.849 -2.8789999 1.49
-10.833 -2.8659999 1.488
-10.846 -2.8770001 1.475
-10.837 -2.869 1.471
-10.834 -2.8670001 1.464
-10.843 -2.875 1.4529999
-10.841 -2.8740001 1.4450001
-10.836 -2.8699999 1.4400001
-10.828 -2.8629999 1.4349999
-10.833 -2.8670001 1.425
-10.842 -2.875 1.414
-10.845 -2.878 1.405
-10.837 -2.872 1.4
-10.846 -2.8800001 1.388
-10.837 -2.872 1.3839999
-10.842 -2.8770001 1.375
-10.837 -2.872 1.369
-10.836 -2.872 1.3609999
-10.84 -2.8759999 1.352
-10.842 -2.878 1.3430001
-10.838 -2.875 1.337
-10.847 -2.882 1.326
-10.837 -2.8740001 1.322
-10.836 -2.8729999 1.3150001
-10.845 -2.881 1.304
-10.839 -2.8770001 1.298
-10.831 -2.8699999 1.293
-10.844 -2.881 1.281
-10.845 -2.8829999 1.273
-10.848 -2.885 1.2640001
-10.833 -2.872 1.262
-10.848 -2.8859999 1.249
-10.847 -2.885 1.2410001
-10.852 -2.8900001 1.232
-10.833 -2.8729999 1.2309999
-10.837 -2.8770001 1.222
-10.854 -2.8929999 1.2079999
-10.845 -2.885 1.204
-10.844 -2.8840001 1.197
-10.84 -2.881 1.1900001
-10.848 -2.888 1.1799999
-10.829 -2.8710001 1.179
-10.835 -2.8770001 1.169
-10.84 -2.882 1.16
-10.837 -2.8789999 1.154
-10.849 -2.8900001 1.142
-10.837 -2.8800001 1.138
-10.839 -2.882 1.13
-10.845 -2.888 1.1210001
-10.846 -2.888 1.113
-10.838 -2.882 1.108
-10.826 -2.8710001 1.104
-10.842 -2.885 1.092
-10.837 -2.881 1.086
-10.847 -2.891 1.075
-10.846 -2.8900001 1.068
-10.844 -2.8889999 1.061
-10.839 -2.8840001 1.0549999
-10.84 -2.885 1.0470001
-10.844 -2.8889999 1.039
-10.849 -2.8940001 1.03
-10.847 -2.892 1.023
-10.854 -2.8989999 1.013
-10.847 -2.8929999 1.008
-10.845 -2.891 1.001
-10.842 -2.8889999 0.995
-10.853 -2.898 0.98400003
-10.845 -2.892 0.97899997
-10.85 -2.8970001 0.97000003
-10.842 -2.8900001 0.96499997
-10.848 -2.895 0.95599997
-10.85 -2.8970001 0.94800001
-10.853 -2.9000001 0.94
-10.841 -2.8900001 0.93599999
-10.845 -2.8929999 0.92699999
-10.85 -2.898 0.91900003
-10.842 -2.891 0.91299999
-10.844 -2.8929999 0.90499997
-10.842 -2.892 0.89899999
-10.848 -2.8970001 0.88999999
-10.84 -2.8900001 0.884
-10.849 -2.8989999 0.875
-10.858 -2.9070001 0.86500001
-10.847 -2.8970001 0.861
-10.839 -2.8900001 0.85500002
-10.848 -2.8989999 0.84600002
-10.841 -2.892 0.83999997
-10.843 -2.8940001 0.83200002
-10.842 -2.8940001 0.82499999
-10.848 -2.8989999 0.81699997
-10.854 -2.905 0.80800003
-10.857 -2.908 0.80000001
-10.846 -2.898 0.79500002
-10.837 -2.891 0.79000002
-10.847 -2.9000001 0.77999997
-10.849 -2.902 0.773
-10.852 -2.905 0.76499999
-10.842 -2.8959999 0.75999999
-10.841 -2.8959999 0.75300002
-10.85 -2.904 0.74400002
-10.845 -2.9000001 0.73699999
-10.845 -2.8989999 0.73000002
-10.84 -2.895 0.72399998
-10.846 -2.901 0.71600002
-10.842 -2.8970001 0.70899999
-10.84 -2.8959999 0.70200002
-10.84 -2.8959999 0.69499999
-10.842 -2.898 0.68699998
-10.844 -2.9000001 0.68000001
-10.838 -2.895 0.67400002
-10.836 -2.8940001 0.667
-10.854 -2.9100001 0.65700001
-10.842 -2.8989999 0.65200001
