ply
format ascii 1.0
comment PCL generated
element vertex 1625
property float x
property float y
property float z
element camera 0
property float view_px
property float view_py
property float view_pz
property float x_axisx
property float x_axisy
property float x_axisz
property float y_axisx
property float y_axisy
property float y_axisz
property float z_axisx
property float z_axisy
property float z_axisz
property float focal
property float scalex
property float scaley
property float centerx
property float centery
property int viewportx
property int viewporty
property float k1
property float k2
end_header
-6.0530005 15.43143 2.6378572
-5.9578576 15.413858 2.6464288
-5.8280001 15.4065 2.605
13.798 15.4 2.6340001
13.939 15.4 2.6129999
14.728666 15.415 2.6430001
14.862501 15.417 2.6385
14.948707 15.419998 2.6481252
15.061463 15.424578 2.6479998
15.152483 15.431546 2.6537712
15.244999 15.433059 2.6490586
15.319 15.452 2.6199999
15.572001 15.465799 2.6578
15.648625 15.452749 2.6561248
15.752583 15.461334 2.6487501
15.860858 15.468858 2.6482859
15.963454 15.461364 2.6635456
16.055876 15.484938 2.6560624
16.14809 15.482 2.6543639
16.239429 15.470716 2.6700003
16.375 15.478857 2.6701429
16.418499 15.434875 2.630625
16.574272 15.441182 2.6352727
16.659134 15.460801 2.681267
16.749908 15.454454 2.688818
16.841751 15.458916 2.6869171
16.942801 15.465066 2.6840003
17.050714 15.468572 2.6811433
17.151999 15.465601 2.6889999
17.249001 15.4732 2.6808
17.363749 15.474751 2.6752501
17.451168 15.481167 2.6700001
17.51 15.483 2.6700001
17.691666 15.424666 2.6440001
17.741333 15.487999 2.6796665
18.181 15.489334 2.6896667
18.240002 15.491858 2.6871428
18.336601 15.493601 2.6919999
18.488001 15.448 2.677
18.521 15.416 2.6289999
18.727617 15.442156 2.6450002
19.578999 15.413 2.6475
19.738092 15.466365 2.6592727
20.625668 15.441001 2.6383333
20.8204 15.457001 2.6526
21.572002 15.465 2.6303334
21.659573 15.409144 2.6190002
21.750723 15.435447 2.639333
22.542713 15.461001 2.6575716
23.745335 15.428443 2.632417
23.849123 15.428273 2.6296062
24.069 15.445 2.6355
24.286499 15.41625 2.6572499
24.318001 15.403 2.6914999
24.873518 15.465184 2.6537404
24.945026 15.46773 2.6579998
25.008001 15.493667 2.661
25.820862 15.453135 2.6546819
27.272001 15.447901 2.6538
27.347874 15.416875 2.607625
27.445503 15.40575 2.627125
27.55229 15.420807 2.6430326
27.653559 15.416519 2.6234398
27.739307 15.432693 2.6325386
27.8055 15.429501 2.678
28.976 15.452556 2.6425555
30.28854 15.463386 2.6352308
30.305334 15.436834 2.6613336
-21.470173 15.548751 2.6475003
-18.509666 15.541416 2.6530001
-18.461317 15.558316 2.6548159
-18.366426 15.547199 2.6526706
-15.215938 15.545312 2.6854372
-15.15291 15.551805 2.6849566
-15.094001 15.562601 2.6889999
-12.032 15.581 2.694
-11.943859 15.563698 2.6715345
-11.866458 15.567333 2.6713753
-9.7019997 15.594 2.697
-9.6422739 15.582088 2.6681635
-9.5610304 15.571121 2.6692433
-9.493 15.567 2.6921668
-8.7403135 15.551601 2.6496305
-7.4594002 15.556602 2.6438003
-6.9446669 15.591 2.6563334
-6.855125 15.583875 2.6575
-6.7528887 15.57511 2.6619999
-6.646143 15.564143 2.6495714
-6.5711999 15.556 2.6394002
-6.427 15.5165 2.619
-6.3739996 15.502001 2.6139998
15.95275 15.512501 2.64675
16.061501 15.504499 2.6305001
16.16625 15.501249 2.6447499
16.24225 15.5145 2.6355
16.378 15.518 2.6340001
16.441999 15.5035 2.6575
16.567942 15.514823 2.6621175
16.651243 15.519214 2.6453941
16.749739 15.524789 2.6435788
16.849516 15.535151 2.6448791
16.934525 15.537948 2.6385264
17.050585 15.537167 2.6293335
17.144573 15.538501 2.6354287
17.253586 15.5455 2.6468334
17.355501 15.541625 2.63975
17.432667 15.558002 2.6333334
17.5 15.565 2.635
17.694 15.539499 2.6415
17.7547 15.557901 2.6434
17.820999 15.556499 2.6469998
18.099001 15.5745 2.654
18.158407 15.566853 2.6462219
18.251001 15.568861 2.6495554
18.34951 15.559306 2.6562824
18.434641 15.549561 2.6622
18.5 15.503 2.6889999
18.744186 15.549 2.6645558
18.848801 15.5493 2.6719
18.951839 15.548198 2.6771603
19.048586 15.554553 2.6713793
19.150564 15.548696 2.673913
19.246836 15.54061 2.6775
19.348555 15.532333 2.6843331
19.5795 15.559 2.664
19.604 15.547 2.6129999
19.760794 15.543083 2.6644166
19.849344 15.562233 2.6768465
19.951828 15.562138 2.6777241
20.052172 15.568205 2.6754479
20.152384 15.566424 2.6764612
20.245272 15.574093 2.6775455
20.34828 15.572799 2.6779594
20.450829 15.580175 2.6735218
20.541262 15.575315 2.6801581
20.605 15.572 2.698
20.839548 15.576092 2.6677275
21.34 15.596 2.687
21.487499 15.594 2.6905
21.575001 15.5405 2.6485002
21.768925 15.55723 2.6563077
22.534834 15.551166 2.664
23.710199 15.525301 2.6473
23.985001 15.508 2.6070001
24.851429 15.548382 2.6484287
24.959093 15.510364 2.6174545
25.013334 15.537333 2.6619999
25.829376 15.558208 2.65625
26.887571 15.585001 2.6748571
26.946568 15.580903 2.6734669
27.033419 15.577003 2.6747367
27.2785 15.5055 2.6854999
27.332502 15.546401 2.6318002
27.516001 15.503 2.6949999
28.978601 15.537 2.6505001
29.02 15.56 2.612
30.285385 15.535541 2.6580002
30.304501 15.5555 2.6565001
-21.45192 15.648651 2.6491029
-18.416845 15.655001 2.6913078
-18.363049 15.656024 2.6931629
-15.212835 15.648335 2.6830833
-15.149878 15.649096 2.6787562
-15.080833 15.667083 2.6889167
-11.956018 15.641285 2.6419184
-11.842712 15.635262 2.634738
-11.786601 15.68 2.6556001
-9.8087997 15.681201 2.6102002
-9.7402973 15.63728 2.643338
-9.6573391 15.615248 2.6235476
-9.5639992 15.620152 2.6285503
-8.7340174 15.647981 2.6506162
-8.5474997 15.6255 2.641
-7.4591432 15.67743 2.6458573
-7.3501115 15.684111 2.6562223
-7.2497854 15.665642 2.6529999
-7.1484289 15.643501 2.6490715
-7.059267 15.631734 2.6503336
-6.9525003 15.617625 2.6503124
-6.8643332 15.608833 2.6516666
-6.7700005 15.608667 2.6153336
17.708 15.609 2.6329999
18.270201 15.6056 2.6131999
18.354248 15.607376 2.625875
18.420002 15.610287 2.6201429
18.75421 15.610894 2.6321051
18.851585 15.611248 2.6354585
18.954258 15.614298 2.6359258
19.047321 15.617749 2.6300714
19.148193 15.612064 2.6371613
19.239401 15.621734 2.6358004
19.351665 15.625112 2.6334445
19.433599 15.629201 2.6264
19.526001 15.615499 2.6375
19.611 15.636 2.618
19.76457 15.631071 2.6349287
19.854893 15.630298 2.6375134
19.949219 15.630866 2.6306753
20.050716 15.634589 2.6317444
20.151024 15.640724 2.6346996
20.248161 15.644 2.6389472
20.349857 15.648162 2.6378844
20.451162 15.648974 2.6372168
20.532629 15.642925 2.6352961
20.616667 15.639667 2.6396666
20.854273 15.64891 2.6355231
20.912876 15.6685 2.6269999
21.143 15.637 2.661
21.267076 15.65764 2.6497197
21.350546 15.656704 2.651922
21.446859 15.651648 2.6573145
21.525549 15.651741 2.6572258
21.615 15.627 2.6930001
21.784788 15.630213 2.6560717
21.851805 15.645415 2.6633663
21.948889 15.646161 2.6652975
22.049871 15.648923 2.6653593
22.149267 15.65446 2.6642296
22.251638 15.651591 2.6662724
22.337971 15.654821 2.6665006
22.452471 15.665177 2.6704118
22.529556 15.648666 2.648
22.848499 15.684999 2.6654999
22.972044 15.669772 2.6545911
23.048237 15.667675 2.6478839
23.150709 15.672165 2.650521
23.248785 15.670543 2.6503916
23.351921 15.678976 2.6463079
23.446281 15.678514 2.6501794
23.545513 15.682601 2.6503999
23.647837 15.685698 2.6520228
23.708286 15.641429 2.6425714
23.960911 15.688502 2.6491821
24.049656 15.692386 2.6483848
24.115801 15.693201 2.6242001
24.299999 15.692 2.6849999
24.840002 15.648998 2.6496668
25.042 15.668 2.642
25.825134 15.649 2.6559091
26.883036 15.654386 2.6416926
26.951521 15.617999 2.629926
27.034765 15.618666 2.6294763
27.112 15.684 2.6530001
27.99 15.6845 2.6605
28.044203 15.659399 2.6509273
28.1411 15.658935 2.6524665
28.970778 15.637334 2.6615555
30.288666 15.63 2.6520002
30.305334 15.650667 2.6463335
-21.434052 15.750973 2.6476374
-18.410715 15.733572 2.6944287
-18.354086 15.750242 2.6932938
-15.205334 15.722 2.6813333
-15.152591 15.753027 2.6764104
-15.077625 15.75475 2.6807499
-14.604999 15.7668 2.6112001
-14.547085 15.763309 2.6421251
-14.474874 15.7655 2.6433749
-11.960854 15.749205 2.6482358
-11.806 15.721667 2.6523335
-11.791201 15.762702 2.6446002
-10.925667 15.796667 2.6833334
-10.844758 15.782175 2.6734486
-10.75868 15.788361 2.6533198
-10.679 15.788 2.605
-9.816556 15.762333 2.6215556
-9.7712498 15.735502 2.6672502
-9.5869999 15.757 2.6630001
-8.7170811 15.743709 2.6452632
-8.6947889 15.784106 2.6488945
-8.1529999 15.794 2.668
-7.7129998 15.7634 2.6402004
-7.6531334 15.754535 2.6352665
-7.5518007 15.771601 2.6112001
-7.4547 15.7285 2.6290002
-7.3499999 15.7385 2.6335001
-7.2469997 15.701 2.625
21.136 15.708 2.609
21.263199 15.7032 2.6124001
21.3477 15.712401 2.6107001
21.449436 15.71275 2.6205623
21.534573 15.717858 2.6185715
21.634001 15.704 2.6229999
21.78289 15.712555 2.6317778
21.846069 15.717934 2.6288667
21.95097 15.718267 2.6236174
22.052731 15.715667 2.6244669
22.151068 15.71869 2.6213448
22.247578 15.722775 2.6234837
22.330524 15.725631 2.6256316
22.442383 15.724307 2.6145387
22.535336 15.717334 2.6140001
22.855 15.7555 2.6069999
22.9681 15.7353 2.6253002
23.042334 15.747602 2.6150668
23.147001 15.741819 2.6092727
23.255455 15.746364 2.6074545
23.354099 15.740399 2.6108
23.449001 15.731143 2.6245
23.549416 15.745251 2.6124167
23.654125 15.720562 2.624625
23.718 15.71 2.661
23.960083 15.707 2.6490834
24.041046 15.713435 2.6410437
24.129801 15.707 2.622
24.386999 15.709 2.6989999
24.427 15.735 2.652
24.579332 15.727556 2.6265554
24.651709 15.72721 2.6417897
24.749243 15.729675 2.6461835
24.825272 15.731683 2.6486816
25.076134 15.740002 2.6448669
25.145983 15.750581 2.6468835
25.249975 15.752953 2.6463749
25.349628 15.76063 2.6461165
25.449999 15.766581 2.6482368
25.549274 15.770808 2.6521082
25.649641 15.776611 2.6509447
25.748131 15.779975 2.6519477
25.822268 15.746735 2.6445999
26.251499 15.79 2.6605
26.347668 15.794668 2.6651669
26.421667 15.794666 2.6843333
26.879637 15.757271 2.6475911
26.900999 15.72 2.6889999
27.105 15.701 2.6355
27.992777 15.745444 2.6476667
28.011999 15.723999 2.6646001
28.172333 15.714666 2.6293333
28.209 15.758 2.6029999
28.964899 15.748599 2.6468999
30.292999 15.762 2.6259999
30.325001 15.703 2.6900001
-21.418409 15.853572 2.647398
-18.405666 15.868 2.6943336
-18.34795 15.849922 2.6923847
-18.29125 15.882874 2.6930001
-15.149582 15.846056 2.6697218
-15.072045 15.848001 2.6748641
-14.607 15.819 2.6230001
-14.582654 15.838732 2.6681919
-14.437144 15.854856 2.6549287
-11.948762 15.846571 2.6392858
-11.8615 15.884501 2.6794999
-11.784118 15.844588 2.6392353
-10.930174 15.835864 2.6677244
-10.861613 15.829571 2.6298411
-10.744345 15.818532 2.643281
-10.661193 15.859769 2.6391544
-9.8239994 15.8365 2.6145
-9.7422504 15.865749 2.679625
-9.6440001 15.870001 2.6710002
-8.7088003 15.862399 2.6501999
-8.6624937 15.854035 2.6500378
-8.5631123 15.875889 2.6514444
-8.4610004 15.866714 2.6695716
-8.3595009 15.869167 2.6536667
-8.259429 15.863429 2.6447144
-8.1522503 15.834001 2.652
-7.6503334 15.811666 2.6106668
-7.586 15.806 2.6100001
25.156668 15.816001 2.6016667
25.251999 15.8084 2.605
25.353834 15.839333 2.6031666
25.454666 15.834333 2.6081667
25.548716 15.832217 2.6066427
25.656889 15.834554 2.6187778
25.761402 15.8417 2.6182001
25.832859 15.849571 2.6104288
26.2645 15.847 2.6215
26.363111 15.827222 2.6510739
26.450266 15.836766 2.6488419
26.546902 15.833901 2.6561668
26.649817 15.84341 2.6546593
26.751175 15.840379 2.6575882
26.848057 15.841344 2.6550283
26.916 15.8585 2.6630001
27.180403 15.843201 2.6696
27.251287 15.863001 2.6682382
27.352133 15.8694 2.6669333
27.449945 15.875944 2.6662776
27.522249 15.878 2.6694999
27.629999 15.869 2.6849999
27.791 15.897 2.697
27.979033 15.85178 2.6548753
28.287001 15.896 2.678
28.330334 15.892001 2.6739998
28.960199 15.828799 2.6386001
29.95425 15.843668 2.6474166
30.037001 15.836901 2.6508
30.1085 15.8535 2.6635001
30.332001 15.855 2.654
-21.409931 15.940965 2.6478136
-21.394678 15.962029 2.648941
-18.411335 15.9265 2.6938331
-18.346518 15.949389 2.6877851
-18.290136 15.969399 2.6913338
-15.150831 15.958773 2.6650209
-15.062272 15.957635 2.6689088
-14.561934 15.9486 2.6532001
-14.454333 15.936666 2.6603334
-11.922792 15.958374 2.6537085
-11.833728 15.925636 2.6576366
-11.733185 15.948657 2.6552813
-11.693777 15.966888 2.6606667
-10.905 15.91 2.684
-10.8564 15.931399 2.6399
-10.791 15.988 2.6240001
-10.636144 15.93786 2.639143
-10.58 15.909 2.605
-9.7454538 15.9475 2.661
-9.6009998 15.971 2.6240001
-9.5914001 15.942 2.6592
-9.1323929 15.984963 2.6724999
-9.0475073 15.977151 2.6637793
-8.9482441 15.966615 2.6620405
-8.8495541 15.957783 2.6569889
-8.7482786 15.950264 2.6489999
-8.6529522 15.93806 2.6376085
-8.5818233 15.944822 2.6332941
-8.1415005 15.908 2.6015
26.473 15.904001 2.6113336
26.553499 15.903875 2.62375
26.646299 15.911501 2.6166
26.742922 15.916616 2.622154
26.839527 15.920527 2.6228426
26.902 15.932 2.6359999
27.175999 15.9415 2.6195002
27.248901 15.939002 2.6267498
27.350891 15.946503 2.6307783
27.445934 15.946335 2.6285336
27.510801 15.942599 2.6362
27.679001 15.961 2.6359999
27.797001 15.965 2.645
27.872334 15.9545 2.6211667
27.960283 15.948 2.6353598
28.008999 15.9825 2.635
28.281334 15.956 2.6270003
28.361334 15.947956 2.6537499
28.44239 15.935478 2.6589565
28.540155 15.941693 2.6639233
28.652445 15.94311 2.6659999
28.764002 15.940001 2.6748891
28.861572 15.949858 2.6782861
28.944 15.936222 2.6715558
29.017 15.936 2.6290002
29.4645 15.98175 2.6807499
29.559002 15.986667 2.684
29.637669 15.989334 2.6795001
29.792999 15.997 2.6930001
29.930168 15.950834 2.6613336
30.222 15.987 2.6960001
30.3116 15.946399 2.6523998
-21.4062 16.024101 2.6413002
-21.388351 16.051291 2.6521091
-18.408001 16.031334 2.6916666
-18.34693 16.047979 2.6830101
-18.2794 16.059311 2.6863782
-15.212 16.021 2.6289999
-15.14836 16.034708 2.6321557
-15.054251 16.034389 2.6382861
-14.986 16.074333 2.6859999
-14.522 16.007999 2.6659999
-12.819334 16.086002 2.6733336
-12.739727 16.089819 2.6792724
-12.6695 16.08075 2.68875
-11.91052 16.056396 2.64832
-11.8975 16.071499 2.635
-11.705334 16.042 2.6310003
-11.686437 16.040501 2.6470001
-10.754693 16.069771 2.6595771
-10.648667 16.068775 2.6459634
-9.7390871 16.05187 2.6503916
-9.5650005 16.046875 2.6633751
-9.4392004 16.0404 2.6828001
-9.3449993 16.05525 2.6717501
-9.2267494 16.07025 2.62375
-9.1582508 16.05055 2.6443
-9.0529661 16.035484 2.6399996
-8.9518614 16.022501 2.6426663
-8.8600006 16.017084 2.635042
-8.7630005 16.004599 2.6214001
28.373335 16.011333 2.6303334
28.437332 16.003666 2.6340001
28.546501 16.0105 2.619
28.64329 16.015001 2.6152859
28.748749 16.016874 2.61975
28.853001 16.019625 2.6257501
28.944002 16.020626 2.624125
29.466751 16.050751 2.6347501
29.542749 16.04525 2.648375
29.659428 16.055286 2.651572
29.735722 16.066477 2.6430953
29.849291 16.059858 2.656143
29.922445 16.053888 2.6344445
30.191801 16.0502 2.6565998
30.246555 16.044556 2.6367776
30.306334 16.066334 2.6626668
-21.374916 16.148079 2.6494455
-18.404499 16.139999 2.6925001
-18.33894 16.1471 2.6791136
-18.265335 16.153408 2.6830845
-15.162999 16.135786 2.6449287
-15.016299 16.140501 2.6398001
-14.9844 16.130701 2.6723001
-12.913699 16.163502 2.6288998
-12.849894 16.132536 2.6485717
-12.747839 16.135485 2.6380966
-12.684 16.124834 2.6683335
-11.906501 16.123001 2.6453333
-11.896182 16.148727 2.6405456
-11.68725 16.146 2.6560001
-10.77 16.13938 2.6394827
-10.614834 16.142668 2.63975
-10.591375 16.164875 2.6533747
-10.216 16.177999 2.6889999
-10.14025 16.169127 2.6931248
-10.042334 16.168333 2.6860003
-9.9420004 16.161251 2.6827502
-9.8472891 16.170614 2.6643541
-9.7529736 16.156237 2.6597106
-9.6945 16.168499 2.6560001
-9.5300007 16.128716 2.6282856
-9.4466 16.125099 2.6355
-9.3594999 16.122334 2.6248336
29.677999 16.101999 2.608
29.7495 16.103001 2.6252499
29.856499 16.103001 2.6389999
29.912001 16.101999 2.6400001
30.271999 16.113001 2.6140001
30.301001 16.134001 2.6210001
-21.360556 16.250214 2.6499786
-18.403 16.212999 2.6989999
-18.334948 16.246004 2.6771934
-18.254118 16.253193 2.6805003
-15.144417 16.238251 2.6425834
-15.014143 16.244286 2.6368573
-14.971125 16.258875 2.6708748
-14.009 16.288 2.6889999
-13.948 16.289167 2.6761665
-12.954144 16.257858 2.6415715
-12.74325 16.237249 2.6334999
-11.859715 16.252903 2.6531901
-11.706 16.2255 2.6329999
-11.678924 16.261234 2.6499999
-10.749374 16.247875 2.65025
-10.59 16.210251 2.67325
-10.421249 16.287001 2.6574998
-10.348666 16.269617 2.6559522
-10.248501 16.256109 2.6530001
-10.149941 16.251116 2.6505883
-10.03991 16.232908 2.6553638
-9.949749 16.221029 2.6464446
-9.8564091 16.20882 2.6364548
-9.7749996 16.2055 2.625
-9.6969995 16.200001 2.6140001
-21.348166 16.352072 2.6516824
-18.3265 16.346786 2.6731672
-18.249657 16.352079 2.6764963
-18.193001 16.361 2.6919999
-15.12825 16.32975 2.6382499
-15.032801 16.335001 2.6434002
-14.953463 16.365923 2.6730773
-14.03324 16.339035 2.6697929
-13.947639 16.328463 2.6480145
-13.85846 16.339157 2.6383846
-13.778667 16.383667 2.6186666
-13.003 16.386999 2.6229999
-12.972667 16.368668 2.642
-12.846 16.354 2.642
-11.845637 16.347317 2.6450913
-11.671374 16.338499 2.6474376
-11.229 16.399 2.6600001
-11.1368 16.394699 2.6481998
-11.046304 16.390741 2.6498263
-10.950801 16.375177 2.652725
-10.853022 16.361868 2.6537998
-10.751256 16.340895 2.652077
-10.431167 16.312836 2.6645
-10.348249 16.307251 2.6324999
-10.261 16.304001 2.632
-10.143 16.306 2.6370001
-21.332632 16.451635 2.6491754
-18.331116 16.460402 2.6717908
-18.243671 16.450659 2.6713932
-18.197201 16.464201 2.6924
-15.108951 16.448051 2.6518002
-15.058499 16.445999 2.625
-14.927251 16.427801 2.6443503
-14.882037 16.461517 2.6549258
-14.025 16.4405 2.631
-13.82325 16.443874 2.6771247
-13.765462 16.439001 2.6338463
-12.93225 16.466 2.6707499
-11.904 16.489 2.6760001
-11.830631 16.471159 2.6488421
-11.740002 16.471445 2.6601112
-11.651083 16.458166 2.6476667
-11.553401 16.456802 2.6468668
-11.458501 16.445667 2.6486666
-11.377223 16.437002 2.642
-11.244999 16.415043 2.6369567
-11.161383 16.409618 2.6468573
-11.062667 16.406002 2.6478333
-21.320688 16.550274 2.6477702
-21.297001 16.583 2.678
-18.333481 16.54825 2.6335416
-18.235432 16.538713 2.6434627
-18.190626 16.559654 2.6522839
-15.941112 16.590445 2.6868889
-15.846878 16.58428 2.6798401
-15.790501 16.5765 2.6960001
-15.093666 16.563 2.6480834
-14.868134 16.540548 2.6504548
-13.805 16.519001 2.6600001
-13.764999 16.55547 2.6577058
-12.910999 16.525251 2.6847498
-12.894 16.584 2.6819999
-12.62 16.598 2.619
-12.545501 16.594 2.6462498
-12.444499 16.581583 2.6518335
-12.3471 16.5674 2.6565001
-12.255429 16.559143 2.6423573
-12.153563 16.542187 2.6442502
-12.046437 16.531187 2.647625
-11.952666 16.5215 2.6505003
-11.852079 16.508158 2.6489198
-11.772 16.504999 2.697
-21.313456 16.646 2.6494396
-21.29479 16.663368 2.6512103
-18.417999 16.606001 2.628
-18.327499 16.612499 2.6025
-18.214401 16.626402 2.6572001
-18.179893 16.649136 2.6546004
-16.033417 16.65871 2.6337712
-15.953335 16.629217 2.6440244
-15.864025 16.630636 2.6453409
-15.792999 16.611 2.6890001
-15.101 16.667 2.694
-15.086905 16.660191 2.6529524
-14.9226 16.675602 2.641
-14.847 16.615799 2.6398001
-13.7465 16.635836 2.6555002
-13.392 16.694 2.612
-13.23967 16.692699 2.641767
-13.14749 16.683777 2.6523468
-13.052983 16.670944 2.6495895
-12.96003 16.658266 2.6561472
-12.888 16.6448 2.6783998
-12.654751 16.631418 2.6435833
-12.563 16.6145 2.6595001
-21.306074 16.736929 2.6564286
-21.290281 16.74992 2.6472023
-18.210669 16.727667 2.6570001
-18.163029 16.748304 2.6554513
-17.226267 16.786869 2.6863334
-17.14233 16.781841 2.6716583
-17.081333 16.79138 2.6445239
-16.11125 16.771252 2.6164999
-16.072168 16.742165 2.6559443
-15.862333 16.740002 2.6443334
-15.087438 16.743 2.6443748
-14.920888 16.748775 2.6403334
-14.893 16.781 2.6789999
-14.045333 16.795668 2.6453333
-13.965334 16.794334 2.618
-13.734599 16.7418 2.655
-13.640857 16.77062 2.658
-13.545126 16.749416 2.6561251
-13.447172 16.730793 2.6526225
-13.34655 16.720285 2.6523006
-13.256103 16.709965 2.6555173
-13.165091 16.712091 2.6489091
-13.054501 16.702999 2.6489999
-21.304001 16.822334 2.6396666
-21.278193 16.85034 2.6486523
-18.222389 16.869276 2.6546664
-18.153687 16.849648 2.6646328
-18.071644 16.87991 2.6631076
-17.311333 16.824333 2.6911666
-17.243347 16.83075 2.6560693
-17.15518 16.826279 2.6304066
-17.04797 16.833862 2.6480002
-16.981466 16.877537 2.6253216
-16.116615 16.840231 2.6545389
-16.0905 16.818666 2.684
-15.915 16.869999 2.6289999
-15.077287 16.835285 2.6447144
-14.914333 16.837667 2.6246667
-14.884501 16.8575 2.6542501
-14.735 16.895 2.675
-14.64315 16.88975 2.6379502
-14.553414 16.884563 2.6503692
-14.447398 16.873896 2.6507082
-14.344431 16.86132 2.6496427
-14.251161 16.845821 2.6526427
-14.150987 16.839653 2.649091
-14.05231 16.823954 2.6483114
-13.974851 16.814299 2.6434498
-13.694 16.802999 2.6730001
-21.266113 16.951475 2.6520717
-18.228823 16.917 2.6327059
-18.135269 16.914042 2.6220002
-18.046345 16.946026 2.6461735
-17.226667 16.918667 2.6313334
-17.0086 16.951101 2.6865997
-16.953758 16.945137 2.6328282
-15.902 16.933001 2.648
-15.882 16.959251 2.6594999
-15.537666 16.994667 2.6273334
-15.444686 16.993 2.6329999
-15.350414 16.986254 2.6484709
-15.252665 16.979788 2.6488483
-15.157672 16.970161 2.6475632
-15.076387 16.951742 2.6488707
-14.84075 16.925625 2.6443751
-14.752077 16.929539 2.6466157
-14.654121 16.913031 2.6561823
-14.569374 16.910126 2.6543751
-14.459499 16.908001 2.6595001
-21.249456 17.052315 2.6498532
-19.143667 17.095001 2.6936669
-19.048569 17.086714 2.6821072
-18.976524 17.080572 2.6776667
-18.023773 17.043705 2.6460826
-17.014 17.044001 2.6029999
-16.965929 17.037689 2.6529763
-16.149 17.090399 2.6666
-15.828114 17.055084 2.6470001
-15.751342 17.045931 2.6448028
-15.650402 17.03529 2.6430786
-15.548737 17.025278 2.6426558
-15.453205 17.012592 2.6483078
-15.346999 17.021368 2.6383159
-15.252334 17.033335 2.6226664
-15.188 17.028336 2.6226668
-21.229177 17.151249 2.6492209
-19.319 17.195999 2.5999999
-19.228676 17.159834 2.6333549
-19.146385 17.137827 2.6432588
-19.043718 17.137732 2.6329398
-18.987539 17.11854 2.6574616
-18.064657 17.158989 2.6533039
-17.113001 17.159 2.6029999
-16.950001 17.188999 2.687
-16.715 17.192167 2.6618333
-16.646 17.193605 2.6523213
-16.547306 17.183208 2.6501126
-16.449026 17.16814 2.6516712
-16.348433 17.151119 2.6497588
-16.249903 17.139414 2.6441827
-16.178539 17.118885 2.6651542
-15.814 17.133249 2.6065001
-15.755499 17.115376 2.60725
-15.665333 17.112 2.6040001
-21.212557 17.24391 2.650882
-21.197443 17.285 2.6441109
-19.216499 17.212502 2.6485
-19.044092 17.226728 2.6210001
-18.993999 17.209 2.6789999
-18.054514 17.249619 2.6488354
-17.459999 17.297001 2.638
-17.350819 17.292545 2.6627274
-17.245108 17.289814 2.6507566
-17.153242 17.281195 2.6441219
-16.9214 17.258001 2.6716001
-16.836884 17.236795 2.6708825
-16.748762 17.230816 2.6482663
-16.652334 17.230171 2.6425834
-16.552748 17.236185 2.628031
-16.453739 17.230654 2.6124778
-16.356857 17.216785 2.609
-16.264801 17.209202 2.609
-21.207924 17.318539 2.6445386
-21.190201 17.355885 2.6487498
-20.417 17.356859 2.6698573
-20.357349 17.345951 2.6675498
-20.249126 17.335796 2.6551247
-20.157852 17.360651 2.6477246
-20.093 17.393501 2.6094999
-19.164 17.355 2.6059999
-19.068001 17.317001 2.6300001
-18.112 17.397249 2.67875
-18.042068 17.348246 2.6436572
-17.945196 17.3846 2.6466718
-17.845486 17.374277 2.6469288
-17.747097 17.366991 2.6405184
-17.652151 17.355999 2.638958
-17.557388 17.343351 2.6419425
-17.453621 17.333233 2.6448779
-17.34964 17.328999 2.6389258
-17.253775 17.336405 2.6313
-17.151783 17.338177 2.6272175
-17.1 17.343 2.602
-16.9165 17.309 2.6209998
-16.856201 17.313602 2.6196001
-16.767572 17.306002 2.6177144
-16.663 17.302 2.6059999
-21.204901 17.468801 2.6576002
-21.186481 17.445538 2.6462502
-20.430334 17.412666 2.6713333
-20.357 17.431667 2.6156669
-20.125431 17.425573 2.6664999
-20.073215 17.4375 2.6233573
-19.1035 17.436001 2.6185
-19.098715 17.467001 2.6438572
-18.848 17.497999 2.6440001
-18.785336 17.495001 2.6593335
-18.536873 17.470875 2.6486876
-18.450718 17.462378 2.6476607
-18.380316 17.455002 2.6420002
-18.135288 17.469143 2.6077147
-18.048931 17.438395 2.612143
-17.953209 17.424561 2.6186252
-17.850615 17.423769 2.6130257
-17.751921 17.419622 2.6101351
-17.666449 17.416452 2.6110501
-17.578857 17.411716 2.6071429
-17.445 17.401751 2.6094999
-17.379999 17.403 2.6070001
-21.202499 17.5345 2.6725001
-21.185984 17.552811 2.6490684
-20.211498 17.5835 2.6690001
-19.051195 17.550819 2.6458204
-18.950422 17.540232 2.6437886
-18.852293 17.523666 2.6447294
-18.791416 17.520252 2.6386666
-18.542999 17.564999 2.6055
-18.496 17.561001 2.6010001
-21.176828 17.644876 2.6439698
-20.209499 17.654999 2.6700001
-19.714874 17.672874 2.6451249
-19.649593 17.655838 2.6480203
-19.548792 17.641832 2.6420944
-19.468958 17.62244 2.6593204
-19.031429 17.620857 2.6014287
-18.957668 17.610001 2.602
-18.882999 17.625 2.602
-21.213915 17.742912 2.6600869
-21.186792 17.762178 2.6495585
-20.139376 17.775875 2.62725
-20.045643 17.732929 2.6304288
-19.974249 17.720749 2.6199999
-19.724625 17.74025 2.6103749
-19.662001 17.729223 2.6051111
-19.5765 17.712 2.6055
-21.180826 17.845207 2.6436536
-20.956001 17.897499 2.6645
-20.851 17.887888 2.6711667
-20.74996 17.875761 2.6674399
-20.647297 17.856445 2.6651483
-20.573334 17.839334 2.6716669
-20.338501 17.85125 2.6312499
-20.249874 17.828876 2.631125
-20.158501 17.817333 2.6231666
-21.150618 17.947029 2.6555588
-21.04888 17.941078 2.6698804
-20.949471 17.940237 2.6632059
-20.849619 17.967236 2.6357353
-20.750965 17.957067 2.6299307
-20.65942 17.937683 2.6323686
-20.545502 17.93 2.6335001
-21.141037 18.039406 2.6341853
-21.051422 18.028885 2.6321926
-20.956112 18.014223 2.6223888
-20.879501 18.0065 2.612
30.238001 -10.366 2.7
5.4710002 -10.203 2.7119999
5.5465002 -10.217 2.7075
5.618 -10.235 2.704
5.7639999 -10.205 2.7190001
5.869 -10.23 2.7125001
5.9619999 -10.223667 2.7160001
6.0547504 -10.23225 2.7160001
6.1340003 -10.221001 2.7150002
6.2678752 -10.22025 2.7160001
6.3513212 -10.217178 2.7264645
6.449368 -10.216209 2.7249477
6.5436821 -10.218956 2.7280452
6.7610002 -10.254 2.7
6.8920002 -10.2285 2.7244999
6.9159999 -10.207 2.7349999
7.6370001 -10.213 2.71
7.7385001 -10.224501 2.7190001
7.8305001 -10.238501 2.7090001
8.2486668 -10.245001 2.7023335
8.3477497 -10.24125 2.7147498
8.4441433 -10.230429 2.7118576
8.5558577 -10.231285 2.7185717
8.6330004 -10.228999 2.7141249
8.7535715 -10.243286 2.717
8.8290005 -10.2264 2.7185998
8.9343338 -10.232334 2.712667
9.052 -10.221 2.71
9.137001 -10.229667 2.7136669
9.243 -10.254499 2.704
9.3231659 -10.2265 2.7123334
9.4470005 -10.245667 2.7080002
9.5664005 -10.2232 2.7090001
9.645874 -10.2215 2.7086251
9.7456665 -10.218 2.7161665
9.8510008 -10.217667 2.7156668
9.9615002 -10.22175 2.7187498
10.057667 -10.220667 2.7163334
10.164333 -10.218333 2.7189999
10.212 -10.226 2.7179999
10.644333 -10.209333 2.7080002
10.79 -10.22 2.7149999
10.8805 -10.2075 2.7165
10.946667 -10.205667 2.7226667
11.033333 -10.204 2.7163334
11.192 -10.204 2.72
11.321334 -10.204333 2.7180002
11.474667 -10.204666 2.7043333
11.515667 -10.202667 2.7173336
11.652 -10.2085 2.7205
11.7535 -10.2055 2.7245002
11.882 -10.21 2.704
12.065001 -10.2015 2.7045
13.119 -10.203 2.7
13.958 -10.206 2.707
15.869112 -10.217 2.71
15.941916 -10.213167 2.7071664
16.0439 -10.208 2.7055001
16.131001 -10.2052 2.7049999
16.461 -10.258 2.7
16.700001 -10.246 2.7
17.0895 -10.20575 2.721
17.148788 -10.208716 2.7090714
17.255848 -10.206963 2.7090387
17.348923 -10.208077 2.7044613
17.446924 -10.206385 2.7063849
17.551001 -10.206715 2.7095714
17.635666 -10.206333 2.704
17.775501 -10.2085 2.7030001
24.872999 -10.2075 2.7019999
24.931499 -10.203501 2.711
25.868748 -10.20425 2.7216251
25.933144 -10.207858 2.7188573
26.041 -10.217667 2.7070003
26.156668 -10.205334 2.7223334
26.2215 -10.203 2.7179999
26.301001 -10.22 2.7019999
26.798 -10.205 2.7309999
26.8624 -10.207601 2.7172
26.950859 -10.209858 2.7247148
27.055 -10.203 2.7309999
27.1525 -10.203 2.7320001
27.219 -10.206 2.733
27.373001 -10.21275 2.7375
27.447668 -10.209 2.7420001
28.157 -10.201 2.707
28.358501 -10.2285 2.716625
28.456083 -10.231167 2.731667
28.545216 -10.2355 2.7235713
28.642111 -10.231668 2.7362223
29.141335 -10.229667 2.7246666
29.250999 -10.24025 2.7195001
29.360998 -10.238 2.724875
29.446545 -10.248818 2.7255456
29.543707 -10.253236 2.7217646
29.646048 -10.247637 2.7243638
29.749611 -10.251889 2.721611
29.842871 -10.253602 2.729867
4.5250001 -10.108 2.701
4.6651435 -10.107287 2.7221429
4.7499995 -10.1175 2.7182148
4.8482003 -10.127401 2.7242
4.9576516 -10.129674 2.7258914
5.049509 -10.139507 2.7225091
5.1499653 -10.145863 2.7239134
5.2472029 -10.149945 2.7235944
5.3043337 -10.177667 2.7150002
5.474 -10.123499 2.7492499
5.5643339 -10.128334 2.771667
5.6582499 -10.137 2.7407501
5.7404542 -10.138 2.7537277
5.8579998 -10.137875 2.7541249
5.9458747 -10.1405 2.7575002
6.0454297 -10.137073 2.7710001
6.1584544 -10.147272 2.7587273
6.2499022 -10.139122 2.7489996
6.3515959 -10.147784 2.7470815
6.452868 -10.144896 2.7520263
6.5117502 -10.133062 2.7445626
6.6856666 -10.131666 2.7283335
6.79 -10.172 2.7565
6.8818002 -10.1564 2.7618001
6.9333334 -10.155167 2.7803333
7.0180001 -10.141 2.7780001
7.1374998 -10.162 2.7865
7.6069999 -10.115 2.701
7.7839999 -10.1412 2.7536001
7.8423338 -10.146833 2.7485003
7.9220004 -10.155666 2.7493334
8.2754993 -10.1645 2.7324998
8.36625 -10.161249 2.7337499
8.4652014 -10.1658 2.7420998
8.5573339 -10.159418 2.7519999
8.6546125 -10.166279 2.7544999
8.7604446 -10.157741 2.7478518
8.8140011 -10.141576 2.7472696
8.9615002 -10.142125 2.745625
9.0500011 -10.152858 2.7532859
9.1435728 -10.151714 2.7567146
9.2557497 -10.155251 2.7520003
9.3498755 -10.15775 2.7573752
9.4452858 -10.148001 2.7534285
9.5538902 -10.145665 2.755111
9.6532955 -10.145353 2.7595294
9.7502499 -10.13775 2.7615001
9.841857 -10.140716 2.7542856
9.9439096 -10.146545 2.7550907
10.074167 -10.130667 2.7484999
10.148556 -10.139556 2.7512224
10.236 -10.125667 2.7516665
10.413 -10.113 2.7980001
10.676 -10.165 2.75
10.746668 -10.159834 2.7500005
10.853084 -10.144334 2.7524166
10.948333 -10.129751 2.7612503
11.051154 -10.135077 2.7450769
11.129833 -10.171 2.7358332
11.255501 -10.14975 2.7353332
11.36391 -10.141818 2.7507274
11.460538 -10.139769 2.7509232
11.544001 -10.141231 2.747
11.645201 -10.115001 2.7548001
11.753847 -10.141846 2.7522311
11.851669 -10.151734 2.7430003
11.952133 -10.152135 2.7426
12.045818 -10.154092 2.7323637
12.144667 -10.159668 2.7351112
12.248466 -10.1554 2.7363334
12.356999 -10.1895 2.7340002
12.439262 -10.166684 2.7309999
12.550375 -10.160437 2.7395623
12.650802 -10.161201 2.7321999
12.748751 -10.156126 2.734
12.86 -10.154333 2.7361112
12.945999 -10.1663 2.7290998
13.047692 -10.166076 2.7305386
13.153625 -10.14175 2.7357502
13.266001 -10.147333 2.7336669
13.343376 -10.163625 2.7302501
13.452499 -10.13975 2.7365003
13.567777 -10.142445 2.7429447
13.646718 -10.14 2.7413194
13.749826 -10.149653 2.741348
13.837111 -10.161557 2.7307775
13.938749 -10.168249 2.7297502
14.057572 -10.151428 2.738143
14.141334 -10.170334 2.7363334
14.350668 -10.168001 2.7343335
14.450167 -10.1535 2.7481668
14.553859 -10.150715 2.7345719
14.659719 -10.138279 2.7591202
14.750695 -10.137609 2.7584784
14.840584 -10.142166 2.7455835
14.95775 -10.15675 2.7362502
15.046928 -10.151644 2.7424288
15.148214 -10.153143 2.7449288
15.255157 -10.147948 2.7490001
15.350999 -10.149334 2.7497146
15.452883 -10.159119 2.7363532
15.542167 -10.141944 2.7511113
15.658183 -10.139728 2.7603636
15.750444 -10.152444 2.7378888
15.8585 -10.147167 2.7664165
15.953015 -10.142802 2.7424588
16.050308 -10.143785 2.7459075
16.147043 -10.145379 2.7489884
16.241817 -10.144144 2.7455385
16.347 -10.153677 2.7487946
16.447752 -10.152161 2.7506363
16.550718 -10.149674 2.750978
16.648964 -10.146791 2.7513752
16.749437 -10.147675 2.7490866
16.840654 -10.146731 2.7446923
16.956438 -10.140499 2.74225
17.069286 -10.145714 2.7748573
17.155436 -10.143132 2.7346408
17.250299 -10.142668 2.7374251
17.350967 -10.140696 2.7349906
17.450535 -10.138394 2.7357318
17.550255 -10.139007 2.7329433
17.648588 -10.137888 2.7286682
17.749716 -10.139359 2.7225916
17.837423 -10.13487 2.7191229
17.908333 -10.104 2.7073333
18.139 -10.118 2.7364998
18.273859 -10.116714 2.7440002
18.339334 -10.124387 2.7276666
18.451389 -10.128721 2.7157776
18.545364 -10.137454 2.7179999
18.646267 -10.1316 2.714133
18.758001 -10.133181 2.7160912
18.851429 -10.141715 2.7198572
18.949955 -10.139871 2.7233479
19.051531 -10.142588 2.7212942
19.132 -10.153666 2.7133331
19.262333 -10.148333 2.7176666
19.480463 -10.151308 2.7277691
19.550346 -10.157829 2.7278624
19.651636 -10.151301 2.7295668
19.74869 -10.155588 2.7259657
19.850534 -10.154632 2.73
19.954334 -10.160698 2.7289701
20.049255 -10.162202 2.7297716
20.148188 -10.17075 2.7283127
20.246658 -10.165948 2.7300265
20.346294 -10.166382 2.7303827
20.432182 -10.158728 2.7388184
20.566666 -10.154667 2.7266669
20.690001 -10.185 2.7060001
20.75539 -10.157783 2.7279563
20.847458 -10.1512 2.7343433
20.946941 -10.14963 2.7347713
21.0495 -10.145834 2.7347779
21.145916 -10.145299 2.7381892
21.252796 -10.140949 2.7373078
21.34667 -10.143888 2.7392218
21.436159 -10.150081 2.734
21.559 -10.135 2.7479999
21.6565 -10.125999 2.753
21.881384 -10.127232 2.7393844
21.945711 -10.127365 2.7413654
22.045387 -10.121047 2.7401145
22.145304 -10.117651 2.7369764
22.24646 -10.110998 2.7336855
22.355997 -10.112631 2.7400265
22.449179 -10.112244 2.7404549
22.545378 -10.116344 2.7434139
22.652357 -10.111442 2.7365592
22.75256 -10.107559 2.7354882
22.814877 -10.106377 2.7311249
23.560333 -10.111667 2.7536666
23.6574 -10.115001 2.7306001
23.756399 -10.120399 2.7234001
23.836201 -10.1182 2.7216003
23.938501 -10.112875 2.7193751
24.006001 -10.115499 2.737
24.382 -10.128668 2.7123334
24.426001 -10.146 2.704
24.667717 -10.1234 2.7196
24.759962 -10.132265 2.7324464
24.845476 -10.133985 2.7338955
24.947372 -10.134594 2.7370369
25.051493 -10.134276 2.7416673
25.135288 -10.138096 2.7389264
25.211 -10.1665 2.7495
25.76441 -10.115314 2.7564058
25.852406 -10.147601 2.7488499
25.95484 -10.144728 2.7460454
26.055851 -10.151949 2.7454617
26.149645 -10.154148 2.7414412
26.250952 -10.156533 2.7406745
26.312 -10.162001 2.7260003
26.796 -10.19 2.7609999
26.855032 -10.164364 2.7569394
26.940708 -10.172334 2.7524583
27.055374 -10.1505 2.759625
27.153667 -10.167667 2.7586668
27.255293 -10.150706 2.7699413
27.346708 -10.169323 2.766129
27.450317 -10.166363 2.7641821
27.507 -10.198 2.7969999
28.156002 -10.172168 2.757
28.24275 -10.184501 2.7381248
28.3461 -10.1841 2.7390001
28.445118 -10.18447 2.7367651
28.546005 -10.182417 2.7466249
28.642 -10.170218 2.7501247
29.062597 -10.1792 2.7688
29.159168 -10.176833 2.7670002
29.267221 -10.173111 2.7632225
29.350449 -10.17405 2.7650497
29.445421 -10.171843 2.7634737
29.549446 -10.174444 2.7710001
29.654177 -10.171705 2.7720587
29.755253 -10.17255 2.7704
29.822001 -10.155545 2.7505455
3.7750001 -10.009 2.7075
3.862375 -10.009125 2.7177501
3.9535575 -10.010228 2.7221963
4.0548882 -10.015527 2.726486
4.150692 -10.017102 2.7351797
4.21 -10.014 2.773
4.3535004 -10.0415 2.7389998
4.4660716 -10.055 2.7335002
4.550838 -10.055582 2.7357419
4.647471 -10.043675 2.7537644
4.7538648 -10.039514 2.7574322
4.857676 -10.044746 2.7553804
4.9467888 -10.056521 2.7555892
5.0497193 -10.067082 2.7563655
5.1472235 -10.076853 2.7542765
5.2520308 -10.058007 2.7520795
5.4707499 -10.05025 2.7549999
6.4957395 -10.039305 2.7445655
6.5091858 -10.049376 2.7493331
6.6947999 -10.059199 2.7364001
7.6040001 -10.04 2.753
7.7928333 -10.054667 2.7566669
7.8093333 -10.045334 2.7246666
8.7909679 -10.051343 2.7446251
8.8074999 -10.04791 2.762682
8.9840012 -10.039701 2.7521999
9.9380007 -10.047307 2.742846
10.0892 -10.0758 2.743
10.103 -10.054 2.7279999
11.089546 -10.039819 2.7398183
11.243715 -10.053357 2.7568574
11.422501 -10.0975 2.7645001
11.557 -10.0875 2.7735
11.637333 -10.094667 2.7718334
11.742001 -10.0955 2.76875
11.8515 -10.0925 2.776
11.945251 -10.09125 2.7674999
12.050834 -10.094501 2.776
12.1435 -10.0825 2.7804999
12.265882 -10.056 2.7545295
12.393 -10.089 2.793
12.429769 -10.043308 2.7513077
12.546184 -10.091819 2.776
12.656778 -10.085445 2.7803338
12.74943 -10.088001 2.7731431
12.837125 -10.087001 2.773375
12.951572 -10.085286 2.7720001
13.058833 -10.0835 2.7698336
13.147 -10.085429 2.7735717
13.233333 -10.081333 2.7654998
13.344667 -10.080334 2.777
13.477857 -10.060429 2.7545714
13.598333 -10.061999 2.7400002
13.621146 -10.050386 2.7503548
13.751833 -10.080833 2.7667503
13.831698 -10.079101 2.7697999
13.945333 -10.0815 2.7796667
14.036334 -10.078334 2.778667
14.106 -10.066 2.7839999
14.385 -10.065 2.7920001
14.436 -10.071 2.7969999
14.572249 -10.05925 2.7597499
14.6035 -10.045 2.7480001
14.75857 -10.047126 2.752089
14.849132 -10.073087 2.7856088
14.9284 -10.0684 2.7853999
15.042 -10.075001 2.7828
15.149399 -10.0826 2.7850001
15.239801 -10.0684 2.7899997
15.38 -10.091 2.7869999
15.4294 -10.0734 2.7933998
15.513334 -10.07 2.7926669
15.686 -10.1 2.7950001
15.771833 -10.049334 2.7551668
15.806334 -10.04089 2.7431114
15.971468 -10.043867 2.7433805
16.068333 -10.069501 2.7961669
16.147667 -10.068223 2.796222
16.253334 -10.0705 2.7965
16.350599 -10.0692 2.7970002
16.978359 -10.051001 2.7434282
17.141195 -10.047696 2.7464626
17.201 -10.049 2.7980001
17.37875 -10.084499 2.7709999
17.4524 -10.085999 2.7835999
17.553299 -10.082701 2.7674005
17.655289 -10.085685 2.7685528
17.749794 -10.091932 2.7549212
17.844076 -10.092969 2.7439532
17.908834 -10.092834 2.7145
18.036499 -10.092501 2.7265
18.144667 -10.066333 2.741889
18.281301 -10.066851 2.7500999
18.353554 -10.08424 2.7565515
18.448101 -10.08546 2.7563591
18.552488 -10.08679 2.7492094
18.651049 -10.085864 2.7527504
18.744352 -10.081248 2.7563753
18.849047 -10.083622 2.7524221
18.953207 -10.086524 2.7563183
19.046638 -10.085111 2.7584164
19.1385 -10.08975 2.75825
19.259375 -10.054375 2.75525
19.319 -10.006 2.7160001
19.476055 -10.060556 2.7500558
19.545485 -10.087419 2.7614191
19.647381 -10.086794 2.7630002
19.748432 -10.081765 2.7656002
19.847172 -10.081932 2.7597928
19.946346 -10.083157 2.7668753
20.049826 -10.081899 2.7692411
20.149343 -10.079563 2.7656248
20.252462 -10.077039 2.7684231
20.348196 -10.076322 2.7674515
20.443521 -10.071001 2.77
20.539 -10.044 2.7659998
20.7925 -10.0745 2.7620001
20.853905 -10.063286 2.7748094
20.94982 -10.062364 2.7764547
21.047949 -10.064051 2.77665
21.143812 -10.057763 2.7782857
21.244207 -10.056789 2.7779472
21.349194 -10.059094 2.7804284
21.442999 -10.064001 2.783
21.546 -10.03 2.793
21.689999 -10.04 2.7294998
21.86941 -10.048059 2.7618234
21.949415 -10.054335 2.7802083
22.051123 -10.051599 2.7729199
22.154932 -10.056967 2.7782333
22.258921 -10.060136 2.7759728
22.343002 -10.054345 2.7711153
22.457657 -10.044538 2.7751541
22.551847 -10.048731 2.7801542
22.647469 -10.051033 2.7769668
22.763926 -10.064856 2.7388017
22.820379 -10.078486 2.760118
23.566 -10.065 2.7577274
23.645737 -10.034612 2.7893543
23.745001 -10.077715 2.7758572
23.851833 -10.085667 2.7713335
23.94911 -10.073778 2.7622223
24.674999 -10.095401 2.7328
24.751444 -10.096278 2.7573335
24.844704 -10.095963 2.7628887
24.941309 -10.097078 2.7714615
25.033003 -10.096 2.764467
25.122623 -10.048719 2.7466707
25.759001 -10.0944 2.7673001
25.855103 -10.089801 2.7739
25.944332 -10.092834 2.7744999
26.049 -10.093799 2.7709002
26.151461 -10.090077 2.7746155
26.273516 -10.049936 2.757355
26.306334 -10.031666 2.7376668
26.773001 -10.086 2.777
26.832001 -10.0966 2.7897999
26.996 -10.088 2.7780001
27.127001 -10.094 2.779
27.467882 -10.046176 2.7579999
28.65052 -10.051001 2.7480373
29.778502 -10.033 2.7281997
29.812334 -10.069111 2.7725556
3.2920001 -9.9040003 2.753
3.599 -9.9630003 2.7030001
3.6692259 -9.9596405 2.7345119
3.7537436 -9.9586792 2.7502034
3.848737 -9.9601965 2.7519429
3.9478683 -9.9522028 2.7614737
4.0436902 -9.9542723 2.7635183
4.1513672 -9.9426727 2.7490003
4.3443332 -9.9790001 2.7650001
4.4591999 -9.9856005 2.7709
4.5489092 -9.9887285 2.7771823
4.6110001 -9.9965 2.777
5.2631764 -9.9553299 2.7518702
5.4735003 -9.9569998 2.7579999
6.4972 -9.9481993 2.7594001
6.5158429 -9.9450006 2.7509432
6.6572862 -9.9142857 2.7185717
6.7287498 -9.9742508 2.7342501
7.573 -9.9020004 2.7130001
7.6532497 -9.9235001 2.7194998
7.7695003 -9.9239998 2.7344999
7.807858 -9.9535723 2.7551429
8.7785568 -9.9456739 2.7409766
8.8051662 -9.9520006 2.7680001
8.9803534 -9.9374113 2.740941
9.0019999 -9.9329996 2.7590001
9.9287853 -9.9421902 2.7428646
11.092819 -9.9432726 2.73
11.106874 -9.9502497 2.7353752
11.252385 -9.9470005 2.7481537
12.273455 -9.9424553 2.7434547
12.435693 -9.9507933 2.7490149
13.4756 -9.9513998 2.7356002
13.570399 -9.9230003 2.7146003
13.616106 -9.9526443 2.7552328
14.5965 -9.9840002 2.7420001
14.603 -9.9890003 2.743
14.765651 -9.9500008 2.7495415
15.792875 -9.9307499 2.7397499
15.803933 -9.949399 2.7618668
15.97138 -9.9505348 2.7501087
16.980167 -9.945611 2.7419999
17.03425 -9.9290009 2.7042499
17.141201 -9.9653635 2.7508709
17.202999 -9.9040003 2.7320001
18.123144 -9.9444294 2.751286
18.280649 -9.9410601 2.7464118
19.278858 -9.962429 2.7620001
19.316198 -9.9411993 2.7455997
19.468538 -9.9606161 2.7615387
20.527201 -9.9294004 2.7616003
21.682501 -9.9452505 2.7455001
21.848288 -9.9271431 2.7451429
22.368 -10 2.7939999
22.785383 -9.9687614 2.7153327
22.813145 -9.9350014 2.7548571
23.982 -9.9280005 2.7349999
25.098 -9.9449997 2.7939999
25.124542 -9.950038 2.750634
26.26473 -9.94837 2.7455711
26.305668 -9.9799995 2.7823334
27.45961 -9.9429693 2.7478631
28.65777 -9.9457979 2.7424011
28.717499 -9.9225006 2.717
29.772575 -9.9430962 2.7442384
30.106001 -9.9069996 2.7309999
2.4816666 -9.8059998 2.7176666
2.5605457 -9.8082733 2.7280004
2.6478672 -9.8172674 2.7373669
2.7466335 -9.8297997 2.7406664
2.8529706 -9.8466759 2.7414122
2.9622803 -9.8503151 2.7409251
3.0385854 -9.8500233 2.7568381
3.1170001 -9.8785 2.7509999
3.2584 -9.8490009 2.7633998
3.312 -9.8129997 2.77
3.461 -9.8649998 2.7869999
3.526 -9.8649998 2.789
3.6813333 -9.8820477 2.7664759
3.7479029 -9.8837757 2.7740273
3.8466229 -9.8907013 2.7770536
3.9303002 -9.8969002 2.7794001
4.1647763 -9.8676319 2.7514999
4.3614001 -9.8453007 2.7347004
5.2608919 -9.8475294 2.7464013
5.4695559 -9.8646669 2.7597778
5.5290003 -9.8223343 2.7281666
6.4980001 -9.8780003 2.7249999
6.5435576 -9.8638468 2.7575359
6.6390452 -9.8620653 2.7606893
6.7370005 -9.8656673 2.7626667
6.8555722 -9.8319998 2.7450001
6.9920001 -9.8789997 2.7409999
7.02 -9.8256674 2.7259998
7.4330001 -9.8319998 2.727
7.5915003 -9.8317499 2.7397499
7.6442003 -9.8580008 2.7504001
7.7474999 -9.8865004 2.7635002
7.8189998 -9.8620005 2.796
8.7818794 -9.860754 2.7476532
8.8054676 -9.8387337 2.7422667
8.9729519 -9.8580952 2.7560949
9.0218 -9.8164005 2.7296002
9.8959999 -9.8240004 2.76
9.9443274 -9.8458853 2.7503271
10.053527 -9.8269482 2.7390001
10.146084 -9.8422499 2.7270002
10.23 -9.8039999 2.777
10.394 -9.823 2.7160001
10.426 -9.8009996 2.7349999
10.9685 -9.8169994 2.7360001
11.078201 -9.8568668 2.7468669
11.136425 -9.8448086 2.7471542
11.239348 -9.85361 2.7562604
12.272828 -9.8541727 2.7495167
12.434031 -9.8542843 2.7501745
13.479727 -9.8726368 2.7565455
13.546316 -9.8545256 2.7634213
13.633716 -9.8583574 2.7500715
13.778 -9.8179998 2.7739999
13.862499 -9.8317499 2.7410002
13.924001 -9.8052006 2.7268
14.392 -9.8150005 2.7309999
14.414 -9.8219995 2.7049999
14.57243 -9.8335714 2.7774286
14.653508 -9.8376446 2.7453542
14.752604 -9.858942 2.7576251
15.790429 -9.8672857 2.7465715
15.819117 -9.8466921 2.7570391
15.971663 -9.8701248 2.763804
16.037292 -9.8124704 2.7251174
16.988092 -9.8774538 2.7587273
17.044632 -9.8620272 2.7622106
17.129803 -9.8402004 2.7509334
17.248501 -9.838501 2.7545002
17.356932 -9.8148279 2.7146556
17.408001 -9.8039999 2.7690001
17.9655 -9.8105001 2.7154999
18.087 -9.8299999 2.7939999
18.164501 -9.8289995 2.73175
18.255266 -9.8309107 2.7402937
19.2885 -9.8358746 2.736125
19.313 -9.875001 2.7590003
19.495501 -9.8210001 2.7145
20.555115 -9.8331156 2.7485771
20.629572 -9.8155718 2.7715716
21.521999 -9.8050003 2.701
21.646999 -9.8610001 2.7590001
21.756788 -9.8193588 2.724715
21.824322 -9.8508587 2.7467506
22.779444 -9.8336668 2.7307775
22.812145 -9.849143 2.7702858
23.987251 -9.8567505 2.7557499
25.069201 -9.8109999 2.7318001
25.124563 -9.8596268 2.7519274
26.261438 -9.8490782 2.7478075
26.306999 -9.8120003 2.747
27.465485 -9.858777 2.7536724
27.532763 -9.8417625 2.7725716
28.650888 -9.8702221 2.7568886
28.707001 -9.8990002 2.723
28.841 -9.8619995 2.727
29.762535 -9.8480539 2.7481854
2.07375 -9.7167492 2.7415001
2.1635001 -9.7362499 2.7335002
2.2631431 -9.7448578 2.7384288
2.3511908 -9.7531433 2.7402854
2.4596899 -9.7618961 2.753655
2.5458612 -9.7607784 2.759722
2.6454 -9.7455597 2.7797999
2.7421176 -9.7490597 2.7836471
2.8524287 -9.7610006 2.7862859
2.9730313 -9.7779379 2.776437
3.0290987 -9.7481565 2.7486861
3.1949999 -9.7440004 2.7130001
3.2309999 -9.7709999 2.7526665
3.339 -9.7860003 2.7969999
3.9619999 -9.71 2.7119999
4.0310001 -9.7080002 2.7390001
4.1868 -9.7840004 2.7580001
4.2431045 -9.7394171 2.7445416
4.3223481 -9.7463894 2.7526526
5.2680006 -9.7510242 2.7502496
5.3010001 -9.7720003 2.7119999
5.543263 -9.7436304 2.7457895
6.8680668 -9.7508011 2.7367337
6.9160004 -9.7211666 2.7736669
7.0625 -9.756999 2.7393751
7.1030002 -9.71 2.7290001
7.3466673 -9.7366667 2.7590003
7.4919996 -9.7089996 2.7874999
7.5491295 -9.7508268 2.7489133
8.7886686 -9.7510538 2.7503076
8.8082333 -9.7538004 2.7475333
9.0452061 -9.7453527 2.7428236
9.9665833 -9.7844172 2.7844169
10.036444 -9.7852221 2.7782223
10.170728 -9.7636824 2.7282727
10.22177 -9.7306156 2.7609231
10.394 -9.7629995 2.7130001
10.450401 -9.7395353 2.7342668
10.524 -9.7030001 2.786
10.787333 -9.7126675 2.7663333
10.839788 -9.739789 2.7341053
10.932001 -9.783 2.7423334
11.057471 -9.7366667 2.7437496
11.125 -9.781168 2.7361667
11.2275 -9.7950001 2.793
12.257941 -9.7545156 2.7451212
12.306 -9.7629995 2.7839999
12.4712 -9.7492228 2.7498004
12.501333 -9.7266674 2.7290001
13.688749 -9.7740002 2.70625
13.752537 -9.7370014 2.7507141
13.966699 -9.759819 2.7331214
14.017609 -9.7237492 2.7624643
14.344874 -9.7314367 2.7324376
14.562174 -9.7392521 2.7516823
14.613287 -9.7790012 2.7232854
14.742 -9.7980003 2.796
15.7882 -9.7553339 2.7325337
15.808001 -9.7457151 2.7557147
16.045527 -9.7473555 2.7451587
17.158848 -9.7493458 2.724077
17.221748 -9.7338753 2.7751248
17.384888 -9.7679138 2.7209997
17.431814 -9.7343435 2.7518916
17.87686 -9.7211437 2.7495716
17.938667 -9.763834 2.7278335
18.086 -9.7204008 2.7770002
18.150192 -9.7630281 2.7528651
18.244106 -9.7776833 2.7811055
19.282442 -9.7543335 2.7416666
19.302 -9.7539997 2.7449999
19.493999 -9.7810001 2.7750001
19.506836 -9.7416668 2.7328334
20.575308 -9.7876158 2.7797694
20.646456 -9.7504549 2.7602727
21.451332 -9.7373333 2.7143333
21.591999 -9.7080002 2.7969999
21.66663 -9.7532959 2.751111
21.75185 -9.7739 2.7706001
21.8125 -9.7930002 2.7895
22.783604 -9.7468004 2.7464669
22.813 -9.7765007 2.786
23.983572 -9.7591438 2.7570002
24.057335 -9.7525835 2.7436666
24.125715 -9.7177143 2.7631428
24.891499 -9.7035007 2.793
24.95459 -9.7281971 2.7401628
25.021412 -9.7759418 2.7306471
26.267876 -9.7496662 2.7499702
26.302 -9.7150002 2.7780001
27.484789 -9.7681036 2.7240527
27.532673 -9.7411537 2.7629349
28.483 -9.7019997 2.789
28.556572 -9.7304287 2.7463574
28.623144 -9.7640018 2.713429
28.742001 -9.7209997 2.7214999
28.821501 -9.7635002 2.7360001
29.761065 -9.7522192 2.7489223
30.087 -9.7592506 2.7339997
1.381 -9.6075001 2.71
1.4596924 -9.6079988 2.7243848
1.5491943 -9.6194181 2.7359447
1.6530255 -9.6355391 2.741641
1.7537841 -9.6575403 2.7416487
1.8290347 -9.6674814 2.746069
2.0809 -9.6354008 2.7463
2.1675 -9.6485004 2.7800002
2.2513335 -9.6795006 2.7745004
2.3380001 -9.6809998 2.7824001
2.4465556 -9.6866665 2.7857776
2.5432003 -9.6968002 2.7966001
3.0377362 -9.6490526 2.7494397
3.2480001 -9.6189995 2.7316666
3.4349999 -9.6029997 2.7149999
3.8717351 -9.623147 2.7469707
3.922087 -9.6652613 2.7299132
4.0528002 -9.6154013 2.7368
