ply
format ascii 1.0
comment PCL generated
element vertex 1954
property float x
property float y
property float z
element camera 0
property float view_px
property float view_py
property float view_pz
property float x_axisx
property float x_axisy
property float x_axisz
property float y_axisx
property float y_axisy
property float y_axisz
property float z_axisx
property float z_axisy
property float z_axisz
property float focal
property float scalex
property float scaley
property float centerx
property float centery
property int viewportx
property int viewporty
property float k1
property float k2
end_header
-2.7850001 10.804 1.874
-2.7750001 10.809 1.858
-2.7620001 10.817 1.841
-2.766 10.814 1.832
-2.7550001 10.819 1.816
-2.77 10.81 1.811
-2.7579999 10.817 1.794
-2.7620001 10.814 1.785
-2.786 10.799 1.784
-2.779 10.803 1.7690001
-2.7820001 10.8 1.7589999
-2.7679999 10.808 1.742
-2.7839999 10.798 1.737
-2.7639999 10.809 1.7180001
-2.7349999 10.826 1.6950001
-2.75 10.816 1.6900001
-2.74 10.821 1.675
-2.747 10.817 1.666
-2.7639999 10.806 1.6619999
-2.744 10.817 1.643
-2.7590001 10.808 1.638
-2.756 10.809 1.625
-2.7309999 10.824 1.605
-2.7509999 10.811 1.601
-2.7390001 10.818 1.586
-2.76 10.805 1.582
-2.7750001 10.795 1.577
-2.757 10.805 1.559
-2.744 10.813 1.543
-2.743 10.813 1.5319999
-2.7520001 10.807 1.524
-2.766 10.798 1.518
-2.776 10.791 1.511
-2.7639999 10.798 1.495
-2.7590001 10.8 1.483
-2.767 10.795 1.475
-2.767 10.795 1.4630001
-2.773 10.79 1.455
-2.7590001 10.798 1.439
-2.6400001 10.869 1.387
-2.6240001 10.878 1.3710001
-2.5910001 10.898 1.349
-2.609 10.887 1.344
-2.615 10.882 1.336
-2.6129999 10.883 1.325
-2.615 10.881 1.3150001
-2.618 10.879 1.3049999
-2.6240001 10.875 1.2970001
-2.6099999 10.883 1.2819999
-2.6170001 10.878 1.273
-2.6099999 10.882 1.26
-2.6370001 10.865 1.258
-2.6229999 10.873 1.243
-2.641 10.861 1.239
-2.6429999 10.86 1.229
-2.6659999 10.845 1.225
-2.6860001 10.833 1.221
-2.721 10.811 1.221
-2.753 10.791 1.22
-2.7679999 10.782 1.214
-2.766 10.782 1.202
-2.776 10.776 1.1950001
-2.77 10.779 1.182
-2.756 10.787 1.1670001
-2.7650001 10.781 1.159
-2.767 10.779 1.149
-2.766 10.779 1.138
-2.7720001 10.775 1.1289999
-2.7460001 10.79 1.1109999
-2.76 10.781 1.104
-2.7620001 10.78 1.094
-2.7679999 10.775 1.085
-2.7620001 10.778 1.073
-2.763 10.777 1.062
-2.7690001 10.773 1.053
-2.767 10.774 1.0420001
-2.7679999 10.773 1.0319999
-2.7520001 10.781 1.017
-2.766 10.773 1.01
-2.7639999 10.773 0.99900001
-2.763 10.774 0.98799998
-2.7579999 10.776 0.97600001
-2.753 10.778 0.96499997
-2.7720001 10.766 0.95899999
-2.7739999 10.764 0.949
-2.77 10.766 0.93699998
-2.7509999 10.778 0.92199999
-2.7679999 10.767 0.91500002
-2.7709999 10.765 0.90499997
-2.747 10.778 0.889
-2.7690001 10.764 0.884
-2.7679999 10.765 0.87300003
-2.7650001 10.766 0.86199999
-2.7620001 10.767 0.85100001
-2.763 10.766 0.83999997
-2.757 10.769 0.829
-2.75 10.773 0.81699997
-2.7590001 10.767 0.80800003
-2.7609999 10.765 0.79799998
-2.7539999 10.769 0.78600001
-2.747 10.773 0.77399999
-2.747 10.772 0.764
-2.7620001 10.762 0.75700003
-2.7590001 10.764 0.745
-2.756 10.765 0.73400003
-2.766 10.758 0.72600001
-2.7550001 10.765 0.713
-2.7679999 10.756 0.70499998
-2.757 10.762 0.69300002
-2.7539999 10.764 0.68199998
-2.7720001 10.753 0.67500001
-2.756 10.762 0.66100001
-2.753 10.763 0.65100002
-2.75 10.764 0.63999999
-2.7650001 10.755 0.63200003
-2.77 10.751 0.62199998
-2.75 10.763 0.60799998
-2.7550001 10.759 0.59899998
-2.756 10.758 0.58899999
-2.763 10.754 0.57999998
-2.7550001 10.758 0.56800002
-2.743 10.765 0.55599999
-2.757 10.756 0.54799998
-2.7490001 10.76 0.53600001
-2.75 10.759 0.52600002
-2.7550001 10.755 0.51599997
-2.7509999 10.757 0.505
-2.7609999 10.751 0.49599999
-2.7360001 10.765 0.48199999
-2.7409999 10.761 0.47299999
-2.7390001 10.762 0.46200001
-2.757 10.751 0.45500001
-2.7409999 10.76 0.442
-2.7639999 10.745 0.435
-2.766 10.744 0.42500001
-2.7550001 10.75 0.41299999
-2.743 10.757 0.40099999
-2.7639999 10.743 0.39399999
-2.766 10.742 0.384
-2.7579999 10.746 0.37200001
-2.7590001 10.745 0.36199999
-2.7639999 10.741 0.35299999
-2.7620001 10.742 0.34200001
-2.7539999 10.746 0.331
-2.7539999 10.746 0.32100001
-2.7509999 10.747 0.31
-2.7479999 10.749 0.29899999
-2.7479999 10.748 0.289
-2.753 10.745 0.27900001
-2.7620001 10.739 0.27000001
-2.7539999 10.743 0.259
-2.7539999 10.742 0.249
-2.7460001 10.747 0.23800001
-2.7590001 10.738 0.229
-2.7579999 10.739 0.21799999
-2.7520001 10.742 0.208
-2.7590001 10.737 0.198
-2.7479999 10.743 0.18700001
-2.7620001 10.734 0.178
-2.7539999 10.739 0.167
-2.743 10.745 0.156
-2.7509999 10.739 0.146
-2.744 10.743 0.13500001
-2.723 10.755 0.123
-2.7320001 10.75 0.114
-2.733 10.748 0.104
-2.734 10.748 0.093999997
-2.75 10.737 0.085000001
-2.7379999 10.744 0.074000001
-2.734 10.746 0.063000001
-2.7460001 10.738 0.054000001
-2.7379999 10.742 0.043000001
-2.73 10.747 0.033
-2.74 10.74 0.023
-2.744 10.737 0.013
-2.5780001 10.977 2.9949999
-2.586 10.972 2.9879999
-2.575 10.977 2.967
-2.579 10.974 2.957
-2.5810001 10.972 2.9460001
-2.586 10.969 2.9360001
-2.5969999 10.962 2.931
-2.6229999 10.946 2.9349999
-2.6459999 10.932 2.938
-2.654 10.926 2.931
-2.6259999 10.942 2.8989999
-2.6300001 10.939 2.8889999
-2.645 10.93 2.8859999
-2.638 10.933 2.869
-2.651 10.925 2.865
-2.648 10.926 2.8499999
-2.652 10.923 2.839
-2.6440001 10.927 2.822
-2.6329999 10.933 2.802
-2.6600001 10.916 2.8069999
-2.6600001 10.916 2.7939999
-2.6489999 10.921 2.7750001
-2.6470001 10.922 2.7609999
-2.6619999 10.913 2.757
-2.6559999 10.915 2.7409999
-2.652 10.917 2.7260001
-2.6500001 10.918 2.7130001
-2.661 10.911 2.707
-2.664 10.908 2.6960001
-2.6470001 10.918 2.6730001
-2.6719999 10.902 2.6760001
-2.6470001 10.916 2.6489999
-2.6619999 10.907 2.6459999
-2.661 10.907 2.6329999
-2.668 10.902 2.625
-2.677 10.896 2.6170001
-2.6919999 10.887 2.6140001
-2.6919999 10.886 2.602
-2.681 10.892 2.5829999
-2.6930001 10.884 2.5769999
-2.7079999 10.875 2.5739999
-2.7149999 10.87 2.5650001
-2.7119999 10.871 2.5510001
-2.724 10.863 2.546
-2.737 10.855 2.5409999
-2.74 10.853 2.53
-2.744 10.85 2.52
-2.7550001 10.842 2.5150001
-2.7590001 10.839 2.5050001
-2.7590001 10.839 2.4920001
-2.767 10.834 2.484
-2.79 10.819 2.4849999
-2.783 10.823 2.4679999
-2.7980001 10.813 2.4649999
-2.8039999 10.809 2.4560001
-2.8050001 10.808 2.444
-2.756 10.837 2.405
-2.7839999 10.819 2.408
-2.7509999 10.838 2.378
-2.7550001 10.835 2.368
-2.7390001 10.844 2.348
-2.757 10.833 2.345
-2.7590001 10.831 2.3340001
-2.7490001 10.836 2.3169999
-2.75 10.835 2.306
-2.7590001 10.829 2.2980001
-2.7509999 10.834 2.2820001
-2.756 10.83 2.273
-2.7679999 10.822 2.267
-2.7409999 10.838 2.2409999
-2.7520001 10.83 2.2349999
-2.763 10.823 2.2279999
-2.744 10.834 2.207
-2.7420001 10.835 2.194
-2.747 10.831 2.1849999
-2.747 10.831 2.1730001
-2.7539999 10.826 2.165
-2.7550001 10.825 2.154
-2.7479999 10.829 2.138
-2.7509999 10.826 2.128
-2.7550001 10.823 2.118
-2.7479999 10.826 2.1029999
-2.753 10.823 2.0940001
-2.7520001 10.823 2.082
-2.7509999 10.823 2.0699999
-2.747 10.825 2.056
-2.7609999 10.816 2.0510001
-2.7449999 10.824 2.0320001
-2.7420001 10.826 2.0190001
-2.7379999 10.827 2.006
-2.7490001 10.82 1.999
-2.7479999 10.821 1.987
-2.7360001 10.827 1.97
-2.75 10.818 1.965
-2.737 10.825 1.948
-2.7449999 10.82 1.9400001
-2.743 10.82 1.928
-2.7390001 10.822 1.914
-2.7490001 10.816 1.9069999
-2.7449999 10.818 1.8940001
-2.7639999 10.806 1.891
-2.7509999 10.813 1.874
-2.7449999 10.816 1.86
-2.7520001 10.811 1.852
-2.7509999 10.811 1.84
-2.7579999 10.806 1.831
-2.753 10.809 1.818
-2.7609999 10.804 1.8099999
-2.763 10.802 1.799
-2.7620001 10.802 1.7869999
-2.757 10.804 1.774
-2.7720001 10.795 1.7690001
-2.7590001 10.802 1.752
-2.75 10.807 1.737
-2.757 10.802 1.729
-2.756 10.802 1.717
-2.7590001 10.8 1.707
-2.7579999 10.8 1.696
-2.7590001 10.798 1.6849999
-2.763 10.796 1.675
-2.766 10.793 1.665
-2.7690001 10.791 1.655
-2.7620001 10.795 1.641
-2.7550001 10.798 1.627
-2.7550001 10.798 1.6160001
-2.7620001 10.793 1.608
-2.7550001 10.797 1.594
-2.7449999 10.802 1.579
-2.753 10.797 1.571
-2.7590001 10.793 1.562
-2.7479999 10.798 1.5470001
-2.757 10.793 1.539
-2.743 10.801 1.523
-2.7490001 10.796 1.515
-2.7490001 10.796 1.503
-2.75 10.795 1.493
-2.7490001 10.795 1.4809999
-2.747 10.796 1.47
-2.75 10.793 1.46
-2.756 10.789 1.451
-2.7460001 10.795 1.437
-2.631 10.864 1.386
-2.6170001 10.872 1.37
-2.6110001 10.874 1.358
-2.612 10.873 1.348
-2.622 10.866 1.34
-2.615 10.871 1.327
-2.615 10.87 1.317
-2.612 10.871 1.3049999
-2.6270001 10.862 1.3
-2.6170001 10.867 1.286
-2.6159999 10.867 1.275
-2.6129999 10.868 1.2640001
-2.6270001 10.859 1.257
-2.6300001 10.857 1.248
-2.6440001 10.848 1.242
-2.651 10.843 1.233
-2.661 10.837 1.226
-2.6800001 10.824 1.221
-2.7149999 10.803 1.221
-2.7420001 10.786 1.219
-2.747 10.783 1.209
-2.7449999 10.783 1.198
-2.743 10.784 1.187
-2.737 10.787 1.174
-2.7509999 10.778 1.168
-2.721 10.796 1.148
-2.744 10.781 1.1440001
-2.7449999 10.78 1.1339999
-2.7309999 10.788 1.119
-2.737 10.784 1.11
-2.7420001 10.78 1.101
-2.747 10.776 1.092
-2.7490001 10.775 1.082
-2.7550001 10.771 1.073
-2.7609999 10.767 1.064
-2.7490001 10.773 1.05
-2.7550001 10.769 1.041
-2.7449999 10.774 1.028
-2.747 10.773 1.018
-2.7320001 10.781 1.003
-2.7309999 10.782 0.99199998
-2.7479999 10.771 0.986
-2.7460001 10.772 0.97500002
-2.747 10.77 0.96499997
-2.7490001 10.769 0.95499998
-2.7420001 10.772 0.94199997
-2.7349999 10.776 0.93000001
-2.75 10.767 0.92299998
-2.743 10.77 0.91100001
-2.7409999 10.771 0.89999998
-2.734 10.775 0.88800001
-2.7390001 10.771 0.87900001
-2.7409999 10.769 0.86900002
-2.7290001 10.776 0.85500002
-2.756 10.759 0.85100001
-2.7449999 10.765 0.838
-2.7509999 10.761 0.829
-2.7390001 10.767 0.81599998
-2.753 10.759 0.80800003
-2.743 10.764 0.796
-2.74 10.765 0.78500003
-2.75 10.759 0.77600002
-2.734 10.768 0.76300001
-2.7390001 10.764 0.75300002
-2.7449999 10.761 0.74400002
-2.7460001 10.759 0.73400003
-2.7390001 10.763 0.722
-2.7360001 10.764 0.71100003
-2.7539999 10.753 0.704
-2.734 10.764 0.69
-2.7309999 10.766 0.67900002
-2.737 10.762 0.67000002
-2.743 10.758 0.66000003
-2.7309999 10.765 0.648
-2.7409999 10.758 0.639
-2.7460001 10.754 0.63
-2.76 10.745 0.62199998
-2.7460001 10.753 0.60900003
-2.753 10.748 0.60000002
-2.734 10.759 0.58600003
-2.7320001 10.76 0.57599998
-2.7409999 10.755 0.56699997
-2.7420001 10.753 0.55699998
-2.7309999 10.759 0.54500002
-2.7360001 10.756 0.53500003
-2.7479999 10.748 0.52700001
-2.737 10.754 0.51499999
-2.737 10.753 0.50400001
-2.7390001 10.752 0.49399999
-2.72 10.763 0.48100001
-2.7360001 10.753 0.47299999
-2.7279999 10.757 0.46200001
-2.734 10.753 0.45300001
-2.743 10.747 0.44400001
-2.7190001 10.761 0.43000001
-2.7390001 10.749 0.42199999
-2.727 10.755 0.41
-2.734 10.75 0.40099999
-2.734 10.75 0.391
-2.7390001 10.746 0.38100001
-2.7390001 10.746 0.37099999
-2.7490001 10.74 0.36199999
-2.7479999 10.739 0.352
-2.734 10.748 0.34
-2.747 10.739 0.331
-2.74 10.743 0.31999999
-2.724 10.752 0.308
-2.7449999 10.739 0.30000001
-2.7550001 10.732 0.29100001
-2.7449999 10.738 0.28
-2.7309999 10.746 0.26800001
-2.7360001 10.742 0.25799999
-2.74 10.739 0.248
-2.733 10.743 0.237
-2.737 10.74 0.228
-2.7130001 10.754 0.215
-2.727 10.745 0.206
-2.7309999 10.742 0.19599999
-2.723 10.746 0.185
-2.74 10.735 0.177
-2.7320001 10.74 0.16599999
-2.733 10.739 0.156
-2.72 10.746 0.14399999
-2.7290001 10.74 0.13500001
-2.7249999 10.742 0.125
-2.73 10.739 0.115
-2.7260001 10.741 0.104
-2.7190001 10.745 0.093999997
-2.723 10.741 0.083999999
-2.711 10.748 0.072999999
-2.72 10.743 0.063000001
-2.721 10.741 0.052999999
-2.717 10.743 0.043000001
-2.7119999 10.746 0.032000002
-2.73 10.734 0.023
-2.7160001 10.742 0.012
-2.585 10.961 2.9909999
-2.5810001 10.962 2.9749999
-2.582 10.961 2.9630001
-2.5799999 10.962 2.9489999
-2.5799999 10.961 2.9360001
-2.592 10.953 2.9319999
-2.6110001 10.942 2.931
-2.632 10.928 2.9330001
-2.6570001 10.913 2.9360001
-2.6429999 10.921 2.914
-2.6389999 10.922 2.8989999
-2.6440001 10.919 2.8889999
-2.6329999 10.925 2.869
-2.652 10.913 2.869
-2.6389999 10.92 2.848
-2.6440001 10.917 2.8380001
-2.652 10.911 2.8310001
-2.6470001 10.913 2.8150001
-2.645 10.914 2.8010001
-2.6370001 10.918 2.783
-2.645 10.913 2.776
-2.6530001 10.907 2.7679999
-2.654 10.906 2.757
-2.6530001 10.906 2.743
-2.652 10.906 2.73
-2.6500001 10.907 2.7160001
-2.6659999 10.896 2.714
-2.654 10.903 2.694
-2.665 10.895 2.688
-2.6589999 10.899 2.6719999
-2.671 10.891 2.6670001
-2.658 10.898 2.6470001
-2.655 10.899 2.6329999
-2.6700001 10.89 2.6289999
-2.664 10.892 2.6129999
-2.6659999 10.891 2.602
-2.6689999 10.889 2.5910001
-2.6830001 10.879 2.5880001
-2.697 10.871 2.5829999
-2.698 10.869 2.5710001
-2.7030001 10.866 2.562
-2.698 10.868 2.5469999
-2.7130001 10.859 2.543
-2.7160001 10.856 2.533
-2.721 10.852 2.523
-2.727 10.848 2.5139999
-2.7449999 10.837 2.5120001
-2.747 10.835 2.5009999
-2.7539999 10.83 2.493
-2.7620001 10.825 2.4849999
-2.7539999 10.829 2.4679999
-2.766 10.821 2.4619999
-2.7690001 10.819 2.4519999
-2.773 10.816 2.4419999
-2.7690001 10.817 2.428
-2.7509999 10.828 2.405
-2.733 10.838 2.3840001
-2.7460001 10.829 2.3789999
-2.7390001 10.833 2.3629999
-2.7509999 10.825 2.3570001
-2.7509999 10.825 2.345
-2.7460001 10.827 2.3299999
-2.7579999 10.819 2.325
-2.7449999 10.826 2.306
-2.753 10.821 2.2980001
-2.7479999 10.824 2.283
-2.7360001 10.83 2.266
-2.74 10.827 2.256
-2.743 10.824 2.2460001
-2.74 10.826 2.2320001
-2.7349999 10.828 2.2179999
-2.747 10.821 2.2119999
-2.7349999 10.827 2.194
-2.734 10.827 2.1819999
-2.7460001 10.819 2.1760001
-2.7290001 10.829 2.1559999
-2.7290001 10.829 2.1440001
-2.7320001 10.826 2.1340001
-2.7309999 10.826 2.122
-2.7309999 10.826 2.1099999
-2.734 10.823 2.0999999
-2.7290001 10.825 2.086
-2.7360001 10.821 2.0769999
-2.7320001 10.823 2.0639999
-2.7320001 10.822 2.052
-2.7309999 10.822 2.04
-2.73 10.822 2.0280001
-2.7290001 10.822 2.016
-2.7290001 10.821 2.0039999
-2.7360001 10.817 1.9960001
-2.7349999 10.816 1.984
-2.7260001 10.822 1.9680001
-2.7290001 10.819 1.9579999
-2.7320001 10.817 1.948
-2.7309999 10.817 1.936
-2.73 10.817 1.924
-2.7279999 10.817 1.9119999
-2.743 10.808 1.9069999
-2.7460001 10.805 1.897
-2.7460001 10.805 1.885
-2.744 10.805 1.874
-2.74 10.807 1.86
-2.724 10.817 1.842
-2.7379999 10.807 1.837
-2.7349999 10.809 1.824
-2.74 10.805 1.8150001
-2.723 10.815 1.7970001
-2.7409999 10.803 1.793
-2.737 10.805 1.78
-2.744 10.8 1.771
-2.7349999 10.805 1.756
-2.7420001 10.801 1.748
-2.74 10.801 1.7359999
-2.74 10.801 1.725
-2.7390001 10.801 1.7130001
-2.7479999 10.795 1.705
-2.7309999 10.804 1.688
-2.7460001 10.795 1.682
-2.7409999 10.797 1.669
-2.7550001 10.788 1.663
-2.7420001 10.795 1.647
-2.7360001 10.798 1.6339999
-2.7420001 10.794 1.625
-2.7420001 10.794 1.614
-2.7360001 10.797 1.6
-2.7390001 10.795 1.59
-2.737 10.795 1.579
-2.7320001 10.798 1.566
-2.727 10.8 1.553
-2.7409999 10.791 1.5470001
-2.7349999 10.794 1.534
-2.7260001 10.799 1.5190001
-2.7320001 10.795 1.511
-2.733 10.793 1.5
-2.7360001 10.791 1.49
-2.7360001 10.791 1.479
-2.75 10.782 1.473
-2.7360001 10.79 1.457
-2.7309999 10.792 1.4450001
-2.7349999 10.79 1.4349999
-2.671 10.827 1.402
-2.6300001 10.852 1.377
-2.6140001 10.861 1.3609999
-2.6110001 10.863 1.349
-2.622 10.855 1.3430001
-2.628 10.851 1.334
-2.6170001 10.857 1.3200001
-2.6070001 10.863 1.306
-2.622 10.853 1.3
-2.625 10.851 1.29
-2.6270001 10.849 1.281
-2.6170001 10.855 1.267
-2.642 10.839 1.2640001
-2.625 10.849 1.248
-2.6270001 10.847 1.238
-2.6500001 10.833 1.235
-2.652 10.831 1.225
-2.6819999 10.812 1.224
-2.714 10.792 1.223
-2.7279999 10.783 1.217
-2.7260001 10.784 1.205
-2.7320001 10.779 1.196
-2.737 10.776 1.187
-2.7390001 10.774 1.177
-2.737 10.775 1.166
-2.7349999 10.776 1.154
-2.7290001 10.778 1.142
-2.7219999 10.782 1.1289999
-2.733 10.775 1.122
-2.7130001 10.787 1.1059999
-2.7390001 10.77 1.102
-2.743 10.768 1.0930001
-2.7349999 10.772 1.08
-2.74 10.768 1.071
-2.7290001 10.774 1.057
-2.7160001 10.782 1.043
-2.7260001 10.775 1.035
-2.7390001 10.766 1.028
-2.7409999 10.765 1.018
-2.7349999 10.768 1.006
-2.7349999 10.767 0.995
-2.7390001 10.765 0.986
-2.7360001 10.766 0.97399998
-2.7460001 10.759 0.96600002
-2.7379999 10.764 0.954
-2.7279999 10.769 0.94099998
-2.73 10.767 0.93099999
-2.7360001 10.763 0.92199999
-2.7249999 10.769 0.90799999
-2.7349999 10.763 0.89999998
-2.7360001 10.761 0.88999999
-2.721 10.77 0.87599999
-2.734 10.762 0.86900002
-2.7219999 10.769 0.85500002
-2.73 10.763 0.847
-2.7320001 10.761 0.83700001
-2.7079999 10.775 0.82099998
-2.7179999 10.769 0.81300002
-2.74 10.755 0.80699998
-2.724 10.764 0.79299998
-2.733 10.758 0.78500003
-2.727 10.761 0.773
-2.7409999 10.752 0.76599997
-2.734 10.756 0.75400001
-2.7349999 10.755 0.74299997
-2.743 10.75 0.73500001
-2.7260001 10.759 0.72100002
-2.7219999 10.761 0.70999998
-2.7260001 10.758 0.69999999
-2.721 10.761 0.68900001
-2.7390001 10.75 0.68199998
-2.7360001 10.751 0.671
-2.724 10.757 0.65799999
-2.714 10.763 0.64600003
-2.7119999 10.764 0.63499999
-2.72 10.758 0.62699997
-2.7079999 10.765 0.61400002
-2.7260001 10.754 0.60699999
-2.73 10.751 0.597
-2.7349999 10.747 0.588
-2.7290001 10.75 0.57700002
-2.714 10.759 0.56400001
-2.72 10.755 0.55400002
-2.73 10.748 0.546
-2.7219999 10.753 0.53399998
-2.7309999 10.747 0.52499998
-2.727 10.749 0.514
-2.7190001 10.753 0.50300002
-2.7160001 10.754 0.49200001
-2.714 10.755 0.48100001
-2.7160001 10.754 0.47099999
-2.711 10.756 0.461
-2.7090001 10.757 0.44999999
-2.717 10.751 0.44100001
-2.7260001 10.745 0.43200001
-2.7260001 10.745 0.42199999
-2.707 10.756 0.40900001
-2.727 10.743 0.40099999
-2.7249999 10.744 0.391
-2.7179999 10.748 0.38
-2.7179999 10.747 0.36899999
-2.72 10.745 0.359
-2.7349999 10.736 0.35100001
-2.724 10.742 0.34
-2.717 10.745 0.32800001
-2.7249999 10.74 0.31900001
-2.72 10.743 0.308
-2.7149999 10.745 0.29800001
-2.7079999 10.749 0.287
-2.7079999 10.749 0.27599999
-2.714 10.745 0.26699999
-2.727 10.736 0.25799999
-2.714 10.743 0.24699999
-2.727 10.735 0.23800001
-2.7149999 10.742 0.226
-2.72 10.738 0.21699999
-2.707 10.746 0.205
-2.721 10.737 0.19599999
-2.7049999 10.746 0.185
-2.7060001 10.745 0.175
-2.7060001 10.744 0.164
-2.71 10.741 0.155
-2.711 10.74 0.14399999
-2.707 10.742 0.134
-2.7160001 10.736 0.125
-2.7119999 10.738 0.114
-2.701 10.745 0.103
-2.7019999 10.744 0.093000002
-2.7049999 10.741 0.082999997
-2.7060001 10.74 0.072999999
-2.7019999 10.742 0.063000001
-2.6949999 10.746 0.052000001
-2.698 10.743 0.041999999
-2.694 10.745 0.032000002
-2.6989999 10.742 0.022
-2.6960001 10.743 0.012
-2.5710001 10.958 2.9860001
-2.5829999 10.95 2.9809999
-2.585 10.948 2.9690001
-2.5780001 10.952 2.9519999
-2.586 10.946 2.944
-2.579 10.95 2.927
-2.6059999 10.934 2.9319999
-2.625 10.921 2.9319999
-2.651 10.905 2.9360001
-2.6429999 10.909 2.918
-2.6300001 10.916 2.8970001
-2.632 10.915 2.885
-2.638 10.911 2.8759999
-2.645 10.906 2.868
-2.6429999 10.906 2.8540001
-2.641 10.907 2.8399999
-2.641 10.906 2.8269999
-2.6359999 10.909 2.8110001
-2.642 10.904 2.803
-2.6440001 10.903 2.7909999
-2.6470001 10.9 2.7809999
-2.6459999 10.9 2.7679999
-2.6429999 10.901 2.753
-2.6530001 10.895 2.747
-2.648 10.897 2.7309999
-2.655 10.892 2.723
-2.6459999 10.897 2.7049999
-2.6619999 10.886 2.7019999
-2.668 10.882 2.6930001
-2.658 10.887 2.675
-2.6670001 10.882 2.668
-2.6600001 10.885 2.651
-2.671 10.878 2.6459999
-2.658 10.885 2.625
-2.6789999 10.872 2.625
-2.6659999 10.879 2.6059999
-2.6700001 10.876 2.596
-2.664 10.879 2.579
-2.674 10.872 2.5739999
-2.684 10.866 2.5669999
-2.6819999 10.866 2.5539999
-2.6900001 10.861 2.546
-2.694 10.858 2.5350001
-2.71 10.848 2.533
-2.7019999 10.852 2.516
-2.71 10.847 2.5079999
-2.7460001 10.825 2.516
-2.737 10.829 2.4990001
-2.7409999 10.826 2.4890001
-2.733 10.83 2.4719999
-2.733 10.83 2.46
-2.7409999 10.825 2.4519999
-2.7409999 10.824 2.4400001
-2.734 10.828 2.424
-2.73 10.829 2.4100001
-2.7379999 10.824 2.402
-2.737 10.824 2.3900001
-2.737 10.823 2.3770001
-2.7249999 10.83 2.358
-2.733 10.824 2.3510001
-2.74 10.82 2.3429999
-2.74 10.819 2.3299999
-2.724 10.828 2.3099999
-2.734 10.821 2.3039999
-2.724 10.827 2.286
-2.727 10.824 2.276
-2.727 10.824 2.2639999
-2.724 10.825 2.25
-2.73 10.821 2.2420001
-2.73 10.82 2.23
-2.73 10.82 2.2179999
-2.71 10.831 2.1960001
-2.721 10.824 2.1900001
-2.733 10.816 2.184
-2.724 10.821 2.168
-2.7130001 10.827 2.151
-2.72 10.822 2.1429999
-2.7219999 10.821 2.132
-2.71 10.827 2.1140001
-2.7219999 10.82 2.108
-2.7320001 10.813 2.1010001
-2.7190001 10.82 2.0840001
-2.73 10.813 2.0769999
-2.73 10.812 2.066
-2.714 10.821 2.046
-2.7379999 10.806 2.046
-2.7290001 10.811 2.03
-2.7160001 10.818 2.013
-2.7219999 10.814 2.0039999
-2.714 10.818 1.989
-2.7130001 10.818 1.977
-2.717 10.816 1.967
-2.724 10.811 1.959
-2.7260001 10.809 1.948
-2.7290001 10.806 1.938
-2.744 10.797 1.933
-2.7190001 10.811 1.911
-2.7290001 10.804 1.904
-2.721 10.809 1.8890001
-2.723 10.807 1.8789999
-2.727 10.804 1.869
-2.73 10.802 1.859
-2.7219999 10.806 1.844
-2.727 10.802 1.835
-2.7320001 10.799 1.825
-2.7219999 10.804 1.8099999
-2.7179999 10.806 1.7970001
-2.73 10.798 1.791
-2.717 10.806 1.774
-2.711 10.809 1.76
-2.721 10.802 1.753
-2.723 10.8 1.743
-2.7219999 10.8 1.7309999
-2.7090001 10.808 1.715
-2.7149999 10.804 1.706
-2.7179999 10.801 1.696
-2.7260001 10.796 1.688
-2.724 10.797 1.676
-2.7219999 10.797 1.664
-2.73 10.792 1.656
-2.72 10.797 1.641
-2.723 10.795 1.631
-2.7179999 10.798 1.618
-2.72 10.795 1.608
-2.7190001 10.796 1.596
-2.717 10.796 1.585
-2.7320001 10.787 1.579
-2.7049999 10.802 1.558
-2.717 10.795 1.551
-2.72 10.792 1.5420001
-2.7219999 10.791 1.531
-2.72 10.791 1.52
-2.7219999 10.789 1.51
-2.704 10.8 1.492
-2.7119999 10.795 1.484
-2.7130001 10.793 1.473
-2.7079999 10.796 1.46
-2.7179999 10.789 1.4529999
-2.7079999 10.795 1.439
-2.7190001 10.788 1.432
-2.6889999 10.805 1.411
-2.6370001 10.836 1.382
-2.6210001 10.846 1.3660001
-2.6199999 10.846 1.355
-2.6010001 10.857 1.337
-2.619 10.845 1.3329999
-2.6159999 10.846 1.322
-2.6159999 10.846 1.311
-2.625 10.84 1.303
-2.615 10.846 1.289
-2.609 10.848 1.277
-2.6300001 10.835 1.273
-2.6359999 10.831 1.2640001
-2.638 10.829 1.2539999
-2.638 10.829 1.244
-2.6489999 10.822 1.237
-2.6470001 10.822 1.226
-2.674 10.805 1.223
-2.7079999 10.784 1.223
-2.71 10.782 1.2130001
-2.72 10.775 1.206
-2.7219999 10.774 1.1950001
-2.7190001 10.775 1.184
-2.7060001 10.782 1.169
-2.72 10.773 1.163
-2.714 10.777 1.15
-2.707 10.78 1.138
-2.697 10.786 1.124
-2.7030001 10.782 1.115
-2.7160001 10.773 1.108
-2.71 10.776 1.096
-2.7030001 10.78 1.084
-2.7090001 10.776 1.075
-2.707 10.776 1.063
-2.7090001 10.775 1.053
-2.7190001 10.768 1.046
-2.7079999 10.774 1.0319999
-2.7179999 10.768 1.024
-2.72 10.766 1.0140001
-2.7049999 10.775 1
-2.714 10.768 0.99199998
-2.707 10.773 0.97899997
-2.714 10.767 0.97000003
-2.707 10.771 0.958
-2.71 10.769 0.94800001
-2.6989999 10.775 0.935
-2.7079999 10.769 0.92699999
-2.7260001 10.757 0.921
-2.724 10.758 0.91000003
-2.704 10.77 0.89499998
-2.7060001 10.768 0.88499999
-2.7030001 10.77 0.87300003
-2.7130001 10.763 0.86500001
-2.7019999 10.769 0.852
-2.7249999 10.754 0.847
-2.71 10.763 0.833
-2.707 10.764 0.82200003
-2.7079999 10.764 0.81199998
-2.7090001 10.762 0.80199999
-2.7019999 10.766 0.79000002
-2.7119999 10.759 0.78200001
-2.701 10.766 0.76899999
-2.7090001 10.76 0.75999999
-2.7160001 10.755 0.75099999
-2.697 10.767 0.73699999
-2.701 10.764 0.72799999
-2.6989999 10.764 0.71700001
-2.6919999 10.768 0.70499998
-2.71 10.757 0.69800001
-2.7149999 10.753 0.68900001
-2.701 10.761 0.676
-2.7060001 10.757 0.667
-2.6989999 10.761 0.65499997
-2.7079999 10.755 0.64600003
-2.694 10.763 0.63300002
-2.694 10.763 0.62300003
-2.7030001 10.757 0.61400002
-2.7049999 10.755 0.60500002
-2.6989999 10.758 0.59299999
-2.6989999 10.757 0.583
-2.697 10.758 0.57200003
-2.7049999 10.753 0.56300002
-2.7019999 10.754 0.55299997
-2.6989999 10.755 0.542
-2.704 10.752 0.53200001
-2.7060001 10.75 0.523
-2.7049999 10.751 0.51200002
-2.6860001 10.761 0.49900001
-2.6949999 10.756 0.49000001
-2.6960001 10.755 0.47999999
-2.6919999 10.756 0.46900001
-2.6889999 10.758 0.458
-2.6989999 10.751 0.44999999
-2.6819999 10.761 0.43700001
-2.7 10.749 0.42899999
-2.71 10.743 0.421
-2.701 10.748 0.40900001
-2.698 10.749 0.398
-2.6989999 10.748 0.38800001
-2.704 10.744 0.37900001
-2.697 10.749 0.368
-2.681 10.758 0.35499999
-2.704 10.743 0.34799999
-2.6949999 10.748 0.33700001
-2.704 10.742 0.32800001
-2.6930001 10.749 0.31600001
-2.698 10.745 0.30700001
-2.698 10.744 0.29699999
-2.6989999 10.743 0.287
-2.694 10.745 0.27599999
-2.6919999 10.747 0.26499999
-2.691 10.746 0.255
-2.6919999 10.745 0.245
-2.6760001 10.755 0.233
-2.6800001 10.752 0.22400001
-2.678 10.753 0.213
-2.6900001 10.745 0.204
-2.6819999 10.749 0.193
-2.6830001 10.748 0.183
-2.687 10.745 0.17399999
-2.684 10.746 0.163
-2.6889999 10.743 0.154
-2.677 10.75 0.142
-2.694 10.738 0.134
-2.6900001 10.74 0.123
-2.6860001 10.742 0.113
-2.6900001 10.739 0.103
-2.6789999 10.746 0.092
-2.6989999 10.733 0.083999999
-2.678 10.745 0.071999997
-2.6670001 10.752 0.061000001
-2.687 10.739 0.052000001
-2.6670001 10.751 0.041000001
-2.675 10.745 0.030999999
-2.6760001 10.744 0.021
-2.678 10.743 0.011
-2.5769999 10.943 2.994
-2.5780001 10.942 2.9809999
-2.5899999 10.935 2.9760001
-2.5869999 10.935 2.9619999
-2.5769999 10.941 2.9419999
-2.5969999 10.928 2.9430001
-2.612 10.919 2.9400001
-2.6159999 10.915 2.9300001
-2.654 10.893 2.9419999
-2.658 10.889 2.9319999
-2.6359999 10.902 2.904
-2.6329999 10.903 2.8889999
-2.645 10.895 2.8840001
-2.6459999 10.894 2.8729999
-2.645 10.894 2.859
-2.6370001 10.898 2.8410001
-2.6429999 10.894 2.832
-2.6489999 10.89 2.823
-2.635 10.897 2.802
-2.6500001 10.888 2.799
-2.6370001 10.895 2.7780001
-2.6440001 10.89 2.77
-2.645 10.889 2.7579999
-2.6440001 10.888 2.7449999
-2.652 10.883 2.737
-2.6530001 10.882 2.7249999
-2.6619999 10.876 2.7179999
-2.6389999 10.889 2.6919999
-2.6589999 10.876 2.691
-2.652 10.88 2.675
-2.6630001 10.872 2.6689999
-2.664 10.871 2.658
-2.6659999 10.869 2.6459999
-2.655 10.876 2.6270001
-2.6619999 10.871 2.619
-2.6789999 10.86 2.6159999
-2.6670001 10.866 2.5969999
-2.6689999 10.865 2.586
-2.6719999 10.863 2.575
-2.664 10.866 2.559
-2.677 10.858 2.5539999
-2.677 10.858 2.5409999
-2.684 10.853 2.533
-2.6949999 10.845 2.5280001
-2.7030001 10.84 2.52
-2.734 10.821 2.5250001
-2.721 10.828 2.506
-2.7090001 10.835 2.4860001
-2.7130001 10.832 2.4760001
-2.72 10.827 2.4679999
-2.7160001 10.828 2.454
-2.7160001 10.828 2.4419999
-2.72 10.825 2.4319999
-2.72 10.824 2.4200001
-2.724 10.821 2.4100001
-2.7249999 10.82 2.398
-2.724 10.82 2.3859999
-2.72 10.822 2.3710001
-2.7079999 10.828 2.3529999
-2.723 10.819 2.349
-2.707 10.828 2.3280001
-2.7190001 10.82 2.323
-2.7179999 10.82 2.3099999
-2.7219999 10.817 2.3
-2.7249999 10.815 2.29
-2.7179999 10.818 2.2750001
-2.71 10.823 2.2579999
-2.724 10.814 2.2539999
-2.721 10.815 2.24
-2.7249999 10.812 2.23
-2.7130001 10.818 2.2130001
-2.7090001 10.82 2.1989999
-2.704 10.823 2.1849999
-2.7079999 10.82 2.175
-2.714 10.815 2.1659999
-2.71 10.817 2.152
-2.7130001 10.815 2.142
-2.7290001 10.805 2.138
-2.72 10.81 2.122
-2.7149999 10.812 2.108
-2.6989999 10.821 2.089
-2.7060001 10.816 2.0799999
-2.71 10.814 2.0699999
-2.717 10.809 2.062
-2.7060001 10.815 2.0450001
-2.7 10.818 2.0309999
-2.707 10.812 2.023
-2.7060001 10.813 2.0109999
-2.7049999 10.813 1.999
-2.721 10.802 1.995
-2.7049999 10.812 1.976
-2.7030001 10.812 1.964
-2.7060001 10.81 1.954
-2.7090001 10.808 1.943
-2.704 10.81 1.9299999
-2.707 10.808 1.92
-2.7060001 10.808 1.908
-2.7090001 10.805 1.898
-2.701 10.81 1.883
-2.7149999 10.8 1.878
-2.711 10.802 1.864
-2.714 10.8 1.854
-2.7079999 10.803 1.841
-2.704 10.805 1.8279999
-2.7060001 10.803 1.817
-2.7049999 10.803 1.8049999
-2.6919999 10.81 1.789
-2.704 10.803 1.7819999
-2.707 10.8 1.772
-2.7 10.804 1.7589999
-2.711 10.796 1.752
-2.7 10.802 1.7359999
-2.7060001 10.798 1.727
-2.72 10.79 1.722
-2.717 10.791 1.709
-2.72 10.789 1.699
-2.7119999 10.793 1.6849999
-2.71 10.793 1.673
-2.7130001 10.791 1.663
-2.7 10.798 1.647
-2.707 10.793 1.6390001
-2.7249999 10.782 1.6339999
-2.704 10.794 1.615
-2.7030001 10.794 1.604
-2.6889999 10.802 1.587
-2.704 10.793 1.582
-2.698 10.796 1.569
-2.701 10.794 1.559
-2.7060001 10.789 1.55
-2.714 10.784 1.5420001
-2.7079999 10.787 1.529
-2.698 10.793 1.5140001
-2.7090001 10.786 1.507
-2.6949999 10.794 1.4910001
-2.698 10.791 1.4809999
-2.7 10.79 1.471
-2.7019999 10.788 1.461
-2.697 10.791 1.448
-2.6989999 10.788 1.438
-2.6930001 10.792 1.425
-2.6949999 10.79 1.415
-2.6259999 10.832 1.38
-2.622 10.833 1.368
-2.605 10.843 1.352
-2.608 10.841 1.342
-2.6140001 10.837 1.334
-2.6240001 10.83 1.326
-2.602 10.843 1.308
-2.608 10.839 1.3
-2.6140001 10.834 1.291
-2.609 10.837 1.279
-2.6370001 10.82 1.277
-2.6170001 10.831 1.26
-2.6329999 10.821 1.255
-2.641 10.815 1.247
-2.6400001 10.815 1.2359999
-2.654 10.807 1.23
-2.665 10.799 1.223
-2.6989999 10.778 1.222
-2.701 10.776 1.212
-2.6989999 10.777 1.201
-2.6849999 10.785 1.186
-2.6900001 10.781 1.177
-2.6930001 10.779 1.1670001
-2.694 10.777 1.1569999
-2.688 10.781 1.145
-2.694 10.777 1.136
-2.6960001 10.775 1.126
-2.6930001 10.776 1.114
-2.6949999 10.774 1.104
-2.6930001 10.775 1.0930001
-2.698 10.771 1.084
-2.6960001 10.772 1.073
-2.7 10.769 1.063
-2.687 10.777 1.049
-2.6949999 10.771 1.041
-2.7030001 10.766 1.033
-2.6949999 10.77 1.02
-2.6900001 10.773 1.008
-2.6960001 10.769 0.99900001
-2.6960001 10.768 0.98900002
-2.691 10.77 0.977
-2.6889999 10.771 0.96600002
-2.6860001 10.772 0.95499998
-2.691 10.769 0.94499999
-2.6849999 10.772 0.93300003
-2.6860001 10.771 0.92299998
-2.6919999 10.767 0.91399997
-2.694 10.765 0.90399998
-2.6949999 10.764 0.89399999
-2.6960001 10.762 0.884
-2.681 10.771 0.87
-2.6830001 10.77 0.86000001
-2.6930001 10.763 0.852
-2.6900001 10.764 0.84100002
-2.6700001 10.776 0.82599998
-2.6930001 10.761 0.82099998
-2.6860001 10.765 0.80900002
-2.6960001 10.759 0.801
-2.6760001 10.77 0.78600001
-2.6860001 10.764 0.778
-2.691 10.76 0.76899999
-2.675 10.769 0.755
-2.6900001 10.76 0.74800003
-2.691 10.758 0.73699999
-2.6889999 10.759 0.727
-2.698 10.753 0.71799999
-2.6760001 10.766 0.70300001
-2.684 10.761 0.69499999
-2.674 10.766 0.68199998
-2.6800001 10.762 0.67299998
-2.688 10.757 0.66500002
-2.678 10.763 0.65200001
-2.684 10.758 0.64300001
-2.681 10.76 0.63200003
-2.678 10.761 0.62099999
-2.678 10.76 0.611
-2.6789999 10.759 0.60100001
-2.6760001 10.761 0.58999997
-2.677 10.76 0.57999998
-2.678 10.758 0.56999999
-2.6830001 10.755 0.56099999
-2.6849999 10.753 0.551
-2.681 10.755 0.54000002
-2.6659999 10.764 0.52700001
-2.6789999 10.755 0.51899999
-2.6760001 10.757 0.509
-2.671 10.759 0.498
-2.6849999 10.75 0.49000001
-2.675 10.756 0.47799999
-2.687 10.748 0.47
-2.6719999 10.757 0.45699999
-2.6719999 10.756 0.447
-2.677 10.752 0.43700001
-2.674 10.754 0.42699999
-2.6659999 10.758 0.41499999
-2.671 10.755 0.40599999
-2.6760001 10.751 0.39700001
-2.677 10.75 0.38699999
-2.6819999 10.746 0.377
-2.6789999 10.748 0.366
-2.6789999 10.747 0.35600001
-2.6889999 10.741 0.347
-2.678 10.747 0.336
-2.671 10.751 0.32499999
-2.671 10.751 0.315
-2.6619999 10.756 0.303
-2.688 10.739 0.296
-2.6889999 10.738 0.28600001
-2.677 10.744 0.27500001
-2.6849999 10.739 0.266
-2.668 10.749 0.25400001
-2.674 10.745 0.244
-2.6830001 10.739 0.235
-2.6700001 10.746 0.22400001
-2.6670001 10.748 0.213
-2.677 10.741 0.204
-2.668 10.746 0.193
-2.6730001 10.742 0.183
-2.6860001 10.734 0.175
-2.674 10.741 0.163
-2.671 10.742 0.153
-2.6760001 10.738 0.14300001
-2.6630001 10.746 0.132
-2.651 10.753 0.121
-2.6689999 10.741 0.112
-2.665 10.744 0.102
-2.6689999 10.74 0.092
-2.678 10.734 0.082999997
-2.6700001 10.739 0.071999997
-2.658 10.746 0.061000001
-2.6630001 10.742 0.050999999
-2.671 10.737 0.041999999
-2.675 10.734 0.032000002
-2.6619999 10.741 0.021
-2.655 10.746 0.011
-2.5769999 10.932 2.984
-2.5810001 10.928 2.9749999
-2.5680001 10.936 2.9519999
-2.576 10.93 2.9460001
-2.5880001 10.922 2.9400001
-2.592 10.919 2.9300001
-2.6240001 10.899 2.9389999
-2.641 10.889 2.937
-2.654 10.88 2.9330001
-2.6359999 10.89 2.908
-2.635 10.89 2.895
-2.631 10.892 2.8800001
-2.642 10.884 2.8740001
-2.648 10.881 2.865
-2.6359999 10.887 2.845
-2.632 10.889 2.829
-2.6500001 10.878 2.8280001
-2.6329999 10.887 2.8039999
-2.6440001 10.88 2.799
-2.6500001 10.876 2.79
-2.6530001 10.873 2.779
-2.6429999 10.878 2.7609999
-2.651 10.873 2.753
-2.648 10.874 2.7379999
-2.6489999 10.873 2.7260001
-2.6559999 10.868 2.7179999
-2.6530001 10.869 2.704
-2.6600001 10.864 2.6960001
-2.654 10.867 2.6800001
-2.651 10.868 2.6659999
-2.6689999 10.857 2.664
-2.645 10.871 2.6370001
-2.665 10.858 2.6370001
-2.6619999 10.86 2.622
-2.668 10.855 2.6140001
-2.664 10.857 2.599
-2.6600001 10.859 2.5840001
-2.6659999 10.854 2.576
-2.6630001 10.855 2.562
-2.668 10.852 2.552
-2.6670001 10.852 2.539
-2.668 10.851 2.5280001
-2.7160001 10.821 2.543
-2.7060001 10.827 2.5250001
-2.717 10.819 2.5190001
-2.721 10.816 2.5090001
-2.714 10.82 2.493
-2.7149999 10.819 2.4809999
-2.7030001 10.825 2.4619999
-2.711 10.82 2.4549999
-2.7019999 10.825 2.437
-2.7060001 10.822 2.428
-2.707 10.82 2.4159999
-2.7130001 10.816 2.4070001
-2.717 10.813 2.3970001
-2.6989999 10.824 2.375
-2.7060001 10.818 2.3670001
-2.7130001 10.814 2.359
-2.6949999 10.824 2.3369999
-2.7060001 10.817 2.3310001
-2.7060001 10.817 2.319
-2.72 10.807 2.3150001
-2.7079999 10.814 2.296
-2.71 10.812 2.2850001
-2.7160001 10.808 2.277
-2.7130001 10.809 2.263
-2.7 10.816 2.2449999
-2.704 10.813 2.2349999
-2.6960001 10.818 2.2190001
-2.7030001 10.813 2.211
-2.707 10.81 2.201
-2.7019999 10.812 2.187
-2.698 10.814 2.1730001
-2.6819999 10.823 2.1530001
-2.7049999 10.809 2.1530001
-2.698 10.812 2.138
-2.701 10.81 2.128
-2.7060001 10.806 2.118
-2.714 10.801 2.1110001
-2.7090001 10.803 2.0969999
-2.698 10.81 2.079
-2.6930001 10.812 2.066
-2.7 10.807 2.0569999
-2.6949999 10.81 2.043
-2.6989999 10.807 2.0339999
-2.694 10.809 2.02
-2.697 10.806 2.01
-2.6919999 10.809 1.9960001
-2.7 10.804 1.988
-2.7060001 10.799 1.979
-2.7049999 10.799 1.967
-2.6960001 10.804 1.952
-2.691 10.807 1.938
-2.6949999 10.804 1.929
-2.6960001 10.803 1.9170001
-2.697 10.802 1.906
-2.7030001 10.797 1.898
-2.688 10.806 1.88
-2.688 10.805 1.869
-2.698 10.798 1.862
-2.6889999 10.803 1.846
-2.697 10.798 1.8380001
-2.6960001 10.798 1.827
-2.6989999 10.796 1.817
-2.6730001 10.811 1.794
-2.688 10.802 1.789
-2.678 10.806 1.774
-2.6960001 10.795 1.771
-2.674 10.808 1.75
-2.6849999 10.801 1.744
-2.697 10.793 1.737
-2.694 10.794 1.725
-2.694 10.793 1.714
-2.6889999 10.796 1.701
-2.6830001 10.799 1.687
-2.6860001 10.797 1.677
-2.7 10.787 1.6720001
-2.687 10.795 1.656
-2.694 10.79 1.647
-2.6889999 10.793 1.6339999
-2.691 10.791 1.624
-2.6819999 10.796 1.609
-2.6789999 10.797 1.597
-2.691 10.789 1.591
-2.6889999 10.79 1.579
-2.6949999 10.786 1.5700001
-2.6989999 10.783 1.5599999
-2.6819999 10.793 1.543
-2.6949999 10.784 1.5369999
-2.6830001 10.791 1.522
-2.6889999 10.787 1.513
-2.6830001 10.79 1.5
-2.6860001 10.788 1.49
-2.684 10.788 1.478
-2.674 10.794 1.464
-2.6930001 10.782 1.46
-2.687 10.785 1.447
-2.678 10.79 1.433
-2.6819999 10.787 1.423
-2.681 10.787 1.4119999
-2.6329999 10.816 1.385
-2.6289999 10.818 1.373
-2.625 10.82 1.3609999
-2.6110001 10.828 1.345
-2.6129999 10.826 1.335
-2.6110001 10.827 1.324
-2.6129999 10.825 1.314
-2.612 10.825 1.303
-2.622 10.818 1.296
-2.6289999 10.814 1.2869999
-2.625 10.815 1.276
-2.615 10.821 1.262
-2.6259999 10.814 1.255
-2.6400001 10.804 1.249
-2.6459999 10.801 1.24
-2.6659999 10.787 1.2359999
-2.6700001 10.784 1.226
-2.665 10.787 1.214
-2.674 10.781 1.206
-2.6760001 10.779 1.196
-2.675 10.779 1.1849999
-2.677 10.778 1.175
-2.675 10.779 1.164
-2.6689999 10.781 1.152
-2.6860001 10.771 1.146
-2.6719999 10.779 1.131
-2.6659999 10.782 1.119
-2.671 10.778 1.11
-2.681 10.771 1.102
-2.6630001 10.782 1.087
-2.677 10.773 1.08
-2.6860001 10.767 1.072
-2.691 10.763 1.063
-2.6630001 10.78 1.045
-2.6760001 10.771 1.038
-2.678 10.77 1.028
-2.6670001 10.776 1.0140001
-2.668 10.775 1.0039999
-2.6700001 10.773 0.99400002
-2.6719999 10.771 0.98400003
-2.654 10.782 0.96899998
-2.6630001 10.776 0.96100003
-2.6730001 10.769 0.95300001
-2.6700001 10.77 0.94199997
-2.668 10.771 0.93099999
-2.6730001 10.768 0.92199999
-2.6659999 10.771 0.91000003
-2.6760001 10.765 0.90200001
-2.661 10.773 0.88800001
-2.6700001 10.767 0.88
-2.655 10.776 0.866
-2.665 10.769 0.85799998
-2.675 10.763 0.84899998
-2.668 10.766 0.83700001
-2.661 10.77 0.82599998
-2.671 10.763 0.81699997
-2.6719999 10.762 0.80699998
-2.665 10.766 0.79500002
-2.675 10.759 0.787
-2.665 10.765 0.77499998
-2.6589999 10.769 0.76300001
-2.6589999 10.768 0.75300002
-2.665 10.763 0.74400002
-2.6630001 10.765 0.73299998
-2.664 10.763 0.72299999
-2.661 10.765 0.71200001
-2.6589999 10.765 0.70099998
-2.6559999 10.767 0.69099998
-2.661 10.763 0.68099999
-2.6570001 10.765 0.67000002
-2.664 10.76 0.66100001
-2.668 10.757 0.65200001
-2.661 10.761 0.63999999
-2.658 10.762 0.62900001
-2.6630001 10.759 0.62
-2.652 10.765 0.60799998
-2.654 10.763 0.59799999
-2.6670001 10.754 0.58999997
-2.675 10.749 0.58099997
-2.665 10.755 0.56900001
-2.677 10.747 0.56099999
-2.6619999 10.756 0.54799998
-2.6689999 10.751 0.53899997
-2.6589999 10.756 0.528
-2.6600001 10.755 0.51800001
-2.654 10.759 0.50599998
-2.6619999 10.753 0.49700001
-2.6630001 10.752 0.48699999
-2.664 10.751 0.477
-2.665 10.75 0.46700001
-2.6630001 10.751 0.45699999
-2.6670001 10.748 0.447
-2.675 10.742 0.43799999
-2.675 10.742 0.428
-2.6819999 10.737 0.419
-2.6530001 10.754 0.405
-2.658 10.751 0.39500001
-2.6600001 10.749 0.38499999
-2.668 10.743 0.37599999
-2.6670001 10.744 0.366
-2.654 10.751 0.354
-2.671 10.74 0.34599999
-2.655 10.749 0.33399999
-2.6589999 10.746 0.324
-2.6559999 10.748 0.31400001
-2.661 10.744 0.30399999
-2.6570001 10.746 0.294
-2.6619999 10.743 0.28400001
-2.6589999 10.744 0.27399999
-2.6600001 10.743 0.264
-2.652 10.747 0.25299999
-2.6530001 10.746 0.243
-2.6440001 10.751 0.23199999
-2.6570001 10.743 0.223
-2.6489999 10.747 0.212
-2.6500001 10.746 0.20200001
-2.655 10.743 0.193
-2.655 10.742 0.183
-2.661 10.738 0.17299999
-2.665 10.735 0.163
-2.661 10.737 0.153
-2.6530001 10.742 0.142
-2.6530001 10.741 0.132
-2.6489999 10.743 0.122
-2.6500001 10.742 0.112
-2.6459999 10.744 0.101
-2.6459999 10.743 0.090999998
-2.6400001 10.747 0.081
-2.6359999 10.749 0.07
-2.6359999 10.748 0.059999999
-2.6559999 10.735 0.052000001
-2.6440001 10.742 0.041000001
-2.645 10.741 0.030999999
-2.632 10.749 0.02
-2.632 10.748 0.0099999998
-2.585 10.915 2.994
-2.589 10.912 2.984
-2.5869999 10.912 2.97
-2.586 10.912 2.9560001
-2.582 10.914 2.9400001
-2.5969999 10.904 2.938
-2.602 10.901 2.928
-2.6429999 10.876 2.9430001
-2.652 10.87 2.9360001
-2.677 10.854 2.9389999
-2.675 10.854 2.925
-2.6240001 10.884 2.8789999
-2.642 10.873 2.878
-2.635 10.876 2.8610001
-2.625 10.882 2.8410001
-2.6470001 10.868 2.842
-2.652 10.865 2.8329999
-2.6470001 10.867 2.8169999
-2.642 10.869 2.8010001
-2.654 10.862 2.796
-2.6500001 10.863 2.7809999
-2.652 10.861 2.77
-2.651 10.861 2.757
-2.661 10.855 2.75
-2.6570001 10.856 2.7349999
-2.6400001 10.866 2.7119999
-2.6440001 10.863 2.7019999
-2.654 10.856 2.6960001
-2.665 10.849 2.6900001
-2.658 10.853 2.6730001
-2.652 10.855 2.6570001
-2.6530001 10.855 2.645
-2.661 10.849 2.638
-2.6570001 10.851 2.6229999
-2.664 10.846 2.615
-2.6659999 10.844 2.6040001
-2.6789999 10.836 2.599
-2.6789999 10.835 2.5869999
-2.704 10.819 2.589
-2.694 10.825 2.5710001
-2.701 10.82 2.563
-2.697 10.822 2.5480001
-2.698 10.821 2.536
-2.7 10.819 2.5250001
-2.6900001 10.824 2.507
-2.7 10.817 2.5009999
-2.7019999 10.816 2.4890001
-2.694 10.82 2.473
-2.697 10.818 2.4619999
-2.6930001 10.819 2.448
-2.6930001 10.818 2.4360001
-2.6889999 10.821 2.421
-2.6960001 10.815 2.4130001
-2.6900001 10.819 2.398
-2.7 10.812 2.391
-2.6960001 10.814 2.3770001
-2.6900001 10.817 2.3610001
-2.6919999 10.815 2.3510001
-2.678 10.823 2.3310001
-2.7079999 10.804 2.336
-2.697 10.81 2.3180001
-2.6889999 10.814 2.3010001
-2.6889999 10.814 2.289
-2.6960001 10.809 2.2809999
-2.6960001 10.808 2.2690001
-2.6949999 10.808 2.257
-2.687 10.812 2.2409999
-2.6919999 10.809 2.2320001
-2.6900001 10.809 2.2190001
-2.6889999 10.809 2.207
-2.6849999 10.811 2.1930001
-2.6889999 10.808 2.1830001
-2.6919999 10.806 2.1730001
-2.684 10.81 2.1570001
-2.6830001 10.81 2.145
-2.6789999 10.812 2.131
-2.681 10.81 2.1210001
-2.6819999 10.809 2.109
-2.6730001 10.814 2.0940001
-2.6730001 10.813 2.082
-2.6919999 10.801 2.0799999
-2.684 10.806 2.0639999
-2.6719999 10.812 2.0469999
-2.678 10.808 2.0380001
-2.6819999 10.805 2.029
-2.688 10.801 2.02
-2.675 10.808 2.0020001
-2.6760001 10.807 1.9910001
-2.6819999 10.803 1.983
-2.681 10.803 1.971
-2.681 10.802 1.959
-2.677 10.804 1.946
-2.665 10.811 1.929
-2.6800001 10.801 1.924
-2.678 10.802 1.9119999
-2.681 10.799 1.902
-2.6760001 10.802 1.8890001
-2.6589999 10.812 1.87
-2.678 10.8 1.867
-2.6700001 10.804 1.852
-2.688 10.792 1.849
-2.671 10.802 1.83
-2.6700001 10.802 1.818
-2.665 10.805 1.8049999
-2.6670001 10.803 1.795
-2.6700001 10.8 1.785
-2.6559999 10.808 1.768
-2.675 10.796 1.7640001
-2.678 10.794 1.7539999
-2.671 10.798 1.74
-2.6830001 10.79 1.734
-2.6659999 10.8 1.716
-2.681 10.79 1.711
-2.678 10.791 1.699
-2.6849999 10.787 1.6900001
-2.6730001 10.793 1.674
-2.6860001 10.785 1.669
-2.677 10.79 1.654
-2.6789999 10.788 1.6440001
-2.671 10.792 1.63
-2.674 10.79 1.62
-2.6730001 10.79 1.608
-2.668 10.793 1.595
-2.674 10.788 1.586
-2.6730001 10.788 1.575
-2.678 10.785 1.566
-2.6730001 10.787 1.553
-2.6719999 10.787 1.5420001
-2.671 10.787 1.53
-2.677 10.783 1.522
-2.664 10.79 1.506
-2.6700001 10.786 1.497
-2.6570001 10.794 1.482
-2.6630001 10.789 1.473
-2.671 10.784 1.465
-2.675 10.781 1.456
-2.671 10.783 1.444
-2.6570001 10.791 1.428
-2.664 10.786 1.419
-2.6619999 10.787 1.408
-2.664 10.785 1.398
-2.6170001 10.813 1.3710001
-2.6099999 10.817 1.358
-2.6140001 10.814 1.348
-2.6199999 10.81 1.34
-2.6229999 10.808 1.33
-2.6210001 10.808 1.319
-2.6300001 10.802 1.311
-2.615 10.811 1.296
-2.6140001 10.811 1.285
-2.612 10.812 1.274
-2.6370001 10.796 1.271
-2.625 10.803 1.256
-2.6459999 10.789 1.253
-2.6400001 10.792 1.24
-2.655 10.782 1.234
-2.665 10.776 1.227
-2.6589999 10.779 1.214
-2.6559999 10.78 1.2029999
-2.658 10.778 1.193
-2.661 10.776 1.183
-2.655 10.779 1.171
-2.6440001 10.786 1.1569999
-2.6459999 10.784 1.147
-2.652 10.78 1.138
-2.654 10.778 1.128
-2.652 10.779 1.117
-2.6619999 10.772 1.109
-2.655 10.776 1.097
-2.6489999 10.779 1.085
-2.654 10.775 1.076
-2.6559999 10.773 1.066
-2.651 10.776 1.054
-2.6559999 10.772 1.045
-2.6489999 10.776 1.0319999
-2.655 10.772 1.023
-2.6440001 10.778 1.01
-2.6500001 10.774 1.001
-2.665 10.764 0.995
-2.6489999 10.774 0.98000002
-2.6470001 10.775 0.96899998
-2.648 10.773 0.95899999
-2.6489999 10.772 0.949
-2.6559999 10.767 0.94
-2.6570001 10.766 0.93000001
-2.655 10.767 0.91900003
-2.6559999 10.766 0.90899998
-2.6500001 10.769 0.89700001
-2.6389999 10.775 0.884
-2.665 10.759 0.88
-2.654 10.765 0.86699998
-2.6559999 10.763 0.85699999
-2.6500001 10.767 0.84500003
-2.654 10.763 0.83600003
-2.6470001 10.767 0.824
-2.6570001 10.76 0.81599998
-2.6500001 10.764 0.80400002
-2.664 10.755 0.79699999
-2.648 10.764 0.78299999
-2.638 10.77 0.77100003
-2.6559999 10.759 0.764
-2.645 10.764 0.75099999
-2.6470001 10.763 0.741
-2.652 10.759 0.73199999
-2.6500001 10.76 0.722
-2.6389999 10.767 0.70899999
-2.6429999 10.763 0.69999999
-2.6489999 10.759 0.69099998
-2.642 10.763 0.67900002
-2.6440001 10.761 0.66900003
-2.654 10.754 0.66100001
-2.6429999 10.761 0.648
-2.6440001 10.76 0.63800001
-2.6489999 10.756 0.62900001
-2.6370001 10.763 0.61699998
-2.642 10.759 0.60799998
-2.6470001 10.756 0.59799999
-2.6440001 10.757 0.58700001
-2.6359999 10.762 0.57599998
-2.642 10.757 0.56699997
-2.651 10.751 0.55800003
-2.6489999 10.752 0.54699999
-2.6440001 10.755 0.53600001
-2.6500001 10.751 0.52700001
-2.651 10.749 0.51700002
-2.651 10.749 0.50700003
-2.6440001 10.752 0.49599999
-2.658 10.744 0.48800001
-2.6559999 10.744 0.477
-2.651 10.747 0.46700001
-2.6440001 10.751 0.45500001
-2.6489999 10.747 0.44600001
-2.6459999 10.749 0.435
-2.642 10.75 0.42500001
-2.651 10.744 0.41600001
-2.6440001 10.748 0.405
-2.6459999 10.747 0.39500001
-2.638 10.751 0.38299999
-2.6429999 10.747 0.37400001
-2.6400001 10.749 0.36399999
-2.6440001 10.746 0.354
-2.628 10.755 0.34200001
-2.6489999 10.742 0.33399999
-2.6470001 10.743 0.324
-2.635 10.75 0.31200001
-2.6389999 10.746 0.303
-2.6389999 10.746 0.29300001
-2.6370001 10.747 0.28200001
-2.6289999 10.751 0.271
-2.6289999 10.75 0.26100001
-2.6370001 10.745 0.252
-2.6470001 10.738 0.243
-2.6470001 10.738 0.233
-2.638 10.743 0.222
-2.635 10.744 0.212
-2.6440001 10.738 0.20299999
-2.6489999 10.734 0.193
-2.6559999 10.729 0.184
-2.6329999 10.743 0.171
-2.6270001 10.747 0.161
-2.6259999 10.747 0.15099999
-2.6440001 10.735 0.142
-2.628 10.745 0.131
-2.628 10.744 0.121
-2.628 10.744 0.111
-2.6199999 10.748 0.1
-2.6289999 10.742 0.090999998
-2.6289999 10.741 0.081
-2.6300001 10.741 0.071000002
-2.6300001 10.74 0.061000001
-2.6259999 10.742 0.050000001
-2.625 10.742 0.039999999
-2.638 10.733 0.030999999
-2.6259999 10.741 0.02
-2.6300001 10.737 0.011
-2.5829999 10.905 2.997
-2.5840001 10.904 2.984
-2.579 10.906 2.9679999
-2.5840001 10.903 2.9579999
-2.5910001 10.897 2.951
-2.5899999 10.898 2.937
-2.5969999 10.892 2.9289999
-2.631 10.872 2.9389999
-2.6470001 10.861 2.9360001
-2.6659999 10.849 2.9360001
-2.6849999 10.837 2.9349999
-2.6860001 10.836 2.9230001
-2.671 10.844 2.9000001
-2.6329999 10.866 2.8629999
-2.6329999 10.866 2.8499999
-2.638 10.862 2.8410001
-2.6429999 10.859 2.8310001
-2.648 10.855 2.822
-2.6329999 10.863 2.8
-2.641 10.858 2.7920001
-2.6459999 10.854 2.7820001
-2.6489999 10.852 2.7709999
-2.648 10.852 2.7579999
-2.655 10.847 2.75
-2.642 10.854 2.7290001
-2.6489999 10.849 2.721
-2.6459999 10.851 2.707
-2.651 10.847 2.697
-2.651 10.846 2.6849999
-2.6670001 10.836 2.6819999
-2.671 10.833 2.6719999
-2.6760001 10.829 2.6630001
-2.6789999 10.827 2.652
-2.6789999 10.826 2.6400001
-2.6800001 10.825 2.628
-2.6789999 10.825 2.615
-2.684 10.821 2.605
-2.6830001 10.821 2.5929999
-2.6860001 10.819 2.582
-2.684 10.819 2.5680001
-2.687 10.817 2.5580001
-2.677 10.822 2.54
-2.6849999 10.817 2.5320001
-2.6700001 10.826 2.5109999
-2.681 10.818 2.5050001
-2.6700001 10.824 2.487
-2.681 10.817 2.4809999
-2.674 10.82 2.4649999
-2.6700001 10.823 2.45
-2.6730001 10.82 2.4400001
-2.677 10.817 2.4300001
-2.681 10.814 2.4200001
-2.6730001 10.818 2.404
-2.6659999 10.822 2.388
-2.6719999 10.817 2.3789999
-2.677 10.814 2.3699999
-2.6730001 10.815 2.3559999
-2.6730001 10.815 2.3440001
-2.681 10.809 2.336
-2.6659999 10.818 2.316
-2.6800001 10.809 2.312
-2.6689999 10.815 2.2939999
-2.6760001 10.81 2.286
-2.664 10.817 2.2679999
-2.6630001 10.817 2.256
-2.6670001 10.814 2.2460001
-2.678 10.806 2.24
-2.6700001 10.811 2.224
-2.6730001 10.808 2.214
-2.6730001 10.808 2.2019999
-2.681 10.802 2.194
-2.6730001 10.807 2.178
-2.6600001 10.814 2.1600001
-2.6760001 10.804 2.1559999
-2.6789999 10.801 2.1459999
-2.6659999 10.809 2.128
-2.6659999 10.808 2.1159999
-2.665 10.808 2.1040001
-2.6719999 10.803 2.096
-2.6730001 10.802 2.085
-2.652 10.814 2.063
-2.6630001 10.807 2.0569999
-2.655 10.811 2.0420001
-2.6530001 10.812 2.029
-2.6570001 10.809 2.0190001
-2.6670001 10.802 2.013
-2.671 10.799 2.003
-2.6730001 10.797 1.993
-2.6619999 10.803 1.976
-2.6489999 10.811 1.959
-2.6600001 10.803 1.9529999
-2.6630001 10.801 1.943
-2.6659999 10.798 1.933
-2.654 10.806 1.915
-2.6570001 10.803 1.906
-2.6600001 10.801 1.895
-2.6630001 10.799 1.885
-2.6659999 10.796 1.876
-2.661 10.799 1.862
-2.6600001 10.799 1.85
-2.658 10.799 1.839
-2.658 10.798 1.827
-2.6600001 10.797 1.817
-2.6630001 10.794 1.807
-2.6619999 10.794 1.795
-2.6530001 10.8 1.78
-2.652 10.799 1.7690001
-2.654 10.797 1.758
-2.658 10.795 1.749
-2.6559999 10.795 1.737
-2.655 10.796 1.725
-2.645 10.801 1.71
-2.655 10.794 1.7029999
-2.654 10.794 1.692
-2.654 10.794 1.6799999
-2.655 10.792 1.67
-2.658 10.79 1.66
-2.6530001 10.793 1.647
-2.652 10.793 1.636
-2.651 10.792 1.624
-2.6619999 10.785 1.617
-2.6440001 10.796 1.599
-2.6459999 10.794 1.589
-2.6489999 10.792 1.579
