ply
format ascii 1.0
comment PCL generated
element vertex 1608
property float x
property float y
property float z
element camera 0
property float view_px
property float view_py
property float view_pz
property float x_axisx
property float x_axisy
property float x_axisz
property float y_axisx
property float y_axisy
property float y_axisz
property float z_axisx
property float z_axisy
property float z_axisz
property float focal
property float scalex
property float scaley
property float centerx
property float centery
property int viewportx
property int viewporty
property float k1
property float k2
end_header
-18.752537 18.045134 1.8482666
-18.644821 18.031183 1.8454547
-18.542198 18.01432 1.84056
-18.457834 18.007166 1.8512224
-18.363668 18.011 1.8126668
-21.108362 18.13706 1.8512424
-21.094336 18.159445 1.835889
-20.102333 18.126333 1.8210001
-20.089464 18.126154 1.8224617
-21.140232 18.228767 1.8589232
-21.0968 18.278 1.8528
-21.105 18.358 1.852
-21.084999 18.363125 1.8575
-20.563999 18.386999 1.891
-21.107 18.462999 1.852
-21.062445 18.458334 1.8424445
-20.954502 18.470669 1.8691666
-20.849102 18.442999 1.8612999
-20.768749 18.43425 1.8757501
-20.665251 18.432999 1.8705
-21.049858 18.560286 1.8364286
-20.954668 18.551445 1.8281111
-20.855251 18.540749 1.8117499
-20.7425 18.5065 1.8150001
-21.075001 18.622999 1.825
6.6274996 -10.9225 1.901
6.7853336 -10.943335 1.9156666
6.868 -10.942 1.915
6.9488001 -10.9472 1.9146
7.0558887 -10.94389 1.916111
7.1557145 -10.939284 1.9189286
7.2506661 -10.936334 1.9261665
7.3474116 -10.935941 1.9227059
7.4444203 -10.940842 1.9215789
7.5500588 -10.932881 1.9288236
7.6190004 -10.9406 1.9196001
7.7849998 -10.968 1.902
8.1556005 -10.929601 1.9147999
8.2593336 -10.923248 1.9151667
8.3438749 -10.922501 1.9153751
8.4506016 -10.921069 1.9193335
8.5440006 -10.926112 1.9142224
8.6429996 -10.9255 1.9215
8.7290001 -10.9395 1.9205
8.8318748 -10.922 1.9145
8.9320002 -10.935 1.901
9.0669994 -10.925501 1.9175
9.158 -10.927999 1.9100001
9.2444992 -10.9345 1.903
9.3575001 -10.9205 1.9205
9.4180002 -10.927 1.916
9.6674995 -10.9255 1.9195
9.7266674 -10.928333 1.9193333
9.8445997 -10.925 1.9174
9.9190006 -10.916334 1.9206667
10.059 -10.918 1.915
10.150625 -10.918875 1.9112499
10.2515 -10.911334 1.9191668
10.34 -10.915858 1.9152858
10.441701 -10.909201 1.9165001
10.546429 -10.909716 1.9207144
10.620667 -10.905334 1.9216666
10.781 -10.905 1.906
11.069 -10.901 1.9
11.38 -10.916 1.9349999
15.876801 -10.911799 1.9066
15.946834 -10.911667 1.9078335
16.043236 -10.91247 1.9075882
16.151333 -10.91239 1.9112222
16.247911 -10.916348 1.9101304
16.350193 -10.912923 1.9118077
16.457575 -10.917727 1.9127576
16.555244 -10.922299 1.9145677
16.625864 -10.926682 1.9137729
16.739401 -10.9334 1.9104
16.834251 -10.92975 1.9035
17.091499 -10.914 1.929
17.146889 -10.916471 1.9156414
17.251335 -10.912334 1.9140832
17.341513 -10.908258 1.9115161
17.4445 -10.906876 1.9084375
17.519001 -10.902 1.901
17.6504 -10.9062 1.9022
17.8715 -10.9105 1.902
27.106001 -10.904 1.931
27.271 -10.901 1.936
27.315001 -10.904 1.938
27.400999 -10.902 1.9400001
27.51 -10.905 1.946
28.285999 -10.924 1.903
28.344751 -10.92375 1.9054999
28.451498 -10.917167 1.9095001
28.546 -10.929249 1.9089999
28.645548 -10.931455 1.9093637
28.7362 -10.930201 1.9144
28.972 -10.923 1.903
29.051748 -10.920249 1.90625
29.143778 -10.925 1.9065557
29.257 -10.925715 1.9055716
29.352833 -10.921 1.9066666
29.441999 -10.921333 1.9113334
29.550001 -10.923223 1.9105555
29.647909 -10.917091 1.9115455
29.754272 -10.917727 1.9153637
29.848082 -10.91625 1.9234999
29.9205 -10.914 1.928
30.039001 -10.924335 1.9423335
30.134001 -10.946 1.969
4.5625834 -10.806 1.9078333
4.6519995 -10.811999 1.9111365
4.744967 -10.817468 1.914367
4.8455005 -10.826411 1.9138821
4.9489617 -10.832384 1.9105
5.0444732 -10.838369 1.9066839
5.1576247 -10.829625 1.9131248
5.2259288 -10.836215 1.923
5.3169999 -10.883 1.901
5.408 -10.8095 1.9135001
5.7855 -10.832001 1.9154999
5.8251114 -10.835555 1.9464444
5.9560003 -10.8405 1.9549999
6.1750002 -10.868 1.9170001
6.2405 -10.867001 1.941
6.474 -10.812 1.9059999
6.5780001 -10.86 1.9960001
6.6548338 -10.846 1.9473333
6.7387142 -10.870431 1.9492859
6.8677001 -10.864 1.9617001
6.9443531 -10.865823 1.9601763
7.051158 -10.870317 1.9518949
7.1506672 -10.863168 1.9621333
7.2459993 -10.865849 1.9594998
7.3438935 -10.865787 1.9618217
7.4472346 -10.868168 1.9643
7.5522976 -10.84517 1.9462129
7.6059999 -10.8355 1.971
7.8530002 -10.886 1.9349999
8.050909 -10.858545 1.9629089
8.1551418 -10.858713 1.9566667
8.2560616 -10.860395 1.9531213
8.3449507 -10.855174 1.9567248
8.4504871 -10.850728 1.958811
8.526 -10.835473 1.9387103
8.6528006 -10.842999 1.9408
8.7677412 -10.838387 1.9459678
8.8486671 -10.875334 1.9343333
8.9594002 -10.841201 1.9374001
9.0397148 -10.854572 1.9511429
9.1478577 -10.841572 1.9645715
9.2462502 -10.847625 1.9419999
9.3286257 -10.845624 1.96775
9.4374294 -10.836715 1.9592859
9.6739998 -10.836 1.967
9.7571115 -10.845446 1.9531113
9.8568182 -10.845092 1.9542727
9.921833 -10.839168 1.94775
10.083357 -10.833001 1.9268574
10.172144 -10.834858 1.957
10.261312 -10.835125 1.95825
10.358285 -10.834286 1.9560955
10.44871 -10.839128 1.9576774
10.546894 -10.83093 1.9596786
10.644585 -10.840918 1.9495001
10.748152 -10.8432 1.94485
10.844235 -10.837234 1.9481176
10.948001 -10.843001 1.9428122
11.044 -10.854947 1.9332105
11.14675 -10.856834 1.9368333
11.208 -10.876 1.914
11.386 -10.802 1.972
11.417 -10.884 1.934
11.571799 -10.846601 1.9294001
11.64725 -10.867001 1.918
11.752143 -10.859143 1.9287144
11.857833 -10.842334 1.9321668
11.959125 -10.853001 1.9272499
12.062285 -10.875429 1.9222857
12.151167 -10.859333 1.9408334
12.247643 -10.862571 1.9306427
12.356957 -10.847652 1.9372609
12.441078 -10.857078 1.9303077
12.5545 -10.848166 1.9405001
12.6446 -10.847899 1.9362
12.737083 -10.853416 1.9276669
12.813 -10.804 1.948
12.945667 -10.874667 1.9063333
13.055092 -10.861001 1.9241817
13.153309 -10.855385 1.9257694
13.260001 -10.851001 1.926
13.491501 -10.8475 1.9505
13.56258 -10.841033 1.9366128
13.645885 -10.849231 1.9338077
13.743769 -10.847934 1.9379334
13.852727 -10.846698 1.9403028
13.946366 -10.849833 1.9449002
14.04039 -10.855055 1.9335556
14.146 -10.863499 1.9329998
14.245539 -10.861463 1.938154
14.352699 -10.857801 1.9361
14.440601 -10.846868 1.9431332
14.54289 -10.848889 1.9362223
14.660845 -10.841187 1.9630001
14.738239 -10.848001 1.9327585
14.841249 -10.84775 1.931875
14.961527 -10.848948 1.9479473
15.048864 -10.852091 1.9380003
15.150901 -10.8616 1.9321002
15.262601 -10.853 1.949
15.359443 -10.853445 1.9527779
15.457546 -10.849545 1.9454546
15.543636 -10.838819 1.9486365
15.644501 -10.846001 1.9356668
15.743999 -10.844168 1.9345001
15.856875 -10.851751 1.9538749
15.955115 -10.834973 1.9446145
16.048367 -10.842989 1.9434686
16.149193 -10.84344 1.9427978
16.24799 -10.844433 1.9428352
16.351208 -10.842798 1.9462327
16.445576 -10.846211 1.9450951
16.548534 -10.844547 1.9535726
16.646828 -10.848461 1.9460602
16.74518 -10.852307 1.9501284
16.835131 -10.85013 1.952348
16.958752 -10.841834 1.9392499
17.009001 -10.849 1.971
17.154902 -10.838655 1.9455907
17.249178 -10.842202 1.9478478
17.349535 -10.837243 1.9482971
17.450802 -10.838096 1.9415989
17.54841 -10.836217 1.9385676
17.650614 -10.834013 1.9311621
17.746847 -10.839154 1.9258881
17.835251 -10.831548 1.9237157
17.933083 -10.819834 1.9236667
18.176001 -10.861 1.9
18.268843 -10.838712 1.9125777
18.352753 -10.835446 1.9121053
18.448603 -10.840101 1.9134222
18.551962 -10.835973 1.9132117
18.649485 -10.834446 1.9140847
18.749887 -10.836565 1.9140797
18.847918 -10.835473 1.9161167
18.916103 -10.839027 1.913237
19.257 -10.843 1.901
19.348 -10.849 1.908
19.496 -10.871 1.902
19.56286 -10.842461 1.9267471
19.650059 -10.841075 1.9297018
19.750191 -10.840376 1.9252856
19.851847 -10.838939 1.9275385
19.948536 -10.840817 1.932238
20.05109 -10.841353 1.9346188
20.148514 -10.843512 1.9332697
20.246473 -10.844296 1.935315
20.350033 -10.845434 1.9378624
20.449324 -10.842791 1.9398417
20.509142 -10.831533 1.9407178
20.774986 -10.838984 1.9435568
20.849262 -10.837151 1.946973
20.949913 -10.83932 1.9491413
21.050369 -10.83756 1.9510609
21.14917 -10.831136 1.9508516
21.250048 -10.831529 1.9502544
21.348112 -10.829468 1.9507883
21.448118 -10.827061 1.9510057
21.547989 -10.821639 1.9494174
21.647463 -10.821253 1.9484932
21.703625 -10.826875 1.95075
21.889456 -10.818545 1.9337273
21.956923 -10.817098 1.9390765
22.052696 -10.815497 1.9415494
22.142429 -10.815786 1.9380002
22.248703 -10.8152 1.9341445
22.347824 -10.811061 1.9373503
22.447256 -10.808339 1.9407394
22.553778 -10.807016 1.9434865
22.639814 -10.808582 1.9333752
22.736746 -10.807487 1.9308569
22.830181 -10.806183 1.9352728
23.4505 -10.803251 1.9290001
23.555111 -10.803889 1.9503332
23.6574 -10.8072 1.9380001
23.74963 -10.812211 1.9327897
23.858236 -10.822999 1.9178823
23.950142 -10.832395 1.9125004
24.04612 -10.841917 1.9075199
24.241001 -10.816333 1.9286668
24.334667 -10.812 1.9050001
24.465 -10.828 1.904
24.563002 -10.834999 1.9029999
24.65275 -10.852 1.9225001
24.751184 -10.844344 1.9125311
24.850136 -10.8486 1.9131665
24.944813 -10.843963 1.9173334
25.050449 -10.846869 1.9195788
25.147928 -10.844324 1.92195
25.2118 -10.8513 1.9187001
25.450867 -10.851666 1.911667
25.554916 -10.851418 1.9166669
25.652733 -10.851335 1.9161334
25.755867 -10.848267 1.9199336
25.856936 -10.845881 1.9234545
25.949514 -10.842813 1.9269193
26.04603 -10.843794 1.9276177
26.153316 -10.842317 1.9355264
26.254997 -10.851168 1.9354587
26.343861 -10.844607 1.9345356
27.070229 -10.863077 1.9437696
27.153648 -10.865385 1.9416776
27.252584 -10.870829 1.9418278
27.350817 -10.868443 1.9422592
27.453138 -10.868835 1.9409167
27.515751 -10.86075 1.9460001
27.834 -10.863 1.914
28.256893 -10.862315 1.9564739
28.35107 -10.859572 1.9461071
28.451944 -10.856432 1.9520271
28.555189 -10.857843 1.9535626
28.656321 -10.844998 1.9461336
28.712334 -10.856833 1.9693334
28.972799 -10.8578 1.9572001
29.062944 -10.850411 1.957706
29.153465 -10.851821 1.9579287
29.250963 -10.846999 1.9591721
29.344278 -10.841119 1.9538401
29.44264 -10.83812 1.9602799
29.547556 -10.843483 1.9595182
29.647459 -10.839194 1.9607694
29.747549 -10.8433 1.9584
29.848385 -10.834347 1.9466155
29.937 -10.86025 1.9454999
3.7723336 -10.703667 1.9053334
3.855381 -10.706953 1.9237617
3.9523766 -10.713705 1.9224097
4.0513916 -10.722959 1.9267296
4.1323633 -10.729981 1.9304001
4.2779999 -10.702 1.932
4.3590002 -10.746 1.92
4.4570003 -10.754474 1.9370525
4.5611176 -10.728128 1.9493179
4.6512418 -10.740478 1.9457587
4.7487803 -10.741959 1.9514002
4.8520141 -10.753429 1.9494855
4.9492416 -10.763823 1.9478707
5.0485525 -10.774835 1.9474032
5.1488762 -10.785144 1.952268
5.2408185 -10.775183 1.9521819
5.4230003 -10.751699 1.9463999
6.4722729 -10.738318 1.919409
6.6496663 -10.734 1.9413888
7.5684824 -10.751102 1.9492244
7.605 -10.722 1.95
7.7615004 -10.730499 1.925
8.5373745 -10.779375 1.9680418
8.6335001 -10.7725 1.994
8.7735128 -10.750103 1.9492822
8.8059998 -10.759 1.9220001
8.9494209 -10.738685 1.946
9.9235258 -10.74358 1.9472107
10.084849 -10.747275 1.9485251
10.236 -10.79 1.966
10.324 -10.797 1.984
10.531 -10.7945 1.98
10.669 -10.8 1.9809999
10.792 -10.791 1.9680001
10.86475 -10.79525 1.9662499
10.966501 -10.791834 1.9735001
11.058195 -10.751584 1.9443334
11.197 -10.791 1.959
11.2236 -10.730901 1.9328002
11.488 -10.776 1.966
11.555 -10.787333 1.964
11.64225 -10.787251 1.96725
11.749499 -10.7915 1.9775
11.855333 -10.787333 1.9630001
11.954 -10.782665 1.9693334
12.050875 -10.78875 1.971125
12.125 -10.79 1.9779999
12.255595 -10.748563 1.9476253
12.390167 -10.777668 1.974
12.425667 -10.746694 1.9482501
12.541714 -10.780002 1.9708571
12.64375 -10.779125 1.966125
12.749801 -10.777102 1.9672998
12.848623 -10.776249 1.9621251
13.078 -10.7875 1.956
13.156002 -10.776714 1.969143
13.238001 -10.7741 1.9682999
13.328 -10.761 1.969
13.589819 -10.752455 1.9388864
13.632218 -10.756477 1.9633696
13.753751 -10.770625 1.9756874
13.84805 -10.770096 1.9762859
13.953349 -10.769599 1.9798001
14.053579 -10.771737 1.9804736
14.1395 -10.784 1.9827499
14.238144 -10.775572 1.9851429
14.340834 -10.775001 1.9868333
14.455 -10.7765 1.9795001
14.5785 -10.759061 1.95375
14.616572 -10.749286 1.9545714
14.747955 -10.746817 1.9473231
14.8335 -10.790501 1.984
14.969 -10.77 1.9960001
15.019 -10.786 1.988
15.439 -10.796 1.989
15.573 -10.776 1.9960001
15.787374 -10.754626 1.9463125
15.803667 -10.750334 1.9453334
15.964002 -10.764827 1.9385254
16.379 -10.797 1.975
16.9783 -10.7461 1.941
17.139067 -10.749542 1.9480001
17.466375 -10.797125 1.9761249
17.571812 -10.795876 1.9731251
17.65683 -10.793488 1.9678594
17.754963 -10.789415 1.96077
17.845036 -10.787587 1.9522104
17.948828 -10.78776 1.9436549
18.045168 -10.7845 1.9521668
18.135124 -10.750999 1.943625
18.275269 -10.749449 1.9464326
18.347841 -10.765182 1.948271
18.450041 -10.761172 1.9471306
18.550365 -10.760684 1.948696
18.650517 -10.759992 1.9456354
18.747478 -10.759049 1.9455829
18.840546 -10.760781 1.9339015
18.919312 -10.765277 1.9168966
19.049667 -10.754833 1.9696667
19.151335 -10.7545 1.9595001
19.265499 -10.742 1.9495
19.485832 -10.756667 1.9681667
19.585808 -10.786324 1.9408063
19.653778 -10.771322 1.9569449
19.750654 -10.773031 1.9614395
19.848701 -10.772662 1.9636146
19.949247 -10.772707 1.9662982
20.049519 -10.769785 1.9651541
20.148726 -10.772883 1.9687294
20.24703 -10.77354 1.9717913
20.348824 -10.77508 1.9747398
20.449017 -10.772079 1.9770609
20.513538 -10.754375 1.960101
20.770491 -10.765875 1.9801449
20.84848 -10.768882 1.9834709
20.949152 -10.764992 1.9838053
21.047997 -10.760562 1.9835927
21.149868 -10.757701 1.9842296
21.252207 -10.754139 1.9840375
21.343987 -10.742864 1.9813017
21.449368 -10.75471 1.9864547
21.551798 -10.748215 1.9855843
21.658089 -10.748078 1.9691734
21.702101 -10.7893 1.9818999
21.876091 -10.722819 1.9574546
21.976925 -10.742233 1.9738275
22.049589 -10.760478 1.9772779
22.152861 -10.764919 1.9738532
22.248814 -10.760529 1.9757743
22.344608 -10.761198 1.9732004
22.450878 -10.76317 1.9750042
22.548647 -10.764504 1.9746099
22.65032 -10.766319 1.9710469
22.753595 -10.764597 1.9668825
22.827227 -10.773204 1.9552649
23.466469 -10.783936 1.9320667
23.548717 -10.777282 1.9502566
23.650797 -10.777205 1.9479156
23.758764 -10.78092 1.9449496
23.849886 -10.779517 1.9487976
23.952539 -10.779792 1.9513282
24.039558 -10.7629 1.9500924
24.239222 -10.784 1.9604446
24.353922 -10.782462 1.9604617
24.4627 -10.7816 1.9567999
24.556501 -10.785701 1.9571999
24.664511 -10.779756 1.9394144
24.749092 -10.773847 1.9537694
24.85063 -10.775285 1.9492667
24.947021 -10.776528 1.9518772
25.052017 -10.780281 1.9566925
25.137669 -10.756218 1.9493755
25.388668 -10.757 1.966
25.449293 -10.784542 1.9570417
25.546152 -10.779001 1.9605
25.648869 -10.780608 1.9604347
25.757401 -10.775149 1.9611
25.852543 -10.776104 1.9632709
25.942776 -10.773251 1.9634999
26.050726 -10.771635 1.9674094
26.145634 -10.772578 1.9639473
26.273117 -10.754903 1.9508784
26.309448 -10.744397 1.9489734
27.0725 -10.777751 1.9810001
27.138702 -10.777101 1.9846001
27.247545 -10.781911 1.9864546
27.352182 -10.787091 1.99
27.472403 -10.756552 1.96665
27.507 -10.756573 1.942
28.668558 -10.751632 1.9493158
29.825674 -10.743352 1.9485679
3.3550627 -10.633436 1.9290625
3.4562452 -10.636087 1.9342841
3.5457726 -10.644068 1.9365392
3.649472 -10.660251 1.937559
3.7518082 -10.661874 1.9395986
3.8507166 -10.652072 1.9496871
3.9469252 -10.646169 1.960025
4.0477338 -10.649584 1.9636915
4.1190867 -10.639523 1.946228
4.3569999 -10.649333 1.9493334
4.4499998 -10.686715 1.9652858
4.546 -10.694728 1.9747274
4.6082501 -10.692999 1.9899999
5.2771249 -10.658625 1.9427501
5.4381666 -10.667251 1.9564166
6.4671793 -10.643459 1.9384799
6.5566664 -10.607778 1.9085557
6.6473627 -10.63594 1.9417577
7.5715995 -10.649415 1.9479851
7.650001 -10.615466 1.9234672
7.7608571 -10.631001 1.9344288
8.7816429 -10.637217 1.9562857
8.8039999 -10.605 1.973
8.9417219 -10.657333 1.960889
9.9237156 -10.635859 1.9409288
10.084472 -10.64961 1.9497501
10.10275 -10.661499 1.9407501
11.058063 -10.649918 1.9482498
11.227777 -10.641612 1.9482223
12.263 -10.662474 1.9545262
12.422377 -10.673666 1.9582083
13.445 -10.602 1.916
13.588823 -10.650515 1.9503528
13.603642 -10.658786 1.9525715
14.58491 -10.646545 1.9512727
14.605534 -10.655734 1.9452667
14.75237 -10.651943 1.9476068
15.78911 -10.658444 1.9592222
15.806667 -10.6595 1.9310001
15.9835 -10.681 1.9535
16.968178 -10.637305 1.927739
17.048553 -10.616128 1.9150318
17.13003 -10.650022 1.9481858
18.131332 -10.656056 1.9497778
18.283535 -10.64599 1.9470726
18.318333 -10.673332 1.9549999
18.431999 -10.67 1.998
18.691 -10.663 1.997
19.280102 -10.656401 1.9521999
19.304401 -10.6484 1.9359999
19.473906 -10.65643 1.9522382
19.739 -10.602 1.975
20.522083 -10.652116 1.9502567
20.727749 -10.623313 1.94275
21.670862 -10.646913 1.9478798
21.861856 -10.631572 1.9337143
21.953001 -10.6832 1.974
22.061001 -10.7 1.998
22.156502 -10.694167 1.9960001
22.257223 -10.696889 1.9946667
22.35017 -10.695333 1.9921668
22.449265 -10.695466 1.9939333
22.552681 -10.695412 1.9899547
22.649393 -10.695738 1.9926087
22.768053 -10.693659 1.9555526
22.820999 -10.633334 1.9476666
23.546667 -10.697001 1.9966667
23.655001 -10.7 1.997
23.771332 -10.698668 1.9960001
23.822001 -10.699 1.998
23.98452 -10.635002 1.939698
24.021715 -10.67743 1.9699285
25.143051 -10.650473 1.9473255
26.291971 -10.655365 1.9553901
26.308105 -10.640526 1.9380262
27.490568 -10.632302 1.9418665
27.519617 -10.636154 1.9268465
27.628498 -10.608 1.908
28.663034 -10.651416 1.9476891
28.758999 -10.603 1.9054999
28.84375 -10.606 1.9124999
29.797501 -10.627001 1.9565001
29.815712 -10.654814 1.9490418
2.6660335 -10.510434 1.9106004
2.7577579 -10.512936 1.9296424
2.8506718 -10.526097 1.9364935
2.9503202 -10.54259 1.9378113
3.0232952 -10.550091 1.9382389
3.1352501 -10.5345 1.94875
3.2690001 -10.537333 1.9726667
3.3600771 -10.539 1.9723077
3.4477468 -10.551074 1.970221
3.5482354 -10.564589 1.967918
3.6477501 -10.57713 1.9678812
3.7518332 -10.587466 1.9710834
3.8359411 -10.593706 1.974353
3.9000001 -10.599 1.973
4.1255012 -10.548393 1.9474143
4.2779999 -10.51 1.9125
4.3291664 -10.543501 1.9338335
4.4660001 -10.5915 1.975
4.8640003 -10.52 1.9056667
4.9050002 -10.556 1.904
5.0300002 -10.508 1.919
5.272429 -10.528228 1.9552859
5.4720001 -10.569 1.954
5.5019999 -10.538 1.908
5.7752004 -10.516001 1.9114001
5.8381996 -10.5153 1.9560999
5.9860001 -10.547 1.916
6.0203338 -10.516334 1.937
6.4748778 -10.565512 1.965561
6.5480018 -10.563762 1.9550002
6.6328382 -10.563723 1.96093
7.5763602 -10.57576 1.9656798
7.6517935 -10.566725 1.9635518
7.7390628 -10.573938 1.9705625
8.3766251 -10.51575 1.9382501
8.4309998 -10.554077 1.9293077
8.7882738 -10.550364 1.9464548
8.8000002 -10.504 1.966
8.9589996 -10.515 1.984
9.3825998 -10.5148 1.9254
9.8605003 -10.544001 1.9175
9.9420319 -10.535771 1.94159
10.067338 -10.541574 1.943779
10.104 -10.554001 1.9366668
11.069418 -10.547359 1.9492655
11.149775 -10.534823 1.93695
11.223083 -10.552042 1.9507917
11.873668 -10.522667 1.9336666
11.906 -10.5275 1.9095
12.269198 -10.541499 1.9604002
12.84975 -10.51775 1.91725
13.383 -10.5665 1.9575
13.460752 -10.552359 1.9527858
13.564476 -10.558241 1.9556131
13.6065 -10.5665 1.9564999
14.56592 -10.56572 1.9484799
14.644026 -10.556359 1.9519272
14.744112 -10.560874 1.9595824
15.395 -10.501 1.9119999
15.431801 -10.524 1.9416001
15.576 -10.506 1.997
15.636001 -10.507334 1.9503334
15.787 -10.529 1.915
15.811501 -10.560499 1.9790001
16.048 -10.526333 1.926
16.138 -10.507 1.965
16.363033 -10.521105 1.9252762
16.895 -10.599 1.998
16.979265 -10.572803 1.9690216
17.052496 -10.570157 1.9634073
17.117807 -10.575307 1.9689666
18.073309 -10.517847 1.959
18.152704 -10.522943 1.9237139
18.263927 -10.541915 1.9410754
18.306999 -10.52 1.924
19.295 -10.569 1.9170001
19.315001 -10.56 1.9736665
19.467398 -10.539383 1.9721535
19.565001 -10.511 1.916
20.557737 -10.536354 1.9411241
20.651577 -10.532372 1.9355084
20.711542 -10.541259 1.9437186
21.672871 -10.541183 1.9418057
21.750938 -10.518128 1.9200045
21.828154 -10.527612 1.9279392
22.575001 -10.523001 1.9089999
22.799 -10.538 1.969
22.817001 -10.55 1.941
23.980232 -10.547307 1.9492393
24.005001 -10.561501 1.947
25.150663 -10.546491 1.945408
25.246256 -10.520458 1.9213715
25.316 -10.5512 1.9278001
26.1525 -10.5175 1.913
26.284052 -10.5747 1.9494499
26.311714 -10.578714 1.9668573
27.487211 -10.56593 1.96214
27.541555 -10.551804 1.9543934
27.632421 -10.55979 1.9451579
27.7045 -10.563 1.9554999
28.671099 -10.562576 1.9627694
28.751839 -10.553529 1.9524488
28.833069 -10.555138 1.9524482
28.941999 -10.541 1.998
29.761625 -10.530126 1.9475
29.816109 -10.570178 1.946643
2.175 -10.425 1.919
2.2691252 -10.428374 1.934375
2.3221667 -10.434668 1.9514999
2.6655438 -10.479483 1.9352596
2.74296 -10.452219 1.9624246
2.8487084 -10.448197 1.972399
2.9608624 -10.455643 1.9641222
3.0099001 -10.455149 1.9523835
3.1703331 -10.447888 1.9472222
4.1492586 -10.446471 1.9477899
4.2420602 -10.434689 1.9374884
4.3118334 -10.477501 1.9515833
4.7637005 -10.422935 1.9477004
4.8183131 -10.476125 1.933625
4.9733334 -10.431001 1.948
5.2529893 -10.445505 1.945565
5.5102501 -10.45175 1.957
5.789 -10.4894 1.9113998
5.8500619 -10.442393 1.9472276
5.901 -10.402 1.977
6.0563846 -10.452538 1.9375385
6.1107497 -10.4215 1.976
8.2874613 -10.424768 1.979
8.3378649 -10.455432 1.9375943
8.4864998 -10.410749 1.98125
8.53475 -10.436875 1.9383749
8.7734556 -10.43788 1.9433635
8.8030005 -10.412 1.959
9.0255718 -10.437286 1.9372859
9.1663342 -10.429085 1.9278334
9.2261667 -10.429834 1.9763334
9.3850002 -10.4895 1.95
9.4446325 -10.443533 1.9454335
9.883667 -10.480667 1.9853334
9.9529009 -10.480499 1.9808
10.049592 -10.481295 1.9815925
10.102 -10.496 1.987
11.072166 -10.49 1.9808334
11.147092 -10.489637 1.9905453
11.236 -10.491 1.997
11.778358 -10.419144 1.9540714
11.831825 -10.467706 1.935647
11.988 -10.404 1.95
12.02 -10.407 1.9
12.253301 -10.447401 1.95
12.688 -10.469 1.926
12.738 -10.446501 1.9645
12.8895 -10.4835 1.901
12.944758 -10.441485 1.9409187
13.004999 -10.4065 1.992
13.568 -10.499 1.995
15.35496 -10.438543 1.9398334
15.412 -10.406 1.906
15.569189 -10.431437 1.9670002
15.618875 -10.456688 1.9297501
15.789333 -10.438084 1.9473333
15.81 -10.495 1.995
16.033981 -10.433977 1.9457052
16.158001 -10.430715 1.9378573
16.225002 -10.412167 1.9530001
16.381403 -10.4595 1.9166536
16.433151 -10.440193 1.959046
18.081602 -10.4824 1.9794
18.152761 -10.47118 1.9683646
18.24494 -10.47647 1.9722458
18.884249 -10.4115 1.9269999
18.933699 -10.439301 1.9363998
19.036335 -10.464001 1.9423335
19.147982 -10.418786 1.9414078
19.208 -10.424 1.903
19.486366 -10.442541 1.9438
19.5798 -10.434001 1.9278001
19.637001 -10.429 1.9558573
19.787666 -10.486 1.9069999
19.846031 -10.430257 1.936486
20.563471 -10.490215 1.9812562
20.646069 -10.48646 1.9796299
20.706589 -10.489912 1.9842942
21.679686 -10.475701 1.9710659
21.748144 -10.472433 1.9676096
21.814463 -10.475778 1.9663451
22.452021 -10.425776 1.933867
22.521004 -10.474889 1.9105555
22.813499 -10.490499 1.9585
23.981653 -10.449362 1.9488174
24.046801 -10.424208 1.9302071
24.129272 -10.424604 1.9247707
24.227001 -10.46 1.9455
25.164528 -10.477386 1.9694475
25.24398 -10.476523 1.9691814
25.321499 -10.482666 1.9741666
25.9844 -10.4128 1.9869999
26.043407 -10.440634 1.9353675
26.112 -10.494 1.9069999
27.493999 -10.5 1.992
27.534 -10.497 1.995
29.654202 -10.436833 1.9522334
29.71711 -10.480667 1.9193333
30.115332 -10.428667 1.9573333
1.4693334 -10.302999 1.9136667
1.55525 -10.304999 1.9123126
1.6570247 -10.312951 1.9343724
1.7266251 -10.334312 1.9246564
1.8203334 -10.324667 1.9360001
1.983 -10.3585 1.937
2.049 -10.320499 1.931
2.1577499 -10.3365 1.9725
2.2553334 -10.34611 1.9738889
2.3428888 -10.349001 1.9793333
2.7379999 -10.39625 1.982
2.9956286 -10.354328 1.9504286
3.0037217 -10.345546 1.9525347
3.1744287 -10.3545 1.9478571
4.1624603 -10.382178 1.97806
4.2286334 -10.387534 1.9785664
4.6840739 -10.328999 1.9767036
4.7312679 -10.350623 1.9338411
4.8643336 -10.304 1.9030001
4.9294996 -10.333188 1.9314375
5.2658019 -10.350065 1.9480419
5.3213334 -10.33 1.9146667
5.461556 -10.308 1.9105555
5.5223866 -10.340292 1.9306451
5.8825564 -10.376556 1.9303702
5.9442139 -10.344965 1.9524496
6.0485244 -10.338935 1.9402862
6.1376371 -10.339878 1.9569393
6.2140002 -10.304 1.993
8.2622499 -10.345134 1.9566169
8.3453264 -10.336795 1.9307551
8.4442863 -10.341549 1.941738
8.5178757 -10.380125 1.9253749
8.775259 -10.348104 1.9489828
8.8126669 -10.337 1.952
8.9910002 -10.373667 1.9373335
9.021368 -10.340066 1.9518666
9.1766005 -10.378 1.9100001
9.2573271 -10.350672 1.9443967
9.3490973 -10.339366 1.9395189
9.4570618 -10.343402 1.939169
9.5339985 -10.33122 1.9679375
9.6210003 -10.318 1.9809999
11.6848 -10.3148 1.9539999
11.747791 -10.345132 1.940158
11.842334 -10.312001 1.9103334
11.951999 -10.335999 1.9477272
12.022 -10.375 1.921
12.248772 -10.341591 1.9435
12.486217 -10.344677 1.950757
12.505 -10.375334 1.9126667
12.761667 -10.323668 1.9203334
12.834601 -10.3156 1.9139999
12.96876 -10.35196 1.9241601
13.032244 -10.338732 1.960433
15.280458 -10.347458 1.9788752
15.356841 -10.353999 1.955817
15.454666 -10.351829 1.9498732
15.540645 -10.368709 1.9454483
15.6045 -10.3925 1.9054999
15.778359 -10.340571 1.9462142
15.8435 -10.31925 1.924
15.927001 -10.309001 1.9063333
16.033058 -10.346757 1.9480224
16.195 -10.397 1.936
16.267668 -10.37227 1.9375418
16.35508 -10.35509 1.9425702
16.449612 -10.352215 1.9639016
16.509062 -10.330938 1.9910626
18.775249 -10.318001 1.99225
18.86754 -10.331785 1.9350575
18.946659 -10.318414 1.9169688
19.055971 -10.32715 1.9402869
19.122456 -10.367979 1.9295238
19.283274 -10.338 1.948
19.302 -10.343 1.9220001
19.495531 -10.341578 1.9391576
19.509188 -10.345778 1.9505657
19.661383 -10.325386 1.921279
19.740999 -10.311377 1.9111503
19.862841 -10.340407 1.9151672
19.9146 -10.3316 1.9275999
22.365032 -10.335006 1.9531767
22.414135 -10.375936 1.9274001
22.693001 -10.308 1.938
22.78838 -10.334585 1.9510823
22.804499 -10.333651 1.9476502
23.459 -10.301 1.936
23.984026 -10.383051 1.97759
24.046047 -10.381268 1.977015
24.131662 -10.381728 1.9760911
25.959898 -10.343986 1.9579865
26.02503 -10.352449 1.919921
26.151825 -10.31894 1.9242352
26.26619 -10.326194 1.9282694
26.310211 -10.320107 1.945421
26.5825 -10.3685 1.9395001
26.654249 -10.331181 1.954036
26.74938 -10.324352 1.9352061
26.833689 -10.319813 1.9349375
26.900999 -10.317 1.9680001
29.568468 -10.340593 1.9738749
29.644508 -10.343982 1.9386276
29.753723 -10.332944 1.9362499
29.810606 -10.326467 1.9350666
30.134501 -10.34675 1.9484999
0.98262501 -10.206625 1.90775
1.0673693 -10.212418 1.9138768
1.1611205 -10.217977 1.9278697
1.2504122 -10.224617 1.9328134
1.3500484 -10.245991 1.9367369
1.4486071 -10.257675 1.9369731
1.5505385 -10.262392 1.9442254
1.6250237 -10.271231 1.9562484
1.7617273 -10.245363 1.9796362
1.8325385 -10.242308 1.9550002
2.0445554 -10.255778 1.9461111
2.9955072 -10.257117 1.9505799
3.0428843 -10.237445 1.9435357
3.1473138 -10.237095 1.9427308
3.21 -10.252834 1.9626667
4.6669888 -10.24379 1.9653683
4.7469373 -10.246926 1.9453492
4.8431196 -10.259381 1.9418584
4.9169998 -10.2855 1.9445
5.281239 -10.257414 1.9595103
5.3506384 -10.246149 1.9494629
5.4514933 -10.261791 1.9526104
5.5182309 -10.270268 1.9653463
5.9805999 -10.2948 1.9893999
6.0522008 -10.290999 1.9865336
6.1461248 -10.290437 1.9906249
8.1805 -10.28325 1.9955
8.2535839 -10.282124 1.9848332
8.3499994 -10.283276 1.9761723
8.4215002 -10.292999 1.9635
8.7809467 -10.256716 1.9544646
8.8496275 -10.238492 1.9447448
8.9553165 -10.237352 1.9490002
9.0195847 -10.260792 1.9599314
9.283 -10.292 1.972
9.3506002 -10.2927 1.9864998
9.4449291 -10.29 1.9849287
9.5454626 -10.286539 1.9908459
11.67427 -10.262001 1.9788461
11.757833 -10.260417 1.9648054
11.850022 -10.262326 1.9566737
11.920761 -10.281191 1.9440477
12.24811 -10.247513 1.9449731
12.338428 -10.210286 1.9032857
12.483201 -10.242688 1.9424663
12.506474 -10.246316 1.9450527
12.859334 -10.278222 1.9613334
12.950315 -10.275842 1.9583682
13.052448 -10.270967 1.9721726
13.10975 -10.2665 1.9965
15.780803 -10.260121 1.9608049
15.842845 -10.250813 1.9521133
15.944761 -10.249854 1.9476036
16.02844 -10.259666 1.9603872
16.441334 -10.297001 1.9956667
18.787788 -10.257879 1.9922428
18.857548 -10.265985 1.9712263
18.94943 -10.269902 1.9629633
19.02187 -10.287732 1.9624149
19.258072 -10.22893 1.9323939
19.346691 -10.212224 1.9145637
19.46981 -10.232334 1.9254174
19.501488 -10.261312 1.9618204
19.687452 -10.294606 1.923788
19.746155 -10.28863 1.9214624
19.840693 -10.270863 1.934042
19.943546 -10.241514 1.9610001
20.01025 -10.226 1.9937499
22.279305 -10.22779 1.9799078
22.346998 -10.243316 1.9397461
22.448496 -10.224795 1.9297458
22.537224 -10.230213 1.927096
22.6075 -10.253 1.903
22.78858 -10.249576 1.952919
22.804298 -10.251625 1.9369999
23.08 -10.214 1.9
23.184208 -10.270033 1.9171518
23.246729 -10.238301 1.9475276
23.349585 -10.229399 1.932222
23.435125 -10.229104 1.9447244
23.515501 -10.23475 1.9835
25.888418 -10.269084 1.9913335
25.944538 -10.273154 1.9682571
26.044094 -10.274763 1.9633808
26.134602 -10.2809 1.9719
26.289064 -10.251124 1.9551877
26.31609 -10.246716 1.9477272
26.449108 -10.223578 1.923842
26.545315 -10.224874 1.94775
26.653334 -10.280001 1.9623334
26.756611 -10.284349 1.9776957
26.844774 -10.277257 1.9780647
26.921333 -10.277 1.9893335
29.559702 -10.2882 1.9924999
29.650333 -10.286 1.9844445
29.781506 -10.256462 1.9667308
29.818869 -10.2451 1.9337255
29.945301 -10.2129 1.9124001
30.064817 -10.226637 1.9199091
30.131748 -10.286249 1.9755
31.087 -10.209 1.908
0.48769999 -10.1106 1.9066998
0.56686455 -10.109389 1.9124066
0.65733308 -10.113964 1.9215453
0.71757931 -10.116683 1.9294946
0.829 -10.12 1.9254999
0.98049098 -10.155729 1.9371395
1.0488272 -10.151937 1.9490988
1.1451976 -10.15085 1.9588721
1.2483764 -10.148678 1.9657469
1.347609 -10.162834 1.9680558
1.4463681 -10.177459 1.9676869
1.543942 -10.189157 1.9743
1.6084999 -10.192167 1.9613333
1.8556225 -10.143443 1.9581305
2.0343335 -10.166667 1.9495555
2.2975001 -10.113501 1.9154999
2.9885001 -10.1765 1.9905
3.0504222 -10.188844 1.9843103
3.1428425 -10.191711 1.9836843
4.5929999 -10.163 1.999
4.6507993 -10.1888 1.98952
4.7573752 -10.196876 1.9947499
4.8000002 -10.199 1.994
5.2919998 -10.198 1.995
5.3619657 -10.148482 1.9914136
5.4496789 -10.153071 1.9946429
5.5079999 -10.168 1.998
8.7869997 -10.187 1.9909999
8.8487501 -10.191 1.993875
8.9492865 -10.193999 1.991143
12.1845 -10.160999 1.9825001
12.258915 -10.165522 1.9588697
12.349975 -10.160453 1.954175
12.45824 -10.16576 1.9607586
12.510556 -10.165889 1.9632221
15.894 -10.2 1.995
15.950001 -10.199667 1.9946668
19.278658 -10.169506 1.9622195
19.346739 -10.173486 1.9518667
19.443508 -10.182527 1.9385912
19.507999 -10.158875 1.969375
22.270687 -10.185707 1.9844083
22.355104 -10.182662 1.9788119
22.445225 -10.184027 1.9750962
22.508001 -10.190573 1.9650002
22.78896 -10.156681 1.9547355
22.84342 -10.137009 1.9414996
22.947254 -10.135147 1.939224
23.015818 -10.137803 1.9368418
23.28825 -10.194814 1.975
23.347828 -10.185926 1.9805512
23.443798 -10.185741 1.9831455
23.50625 -10.182751 1.99325
26.339191 -10.182539 1.9758463
26.447136 -10.183535 1.9759332
26.520124 -10.184 1.9892501
29.792385 -10.179077 1.9663846
29.845238 -10.16966 1.9640265
29.944904 -10.169097 1.9601613
30.068125 -10.146803 1.9443439
30.953779 -10.158889 1.9362221
31.050859 -10.141857 1.9450001
31.158701 -10.136749 1.9421002
31.205601 -10.1322 1.934
31.547501 -10.129 1.923
31.653252 -10.13475 1.926
31.7456 -10.1334 1.9212
-0.011333333 -10.004667 1.904
0.065647043 -10.012558 1.9055883
0.16351847 -10.011617 1.9255707
0.2498671 -10.023429 1.9295323
0.35145184 -10.039742 1.9300182
0.45203373 -10.045698 1.9361278
0.55066663 -10.050492 1.9446162
0.63944888 -10.051862 1.9545753
0.71958888 -10.046037 1.9617094
0.83574998 -10.0475 1.9547501
0.97858357 -10.090017 1.9704335
1.0339187 -10.090702 1.9801084
1.1221999 -10.0951 1.9733002
1.881442 -10.055432 1.9530244
1.9002501 -10.054251 1.941
2.0425 -10.0415 1.9705
2.105 -10.007 1.923
2.2888572 -10.073857 1.9072858
2.3410468 -10.026267 1.9372442
2.4017501 -10.0135 1.9855
2.5582728 -10.047545 1.9282726
2.6269999 -10.02175 1.96275
3.1429999 -10.037 1.975
3.244 -10.064 1.999
5.3658233 -10.048642 1.9889643
5.4445629 -10.054156 1.989375
5.5143332 -10.043 1.9940002
21.575001 -10.050667 1.9791667
22.786423 -10.088684 1.9871579
22.84594 -10.051581 1.9794166
22.944956 -10.052223 1.9719589
23.016073 -10.058571 1.9820715
26.452667 -10.034667 1.972
30.075068 -10.053256 1.9524543
30.120447 -10.034389 1.9220556
30.886999 -10.09 1.9960001
30.960335 -10.089667 1.9970001
31.060001 -10.08675 1.9912499
31.174864 -10.050182 1.9602271
31.202999 -10.052 1.9680001
31.654999 -10.0835 1.97
31.7335 -10.0825 1.971
32.816498 -10.066 1.9189999
33.346001 -10.0315 1.9135001
38.740002 -10.034 1.918
-0.44716668 -9.9048338 1.9138334
-0.3608 -9.9118996 1.9196001
-0.236 -9.9265003 1.9170001
-0.13183838 -9.9440184 1.9288137
-0.046741012 -9.947464 1.9332093
0.049999986 -9.9487314 1.9443996
0.1461204 -9.95368 1.9521717
0.24804279 -9.9529057 1.9619491
0.3495245 -9.9720669 1.9655263
0.44567284 -9.9854746 1.96728
0.53342146 -9.9891567 1.972549
0.6293 -9.997201 1.9726
0.74615383 -9.9393482 1.9402308
0.92233336 -9.9433336 1.9350002
1.4568095 -9.9210958 1.9216669
1.6906667 -9.9366674 1.9453334
1.7043333 -9.9146671 1.9086666
1.8864297 -9.942524 1.9443671
1.9 -9.9720001 1.9660001
2.0810001 -9.9300003 1.905
2.1090002 -9.9458342 1.9378335
2.3756344 -9.9662609 1.9292499
2.4442401 -9.9255705 1.9418977
2.5489745 -9.9154177 1.9175572
2.6336479 -9.9253197 1.934011
2.7206666 -9.9211674 1.9835
5.3710294 -9.9524708 1.9877059
5.4461722 -9.9496889 1.9851381
5.5247273 -9.9482727 1.9925452
22.848164 -9.9494562 1.9770646
22.945538 -9.9502897 1.9693582
23.017462 -9.9568462 1.9815385
26.408001 -9.9960003 1.9579999
30.090107 -9.9528131 1.9456054
30.109035 -9.9451466 1.953185
31.184444 -9.9431124 1.9498334
31.233 -9.9165001 1.91425
32.138 -9.9134998 1.9350001
33.368946 -9.9450006 1.9417778
34.081001 -9.9829998 1.905
34.377998 -9.9060001 1.9
38.742001 -9.9209995 1.915
39.785999 -9.908 1.975
-0.8248865 -9.8074074 1.9297729
-0.74743277 -9.8188944 1.9276547
-0.64872098 -9.8346672 1.9261671
-0.54619235 -9.8434858 1.9323766
-0.45326343 -9.841897 1.9409256
-0.36863887 -9.8263063 1.9491389
-0.233 -9.8590002 1.9760001
-0.12670209 -9.8624086 1.9572176
-0.058340352 -9.8827133 1.9641937
0.041000005 -9.8895979 1.9770464
0.12100001 -9.8976669 1.9703335
0.227 -9.8979998 1.99
0.75266123 -9.8430929 1.9444004
0.93600005 -9.8308582 1.9347143
1.3806818 -9.8297052 1.9609547
1.4199117 -9.8619699 1.923941
1.6477002 -9.8402672 1.9371334
1.889957 -9.8486567 1.9482473
1.9168439 -9.8288431 1.9371876
2.05422 -9.8094606 1.9115399
2.1214166 -9.8284159 1.924979
2.4699469 -9.8872375 1.9543853
2.5484211 -9.8766203 1.964339
2.6450062 -9.8776093 1.9723349
2.7158966 -9.876689 1.9873796
5.3782821 -9.8482828 1.9845383
5.4534826 -9.8504829 1.9827095
5.5348339 -9.8448334 1.9915556
22.849527 -9.8493862 1.9755512
22.94474 -9.850461 1.9646398
23.0179 -9.8443003 1.9806002
30.092003 -9.8533764 1.9466666
30.10918 -9.8515463 1.946697
30.668333 -9.8040009 1.9536667
30.759001 -9.8199997 1.9069999
31.176571 -9.8508577 1.9772857
31.229168 -9.8874998 1.9376667
32.138332 -9.8741665 1.9318335
33.359337 -9.8763342 1.919
34.38467 -9.8606672 1.915
-1.1190001 -9.7110004 1.9433334
-1.0268793 -9.7559147 1.9202648
-0.94320059 -9.7420759 1.9372833
-0.85186481 -9.7494335 1.9460928
-0.75140071 -9.7502031 1.9559246
-0.64928609 -9.7698288 1.9545615
-0.55872846 -9.7810459 1.9645541
-0.45060998 -9.78967 1.9722791
-0.37193751 -9.7841253 1.9525001
-0.13090162 -9.7416782 1.9433525
0.77257597 -9.7312441 1.9353523
0.85435569 -9.7164116 1.920158
0.92343712 -9.7287264 1.9324192
1.2952501 -9.7097492 1.9855
1.3599823 -9.7325716 1.9351933
1.4518507 -9.7236433 1.9233232
1.5465631 -9.7358465 1.9266704
1.6143718 -9.7706575 1.9170574
1.8938925 -9.7645321 1.9597028
1.9442651 -9.7511091 1.9449873
2.0496819 -9.7630472 1.9291142
2.1171999 -9.7545881 1.939887
5.3812151 -9.7505722 1.985893
5.4377413 -9.7551613 1.9806776
5.52913 -9.7466087 1.9891739
22.794668 -9.7379999 1.9806666
22.847063 -9.7521868 1.9749395
22.941172 -9.7501984 1.9610134
23.024834 -9.7462502 1.9810834
30.093966 -9.7535496 1.9563546
30.106928 -9.7562304 1.940923
30.592499 -9.7490005 1.926
30.675499 -9.7845001 1.9436667
30.703665 -9.7753334 1.9620001
31.1689 -9.7465677 1.9448668
31.226599 -9.7200003 1.9722
33.377998 -9.7519999 1.9579999
34.390499 -9.7320004 1.972
35.514 -9.7080002 1.9400001
36.553001 -9.7709999 1.927
37.709999 -9.7770004 1.913
-1.7285 -9.6035004 1.9119999
-1.6216002 -9.6255999 1.9138001
-1.5761111 -9.6468887 1.914
-1.3146713 -9.6217432 1.9615854
-1.2703124 -9.6342821 1.9662501
-1.1445832 -9.6781673 1.94625
-1.0534999 -9.6873007 1.9640999
-0.92999995 -9.6906681 1.9648628
-0.88144445 -9.6903324 1.9611669
-0.32100001 -9.6059999 1.9275
-0.28380001 -9.6134005 1.9186001
-0.12574033 -9.6424398 1.9446353
0.78326696 -9.6791544 1.9697888
0.84690976 -9.673502 1.9654516
0.92164433 -9.6804733 1.9753052
1.1635 -9.6169996 1.9905
1.2838331 -9.6503038 1.9862599
1.3490736 -9.6643696 1.9683
1.4473542 -9.6719999 1.9701005
1.5193921 -9.6805744 1.9683195
1.6 -9.6450005 1.999
1.895 -9.6949997 1.987
1.9666445 -9.650609 1.9553455
2.0482743 -9.6487198 1.926121
2.1289008 -9.6517448 1.9393666
5.3890581 -9.6534405 1.9851176
5.4448609 -9.653307 1.9785835
5.5405865 -9.6487589 1.9853448
22.795399 -9.6384001 1.9834
22.843813 -9.6498661 1.9720539
22.94964 -9.6495752 1.961983
23.0165 -9.6399174 1.9701666
30.08967 -9.6806669 1.9490478
30.136997 -9.6510983 1.9506276
30.247555 -9.6397219 1.9509443
30.349304 -9.6448011 1.946575
30.442635 -9.6385002 1.9436667
30.527237 -9.630353 1.9537646
31.1758 -9.6924 1.9218
31.219 -9.6779995 1.92125
32.146 -9.6020002 1.98
32.210999 -9.6079998 1.967
33.3675 -9.6879997 1.98825
33.442665 -9.6796665 1.9686668
33.528999 -9.6586666 1.9786667
34.377335 -9.6589994 1.9686667
34.473999 -9.6275005 1.941
35.479 -9.6689997 1.9795001
36.54425 -9.6352501 1.9425
36.619999 -9.6459999 1.978
39.061001 -9.632 1.941
-2.4425173 -9.5072412 1.9138964
-2.3486443 -9.5184917 1.9136102
-2.2702262 -9.527935 1.9108061
-2.177 -9.5300007 1.9054999
-1.9215416 -9.5149174 1.9820417
-1.8590486 -9.5271072 1.9503888
-1.7183335 -9.5555 1.9598334
-1.646625 -9.5721245 1.9483751
-1.5557221 -9.5708055 1.9486945
-1.4860001 -9.5065002 1.931
-1.3078115 -9.5561218 1.9484527
-1.2962573 -9.5323572 1.9371427
-0.77399999 -9.5345001 1.9419999
-0.31315386 -9.5649233 1.9465386
-0.24755074 -9.5403023 1.9448791
-0.15577246 -9.5537825 1.9516522
0.29300001 -9.5480003 1.997
0.44275001 -9.5135002 1.99125
0.52566665 -9.5186672 1.993
0.64933336 -9.5266666 1.9846667
0.73200005 -9.5236673 1.9856668
0.86475003 -9.5147495 1.9950001
0.94850004 -9.531167 1.9963334
1.0701818 -9.5580912 1.9926364
1.1454726 -9.5710001 1.9934911
1.2429563 -9.5817528 1.9940578
1.3384999 -9.5936918 1.9953849
1.41 -9.5950003 1.992
1.9749378 -9.551198 1.9568977
2.0474591 -9.5500393 1.9245666
2.1251578 -9.5498648 1.9275264
5.3920331 -9.548933 1.9800668
5.4346189 -9.5532074 1.9766469
5.5404482 -9.549758 1.9811724
5.6030002 -9.5830002 1.993
22.796801 -9.5630007 1.9799999
22.846071 -9.5514307 1.9735663
22.945513 -9.550354 1.96014
23.023668 -9.5566673 1.9688889
26.462999 -9.5790005 1.992
26.516001 -9.5869999 1.993
30.327 -9.5970001 1.997
30.457001 -9.5966673 1.9883332
30.563 -9.592 1.9925001
32.126434 -9.5476809 1.9555197
32.23 -9.5889997 1.927
33.391998 -9.5909996 1.965
-3.1351001 -9.4066992 1.9078001
-3.0432944 -9.4149714 1.9136469
-2.9521139 -9.4258423 1.9160911
-2.8860002 -9.4063339 1.921
-2.4342799 -9.4453297 1.9442708
-2.3520072 -9.449007 1.9403107
-2.2601688 -9.4679365 1.9300262
-2.1913333 -9.486167 1.9529999
-1.9349999 -9.4990005 1.9875
-1.5132858 -9.4880009 1.9715714
-1.4738001 -9.4768 1.9566001
-1.303 -9.4860001 1.9610001
-1.2909093 -9.4645195 1.9607091
-0.91799998 -9.4460001 1.913
-0.87639999 -9.4385996 1.9406
-0.71700001 -9.4790001 1.9293334
-0.65374994 -9.4249382 1.9372814
-0.597 -9.4039993 1.994
-0.24995774 -9.4894934 1.9878029
-0.17435715 -9.4914999 1.9892144
0.041000001 -9.4029999 1.966
0.189 -9.4295006 1.9735
0.24849999 -9.4549999 1.977
0.3595714 -9.4280005 1.9860001
0.44525003 -9.4419165 1.9905
0.5514667 -9.4608669 1.9924667
0.64733332 -9.4713345 1.9929166
0.74599999 -9.4862995 1.9936999
0.81650001 -9.493 1.9915
1.9840677 -9.4538279 1.9605957
2.0435507 -9.4482994 1.9254045
2.1313176 -9.4499607 1.9242285
2.2016666 -9.4586668 1.9643334
5.3937502 -9.4562502 1.9799999
5.4317498 -9.452116 1.9746922
5.5358276 -9.451931 1.9757243
5.6160002 -9.4593334 1.9893334
22.850462 -9.4510145 1.9723214
22.941395 -9.4505596 1.9559056
23.019583 -9.4577503 1.9684999
32.125126 -9.472188 1.9396875
32.227001 -9.4200001 1.921
33.353378 -9.4293756 1.9588752
34.368 -9.4025002 1.967
-3.8310001 -9.3009996 1.903
-3.6087778 -9.3132219 1.9134443
-3.5454373 -9.3239393 1.9135
-3.4507999 -9.3390865 1.9130002
-3.3448694 -9.3398848 1.920377
-3.2469623 -9.3356304 1.9325109
-3.1506066 -9.3394184 1.9416929
-3.0485609 -9.3432493 1.9452367
-2.9538109 -9.3537807 1.9491345
-2.8652925 -9.3632421 1.9377414
-2.5664999 -9.3214998 1.9349999
-2.4083881 -9.3486462 1.9433994
-2.3963454 -9.3306561 1.9432725
-1.8457143 -9.3260002 1.9375715
-1.8 -9.3030005 1.905
-1.4560001 -9.3570004 1.9416668
-1.2256209 -9.3329477 1.9359897
-0.91600007 -9.3453331 1.921
-0.8553611 -9.3203325 1.9264166
-0.73478574 -9.3080015 1.9118571
-0.63287646 -9.3350439 1.9234185
-0.57078409 -9.331789 1.9579068
-0.44952089 -9.3237295 1.9791462
-0.33816323 -9.3232861 1.9697849
-0.255732 -9.3357859 1.9696468
-0.1588788 -9.3383331 1.9722427
-0.045933332 -9.3272333 1.9804333
0.044468749 -9.3474064 1.978156
0.14357142 -9.3625727 1.9833336
0.24349999 -9.3815908 1.9864544
0.32660004 -9.3942003 1.9924001
1.9906646 -9.3576822 1.9685614
2.0420971 -9.3483057 1.9304259
2.135812 -9.3474874 1.9208162
2.2040002 -9.339201 1.9552001
5.3953338 -9.3853331 1.9806669
5.4327331 -9.3509846 1.9740268
5.5436001 -9.3497343 1.9714669
5.625 -9.3319998 1.9844999
22.851118 -9.3503952 1.9724787
22.944447 -9.3507986 1.9574287
23.018501 -9.3566666 1.9698334
26.365999 -9.3290005 1.989
33.400002 -9.3830004 1.927
34.356251 -9.3629999 1.9412501
34.419998 -9.3689995 1.965
35.453999 -9.3409996 1.927
37.653999 -9.3210001 1.962
37.717999 -9.3260002 1.901
-4.2336249 -9.2081251 1.9081249
-4.1919999 -9.2132502 1.909
-4.0537148 -9.2384291 1.9080001
-3.9438572 -9.2557144 1.9080001
-3.8494761 -9.2397146 1.9181906
-3.7837501 -9.21875 1.9299999
-3.6110001 -9.2969999 1.927
-3.5444126 -9.2435179 1.9427984
-3.45433 -9.2717133 1.9481218
-3.3548222 -9.2848434 1.9508666
-3.2602704 -9.294054 1.9593511
-3.1530001 -9.3000002 1.9400001
-2.6270001 -9.2110004 1.906
-2.5583334 -9.253933 1.938
-2.4085362 -9.2457304 1.9310734
-2.3895309 -9.2460299 1.9508621
-2.0291111 -9.2322216 1.9230001
-1.9248573 -9.238143 1.9701428
-1.8473477 -9.2382812 1.931815
-1.4525001 -9.2330008 1.9277
-1.2123836 -9.2484875 1.9458821
-1.1512727 -9.2231503 1.9793942
-1.0481955 -9.2268267 1.976087
-0.94669342 -9.2330542 1.9708668
-0.83835399 -9.2484674 1.9516017
-0.74523139 -9.2542543 1.9431343
-0.65090752 -9.2530241 1.9549648
-0.55313504 -9.2459354 1.9685713
-0.45227477 -9.2549763 1.9723239
-0.35778022 -9.2763605 1.9662199
-0.26865393 -9.2858458 1.9722114
-0.15646154 -9.2902317 1.9866158
-0.061749995 -9.2980003 1.98725
1.9959496 -9.2767458 1.9751014
2.0392165 -9.2482414 1.9398743
2.1387019 -9.2492113 1.9191636
2.2157502 -9.236125 1.9555
5.4347053 -9.2479191 1.9723293
5.5483332 -9.2498007 1.9679002
5.6020002 -9.217 1.978
22.848461 -9.2504539 1.9681339
22.949209 -9.2480154 1.9538703
23.012402 -9.2463999 1.9608001
26.5 -9.2040005 1.99
37.667202 -9.2568007 1.9535999
38.686001 -9.21 1.969
-4.7315998 -9.1178007 1.9109999
-4.6349478 -9.1375256 1.9094737
-4.5488887 -9.1451864 1.9112593
-4.4468164 -9.1353464 1.9220405
-4.3460288 -9.1334343 1.9305971
-4.254879 -9.1420012 1.9410543
-4.156569 -9.1518631 1.9349809
-4.0408888 -9.1755552 1.9223334
-3.9522727 -9.191637 1.9235456
-3.8899999 -9.1884995 1.9414999
-3.76 -9.1949997 1.9235001
-3.5313337 -9.1645222 1.9679378
-3.4825752 -9.1223249 1.9292754
-2.6110001 -9.158 1.9666001
-2.533936 -9.1484156 1.9487717
-2.4453542 -9.1586161 1.9511368
-2.3859041 -9.1718636 1.9705342
-2.2523334 -9.1053333 1.9863334
-2.1249166 -9.1257505 1.9628334
-2.0563681 -9.1283159 1.9583948
-1.9415717 -9.1385717 1.9698571
-1.8738174 -9.1522951 1.9374527
-1.7484288 -9.1395721 1.9722856
-1.6488065 -9.1417093 1.9656453
-1.5385106 -9.1197662 1.9427444
-1.4580002 -9.1226387 1.9309748
-1.3408923 -9.1106129 1.9131614
-1.230177 -9.1342154 1.9288359
-1.1484129 -9.1373472 1.9619707
-1.0499736 -9.1484804 1.9686592
-0.95030421 -9.1671362 1.9714185
-0.84956396 -9.1770401 1.9723281
-0.75517106 -9.1807146 1.9802079
-0.65623945 -9.1888456 1.9870847
-0.55182654 -9.1713438 1.9826424
-0.44100001 -9.1719999 1.965
1.9985 -9.1884995 1.951
2.0438998 -9.1518173 1.9410721
2.1435444 -9.1483946 1.9166741
2.2172942 -9.138175 1.9454117
5.4396725 -9.1472425 1.9685179
5.5503511 -9.1501627 1.9643786
5.6120005 -9.1800003 1.9865
22.849571 -9.1506624 1.9681383
22.94544 -9.1512308 1.9516239
23.031637 -9.1579084 1.9692726
26.467001 -9.1432858 1.9875715
37.673401 -9.1896 1.9444001
37.706001 -9.1814995 1.9545
38.678001 -9.1566658 1.957
38.717999 -9.1029997 1.905
39.066002 -9.1346664 1.9773334
39.105999 -9.1110001 1.969
-4.8525715 -9.0190001 1.9362857
-4.7901998 -9.0516005 1.949
-4.6589999 -9.0665722 1.9094288
-4.5338264 -9.0862179 1.9479132
-4.4565434 -9.0889139 1.9548858
-4.3621998 -9.0967007 1.9685999
-3.4682691 -9.0479746 1.9491466
-3.0549998 -9.0130005 1.9825001
-2.9256001 -9.0198011 1.9742001
-2.8520002 -9.0208578 1.9712858
-2.7562306 -9.0276155 1.9676924
-2.6493156 -9.0332642 1.9627894
-2.5458462 -9.0498848 1.967654
-2.4469199 -9.0458794 1.959
-2.3453848 -9.048501 1.9535
-2.2452502 -9.0380306 1.9380311
-2.1379316 -9.0407534 1.9295208
-2.0515203 -9.0388212 1.9230397
-1.9491293 -9.0378933 1.9292276
-1.8483307 -9.0303154 1.9461782
-1.7483755 -9.0390739 1.9539788
-1.6506461 -9.0511332 1.9608963
-1.5499604 -9.0680265 1.9635754
-1.4430889 -9.0670176 1.9606917
-1.3527668 -9.0643072 1.9567835
-1.2473181 -9.0658302 1.9665078
-1.18177 -9.0766897 1.9790807
-1.0826668 -9.0950003 1.9926666
2.06148 -9.0549622 1.9287939
2.1480105 -9.0494394 1.9148221
2.2152581 -9.0473547 1.9356773
5.444036 -9.0515413 1.9664826
5.5473237 -9.0520601 1.9570885
5.6057148 -9.042429 1.9705715
22.844633 -9.0501556 1.9637835
22.947025 -9.0513105 1.9480751
23.017 -9.0600004 1.9579999
26.427334 -9.0403337 1.9973334
26.527 -9.0699997 1.998
39.054749 -9.0532503 1.939
39.115002 -9.0294991 1.9680001
-5.8509998 -8.90625 1.9184999
-5.7523336 -8.9165001 1.9233332
-4.9115 -8.9569998 1.949
-4.8732495 -8.9484997 1.942625
-4.7020001 -8.9510002 1.941
-4.007 -8.9090004 1.909
-3.7102501 -8.9492502 1.94025
-3.6461384 -8.9374437 1.9293054
-3.5450373 -8.9376488 1.9281669
-3.4622045 -8.9653263 1.9422446
-3.3398182 -8.9356356 1.9479998
-3.2411668 -8.9349995 1.9384999
-3.1459332 -8.9518681 1.9420668
-3.0493529 -8.9555292 1.937647
-2.9440002 -8.9526672 1.9300002
-2.8457215 -8.9330921 1.9146744
-2.7501523 -8.9312534 1.9120334
-2.6452444 -8.931179 1.9155333
-2.5460312 -8.9317322 1.9253365
-2.4490891 -8.9356689 1.935635
-2.3487375 -8.9409866 1.9457288
-2.2498503 -8.953908 1.9510517
-2.147563 -8.9633923 1.9574187
-2.0551052 -8.9701262 1.9660892
-1.9507794 -8.9834232 1.9759448
-1.8577883 -8.987607 1.9858792
-1.7690341 -8.9948626 1.9907241
2.0772815 -8.9714727 1.9235926
2.1512039 -8.9524822 1.9119861
2.2188432 -8.9418621 1.929804
5.4512587 -8.9493713 1.9661797
5.5507069 -8.9531765 1.9545885
5.6110005 -8.9475012 1.9707857
22.846806 -8.9493837 1.9636858
22.949924 -8.9507427 1.9448212
23.0035 -8.9524994 1.9475
26.461834 -8.9365015 1.9848335
39.03989 -8.9457769 1.960889
-6.4425001 -8.8080006 1.9095
-6.3424997 -8.8195 1.9165
-6.2810001 -8.8306665 1.9063333
-6.1417499 -8.8617506 1.909
-6.0473337 -8.8615837 1.915
