ply
format ascii 1.0
comment PCL generated
element vertex 1755
property float x
property float y
property float z
element camera 0
property float view_px
property float view_py
property float view_pz
property float x_axisx
property float x_axisy
property float x_axisz
property float y_axisx
property float y_axisy
property float y_axisz
property float z_axisx
property float z_axisy
property float z_axisz
property float focal
property float scalex
property float scaley
property float centerx
property float centery
property int viewportx
property int viewporty
property float k1
property float k2
end_header
-23.233 -0.53399998 0.215
-23.250999 -0.53899997 0.20100001
-23.219 -0.53200001 0.186
-23.208 -0.53100002 0.171
-23.191 -0.528 0.156
-23.174999 -0.52499998 0.141
-23.162001 -0.523 0.126
-23.143 -0.51999998 0.111
-23.108999 -0.51300001 0.096000001
-23.124001 -0.51700002 0.082000002
-23.105 -0.514 0.067000002
-23.097 -0.51300001 0.052999999
-23.077 -0.50999999 0.037999999
-24.124001 -0.58700001 2.987
-24.129 -0.58899999 2.971
-24.148001 -0.59399998 2.96
-24.142 -0.59399998 2.9400001
-24.172001 -0.60100001 2.9319999
-24.046 -0.65700001 1.457
-24.040001 -0.65600002 1.439
-23.996 -0.648 1.415
-24.007 -0.65100002 1.401
-24.003 -0.65100002 1.3839999
-24.030001 -0.65799999 1.372
-24.007 -0.65399998 1.352
-24.011 -0.65600002 1.337
-24.021999 -0.65899998 1.322
-24.034 -0.66299999 1.308
-24.096001 -0.67699999 1.302
-24.127001 -0.68400002 1.29
-23.23 -0.55000001 0.18700001
-23.218 -0.54799998 0.17200001
-23.198 -0.54400003 0.15700001
-23.172001 -0.53899997 0.142
-23.167999 -0.53899997 0.127
-23.150999 -0.53600001 0.112
-23.125999 -0.53200001 0.097000003
-23.122999 -0.53200001 0.082999997
-23.093 -0.52600002 0.068000004
-23.1 -0.528 0.054000001
-23.084999 -0.52600002 0.039000001
-24.139 -0.60600001 2.994
-24.146 -0.60900003 2.9790001
-24.153 -0.611 2.964
-24.176001 -0.61699998 2.954
-24.065001 -0.67699999 1.462
-24.037001 -0.67199999 1.4400001
-24.028 -0.671 1.4220001
-24.007 -0.66799998 1.403
-24.021999 -0.67199999 1.3890001
-24.02 -0.67199999 1.372
-24.018999 -0.67299998 1.3559999
-24.004 -0.671 1.337
-24.028999 -0.67699999 1.325
-24.025999 -0.67699999 1.308
-24.073 -0.68800002 1.299
-24.127001 -0.70099998 1.2920001
-23.184999 -0.55800003 0.12899999
-23.186001 -0.55900002 0.114
-23.145 -0.551 0.098999999
-23.129 -0.54799998 0.083999999
-23.108 -0.54400003 0.068999998
-23.094999 -0.542 0.055
-23.079 -0.53899997 0.039999999
-24.184 -0.63300002 2.994
-24.041 -0.68900001 1.442
-24.028999 -0.68800002 1.424
-24.013 -0.685 1.405
-24.016001 -0.68699998 1.3890001
-24.028 -0.69 1.375
-24.018999 -0.68900001 1.357
-24.021999 -0.69099998 1.341
-24.035 -0.69400001 1.327
-24.032 -0.69499999 1.311
-24.075001 -0.70499998 1.301
-24.139 -0.71899998 1.295
-23.164 -0.56999999 0.086000003
-23.136 -0.565 0.071000002
-23.101 -0.55800003 0.056000002
-23.094 -0.55699998 0.041000001
-23.075001 -0.55400002 0.027000001
-24.028 -0.70300001 1.442
-24.028999 -0.704 1.425
-24.018 -0.70200002 1.4069999
-24.014999 -0.70300001 1.391
-24.018999 -0.70499998 1.375
-24.017 -0.70499998 1.358
-24.018999 -0.70599997 1.3430001
-24.02 -0.70700002 1.326
-24.034 -0.71100003 1.312
-24.087 -0.72399998 1.3049999
-24.135 -0.73500001 1.296
-23.094999 -0.57200003 0.041999999
-23.094 -0.57200003 0.028000001
-23.077 -0.56999999 0.013
-24.056 -0.72500002 1.448
-24.031 -0.72100002 1.427
-24.017 -0.71799999 1.409
-24.023001 -0.72100002 1.393
-24.030001 -0.72299999 1.378
-24.021 -0.722 1.3609999
-24.021999 -0.72299999 1.344
-24.009001 -0.72100002 1.326
-24.040001 -0.72899997 1.3150001
-24.076 -0.73799998 1.304
-24.129 -0.75 1.296
-24.056 -0.741 1.45
-24.031 -0.73699999 1.429
-24.033001 -0.73799998 1.413
-24.034 -0.73900002 1.397
-24.011999 -0.736 1.377
-24.014999 -0.73699999 1.3609999
-24.032 -0.74199998 1.348
-24.035999 -0.74299997 1.332
-24.027 -0.74199998 1.314
-24.084999 -0.75599998 1.307
-24.132999 -0.76800001 1.299
-24.056999 -0.75800002 1.451
-24.032 -0.75400001 1.431
-24.047001 -0.75800002 1.4170001
-24.031 -0.755 1.398
-24.023001 -0.75400001 1.38
-24.033001 -0.75700003 1.3660001
-24.025 -0.75700003 1.348
-24.024 -0.75700003 1.331
-24.042 -0.76200002 1.318
-24.066 -0.76800001 1.306
-24.124001 -0.78200001 1.299
-24.063999 -0.77600002 1.454
-24.038 -0.77100003 1.433
-24.033001 -0.77100003 1.416
-24.025999 -0.76999998 1.398
-24.011999 -0.76800001 1.38
-24.025 -0.77200001 1.3660001
-24.028999 -0.77399999 1.35
-24.02 -0.773 1.332
-24.028999 -0.77600002 1.318
-24.051001 -0.78100002 1.3049999
-24.103001 -0.79400003 1.2970001
-24.056999 -0.79100001 1.455
-24.051001 -0.79000002 1.437
-24.028999 -0.78600001 1.4170001
-24.045 -0.79000002 1.403
-24.031 -0.78799999 1.3839999
-24.035 -0.79000002 1.369
-24.032 -0.79000002 1.352
-24.023001 -0.79000002 1.334
-24.045 -0.79500002 1.322
-24.038 -0.79500002 1.304
-24.099001 -0.81 1.298
-24.070999 -0.81 1.4579999
-24.047001 -0.80599999 1.438
-24.042999 -0.80599999 1.421
-24.039 -0.80599999 1.404
-24.027 -0.80400002 1.385
-24.025999 -0.80500001 1.369
-24.041 -0.80900002 1.355
-24.035999 -0.80900002 1.3380001
-24.051001 -0.81300002 1.324
-24.058001 -0.81599998 1.309
-24.108999 -0.82800001 1.301
-24.146999 -0.838 1.29
-24.070999 -0.82700002 1.46
-24.048 -0.82300001 1.4400001
-24.039 -0.82200003 1.4220001
-24.054001 -0.82599998 1.408
-24.047001 -0.82599998 1.39
-24.059999 -0.829 1.376
-24.040001 -0.82599998 1.357
-24.039 -0.82599998 1.34
-24.037001 -0.82700002 1.323
-24.054001 -0.83200002 1.3099999
-24.098 -0.84299999 1.3
-24.142 -0.85399997 1.291
-24.048 -0.83899999 1.441
-24.054001 -0.84100002 1.426
-24.056 -0.84299999 1.41
-24.051001 -0.84299999 1.393
-24.038 -0.83999997 1.374
-24.046 -0.84399998 1.359
-24.039 -0.84299999 1.342
-24.048 -0.84600002 1.327
-24.059999 -0.85000002 1.312
-24.08 -0.85500002 1.299
-24.143 -0.87099999 1.293
-24.056999 -0.85699999 1.444
-24.052999 -0.85799998 1.427
-24.052 -0.85799998 1.411
-24.040001 -0.85600001 1.392
-24.040001 -0.85699999 1.376
-24.040001 -0.85799998 1.359
-24.056 -0.86299998 1.346
-24.021 -0.85600001 1.324
-24.061001 -0.866 1.314
-24.093 -0.87400001 1.303
-24.136999 -0.88499999 1.293
-24.077999 -0.87800002 1.449
-24.052999 -0.87400001 1.429
-24.062 -0.87699997 1.414
-24.041 -0.87300003 1.3940001
-24.041 -0.87400001 1.378
-24.055 -0.87800002 1.364
-24.038 -0.875 1.344
-24.055 -0.88 1.331
-24.056999 -0.88099998 1.3150001
-24.099001 -0.89200002 1.3049999
-24.120001 -0.898 1.2920001
-24.082001 -0.89600003 1.452
-24.059999 -0.89200002 1.432
-24.051001 -0.89099997 1.414
-24.061001 -0.89399999 1.399
-24.049 -0.89200002 1.38
-24.051001 -0.89300001 1.364
-24.049 -0.89399999 1.348
-24.063 -0.898 1.334
-24.058001 -0.898 1.316
-24.073 -0.90200001 1.302
-24.122 -0.91500002 1.294
-24.080999 -0.912 1.4529999
-24.065001 -0.90899998 1.434
-24.065001 -0.91000003 1.4170001
-24.059999 -0.91000003 1.4
-24.049999 -0.90899998 1.382
-24.054001 -0.91100001 1.3660001
-24.055 -0.912 1.35
-24.059999 -0.91399997 1.335
-24.055 -0.91299999 1.317
-24.080999 -0.921 1.3049999
-24.139999 -0.93599999 1.298
-24.084999 -0.93000001 1.455
-24.066999 -0.926 1.436
-24.069 -0.92799997 1.42
-24.063 -0.92699999 1.402
-24.062 -0.92799997 1.386
-24.052999 -0.92699999 1.368
-24.049 -0.92699999 1.351
-24.058001 -0.93000001 1.336
-24.075001 -0.935 1.322
-24.066999 -0.93400002 1.3049999
-24.115 -0.94599998 1.296
-24.15 -0.95499998 1.285
-24.094 -0.949 1.459
-24.059 -0.94099998 1.436
-24.075001 -0.94599998 1.4220001
-24.056 -0.94199997 1.403
-24.063 -0.94499999 1.388
-24.052999 -0.94300002 1.369
-24.070999 -0.949 1.3559999
-24.049 -0.94400001 1.336
-24.054001 -0.94599998 1.3200001
-24.077999 -0.95300001 1.308
-24.113001 -0.96200001 1.2970001
-24.173 -0.97799999 1.29
-24.084999 -0.963 1.459
-24.070999 -0.95999998 1.4400001
-24.062 -0.95899999 1.4220001
-24.073 -0.963 1.4069999
-24.063999 -0.96200001 1.3890001
-24.07 -0.96399999 1.374
-24.066999 -0.96399999 1.357
-24.065001 -0.96399999 1.34
-24.075001 -0.96799999 1.325
-24.069 -0.96700001 1.308
-24.104 -0.977 1.2970001
-24.164 -0.99199998 1.29
-24.080999 -0.98000002 1.443
-24.083 -0.98100001 1.427
-24.059999 -0.97600001 1.4069999
-24.072001 -0.98000002 1.392
-24.07 -0.98100001 1.375
-24.075001 -0.98299998 1.36
-24.079 -0.98500001 1.344
-24.072001 -0.98400003 1.326
-24.065001 -0.98299998 1.309
-24.110001 -0.995 1.299
-24.166 -1.01 1.2920001
-24.089001 -0.99900001 1.446
-24.084 -0.99800003 1.429
-24.075001 -0.99699998 1.411
-24.077 -0.99800003 1.395
-24.059 -0.995 1.375
-24.068001 -0.99800003 1.36
-24.08 -1.002 1.346
-24.073999 -1.001 1.3279999
-24.084 -1.005 1.313
-24.105 -1.011 1.3
-24.149 -1.023 1.291
-24.083 -1.015 1.447
-24.069 -1.012 1.428
-24.084999 -1.017 1.414
-24.075001 -1.015 1.396
-24.073 -1.016 1.3789999
-24.068001 -1.016 1.362
-24.09 -1.022 1.349
-24.077999 -1.02 1.331
-24.075001 -1.02 1.314
-24.091999 -1.025 1.3
-24.157 -1.0420001 1.294
-24.191 -1.052 1.2819999
-24.114 -1.039 1.454
-24.091999 -1.034 1.433
-24.080999 -1.033 1.415
-24.073 -1.031 1.397
-24.073 -1.0319999 1.381
-24.073999 -1.034 1.364
-24.070999 -1.034 1.347
-24.069 -1.034 1.331
-24.069 -1.035 1.314
-24.077999 -1.038 1.299
-24.131001 -1.053 1.291
-24.211 -1.074 1.2869999
-24.120001 -1.057 1.457
-24.087999 -1.05 1.434
-24.084999 -1.05 1.4170001
-24.089001 -1.052 1.401
-24.091999 -1.054 1.386
-24.082001 -1.053 1.367
-24.066 -1.05 1.348
-24.082001 -1.054 1.334
-24.076 -1.054 1.317
-24.08 -1.056 1.301
-24.131001 -1.0700001 1.293
-24.187 -1.085 1.285
-24.108 -1.071 1.456
-24.072001 -1.063 1.433
-24.09 -1.069 1.42
-24.077999 -1.066 1.401
-24.086 -1.069 1.386
-24.082001 -1.069 1.369
-24.079 -1.0700001 1.352
-24.084 -1.072 1.336
-24.080999 -1.072 1.319
-24.098 -1.077 1.306
-24.132 -1.087 1.294
-24.219 -1.11 1.291
-24.099001 -1.086 1.4400001
-24.087 -1.084 1.421
-24.1 -1.0880001 1.4069999
-24.091 -1.087 1.388
-24.08 -1.085 1.37
-24.091999 -1.089 1.3559999
-24.080999 -1.087 1.337
-24.083 -1.089 1.321
-24.084 -1.09 1.3049999
-24.122999 -1.101 1.295
-24.197001 -1.1210001 1.29
-24.124001 -1.11 1.446
-24.087 -1.101 1.4220001
-24.104 -1.1059999 1.409
-24.086 -1.102 1.3890001
-24.096001 -1.1059999 1.375
-24.083 -1.104 1.3559999
-24.080999 -1.104 1.339
-24.089001 -1.107 1.324
-24.091999 -1.109 1.308
-24.125 -1.119 1.296
-24.198 -1.138 1.291
-24.115999 -1.125 1.446
-24.097 -1.12 1.426
-24.104 -1.123 1.411
-24.097 -1.122 1.393
-24.094999 -1.123 1.376
-24.089001 -1.122 1.358
-24.101 -1.126 1.344
-24.091 -1.125 1.326
-24.087999 -1.125 1.309
-24.110001 -1.131 1.296
-24.174 -1.149 1.289
-24.134001 -1.146 1.451
-24.103001 -1.1390001 1.429
-24.094999 -1.138 1.411
-24.094 -1.1390001 1.3940001
-24.103001 -1.142 1.3789999
-24.082001 -1.137 1.359
-24.087 -1.1390001 1.3430001
-24.087 -1.14 1.327
-24.096001 -1.1440001 1.312
-24.113001 -1.149 1.298
-24.18 -1.168 1.2920001
-24.120001 -1.159 1.45
-24.101 -1.155 1.4299999
-24.1 -1.156 1.413
-24.09 -1.154 1.395
-24.094999 -1.156 1.3789999
-24.099001 -1.159 1.363
-24.101999 -1.16 1.347
-24.087 -1.1569999 1.3279999
-24.091 -1.159 1.312
-24.099001 -1.1619999 1.2970001
-24.18 -1.1849999 1.293
-24.212999 -1.1950001 1.2819999
-24.117001 -1.176 1.451
-24.122999 -1.178 1.4349999
-24.104 -1.174 1.416
-24.106001 -1.176 1.399
-24.115 -1.179 1.3839999
-24.105 -1.177 1.3660001
-24.094999 -1.176 1.348
-24.101 -1.178 1.332
-24.104 -1.1799999 1.316
-24.104 -1.181 1.3
-24.156 -1.1950001 1.291
-24.216999 -1.2130001 1.284
-24.125999 -1.1950001 1.454
-24.106001 -1.191 1.434
-24.105 -1.191 1.4170001
-24.115999 -1.1950001 1.403
-24.104 -1.193 1.3839999
-24.111 -1.196 1.369
-24.118 -1.198 1.353
-24.110001 -1.197 1.335
-24.117001 -1.2 1.3200001
-24.115 -1.2 1.303
-24.153 -1.212 1.2920001
-24.198 -1.225 1.283
-24.143999 -1.2180001 1.442
-24.105 -1.2079999 1.419
-24.106001 -1.209 1.403
-24.108999 -1.211 1.386
-24.096001 -1.2079999 1.368
-24.104 -1.212 1.352
-24.106001 -1.2130001 1.336
-24.106001 -1.214 1.3200001
-24.115 -1.217 1.3049999
-24.153999 -1.229 1.294
-24.221001 -1.248 1.288
-24.136999 -1.233 1.443
-24.121 -1.23 1.423
-24.117001 -1.23 1.406
-24.114 -1.23 1.3890001
-24.108 -1.229 1.3710001
-24.122999 -1.234 1.357
-24.111 -1.232 1.339
-24.106001 -1.2309999 1.321
-24.108999 -1.233 1.3049999
-24.153 -1.2460001 1.296
-24.219999 -1.265 1.289
-24.139 -1.251 1.4450001
-24.125 -1.248 1.426
-24.124001 -1.249 1.409
-24.118999 -1.248 1.392
-24.115999 -1.249 1.374
-24.128 -1.253 1.36
-24.108999 -1.249 1.34
-24.118 -1.252 1.325
-24.125 -1.255 1.309
-24.129 -1.257 1.293
-24.201 -1.278 1.288
-24.271999 -1.298 1.2819999
-24.149 -1.271 1.448
-24.127001 -1.266 1.428
-24.129 -1.267 1.4119999
-24.129 -1.268 1.395
-24.117001 -1.266 1.376
-24.124001 -1.2690001 1.3609999
-24.121 -1.2690001 1.344
-24.121 -1.27 1.327
-24.125999 -1.272 1.311
-24.121 -1.272 1.294
-24.195 -1.293 1.289
-24.159 -1.291 1.452
-24.120001 -1.281 1.429
-24.132 -1.285 1.414
-24.127001 -1.285 1.396
-24.117001 -1.283 1.378
-24.122 -1.285 1.362
-24.117001 -1.284 1.345
-24.124001 -1.2869999 1.329
-24.142 -1.293 1.3150001
-24.120001 -1.288 1.295
-24.184 -1.307 1.289
-24.226999 -1.3200001 1.278
-24.143999 -1.303 1.451
-24.135 -1.301 1.433
-24.132 -1.301 1.415
-24.132 -1.302 1.399
-24.125 -1.301 1.381
-24.129 -1.304 1.365
-24.122 -1.302 1.347
-24.124001 -1.304 1.331
-24.134001 -1.308 1.316
-24.132999 -1.308 1.299
-24.174 -1.321 1.289
-24.250999 -1.3430001 1.284
-24.159 -1.324 1.455
-24.124001 -1.3150001 1.432
-24.129999 -1.318 1.4170001
-24.122999 -1.317 1.399
-24.134001 -1.321 1.3839999
-24.125 -1.319 1.3660001
-24.136 -1.323 1.351
-24.134001 -1.324 1.334
-24.139 -1.326 1.318
-24.139 -1.327 1.301
-24.186001 -1.341 1.2920001
-24.24 -1.358 1.284
-24.15 -1.339 1.439
-24.125 -1.3329999 1.418
-24.128 -1.335 1.401
-24.136 -1.3380001 1.386
-24.138 -1.34 1.37
-24.122 -1.336 1.35
-24.134001 -1.34 1.336
-24.131001 -1.341 1.319
-24.145 -1.345 1.304
-24.176001 -1.355 1.2920001
-24.239 -1.374 1.285
-24.145 -1.355 1.439
-24.136 -1.353 1.421
-24.143 -1.3559999 1.406
-24.131001 -1.353 1.387
-24.138 -1.3559999 1.3710001
-24.132 -1.3559999 1.354
-24.134001 -1.357 1.337
-24.139999 -1.36 1.322
-24.136999 -1.36 1.304
-24.157 -1.367 1.291
-24.232 -1.3890001 1.286
-24.152 -1.373 1.442
-24.139 -1.37 1.423
-24.153 -1.375 1.409
-24.129 -1.369 1.388
-24.132 -1.3710001 1.372
-24.134001 -1.373 1.3559999
-24.141001 -1.376 1.34
-24.138 -1.376 1.323
-24.149 -1.38 1.308
-24.160999 -1.385 1.293
-24.23 -1.406 1.2869999
-24.155001 -1.391 1.4450001
-24.138 -1.387 1.425
-24.139999 -1.3890001 1.408
-24.153999 -1.3940001 1.3940001
-24.129999 -1.388 1.373
-24.153 -1.395 1.36
-24.143 -1.393 1.342
-24.15 -1.396 1.326
-24.129999 -1.392 1.307
-24.139 -1.395 1.291
-24.212 -1.4170001 1.286
-24.292 -1.441 1.281
-24.166 -1.411 1.448
-24.143 -1.405 1.427
-24.142 -1.406 1.41
-24.138 -1.406 1.393
-24.148001 -1.41 1.378
-24.148001 -1.41 1.3609999
-24.143 -1.41 1.344
-24.134001 -1.408 1.326
-24.132 -1.409 1.308
-24.146 -1.414 1.294
-24.201 -1.431 1.286
-24.27 -1.452 1.28
-24.298 -1.461 1.267
-24.158001 -1.426 1.449
-24.139999 -1.4220001 1.429
-24.145 -1.424 1.413
-24.149 -1.426 1.397
-24.142 -1.425 1.3789999
-24.141001 -1.426 1.362
-24.148001 -1.429 1.346
-24.141001 -1.428 1.3279999
-24.138 -1.428 1.311
-24.16 -1.4349999 1.298
-24.200001 -1.448 1.2869999
-24.159 -1.444 1.451
-24.173 -1.449 1.436
-24.138 -1.4400001 1.413
-24.153 -1.4450001 1.399
-24.162001 -1.449 1.3839999
-24.143999 -1.444 1.364
-24.149 -1.447 1.348
-24.145 -1.447 1.331
-24.141001 -1.446 1.313
-24.15 -1.45 1.298
-24.200001 -1.466 1.289
-24.152 -1.46 1.434
-24.145 -1.459 1.416
-24.157 -1.464 1.402
-24.148001 -1.462 1.383
-24.153 -1.464 1.367
-24.157 -1.467 1.351
-24.155001 -1.467 1.334
-24.146999 -1.465 1.316
-24.153999 -1.4680001 1.3
-23.914 0.736 2.9920001
-23.91 0.73299998 2.9679999
-23.903999 0.70499998 2.9860001
-23.903999 0.70499998 2.964
-23.910999 0.70899999 2.944
-23.903 0.704 2.9200001
-23.915001 0.68800002 2.9860001
-23.912001 0.68599999 2.9630001
-23.903999 0.68099999 2.9389999
-23.922001 0.69199997 2.9219999
-23.902 0.68000001 2.895
-23.916 0.66500002 2.983
-23.919001 0.66600001 2.9619999
-23.915001 0.66399997 2.9389999
-23.913 0.66299999 2.9170001
-23.938999 0.67900002 2.902
-23.906 0.65799999 2.8710001
-23.909 0.63599998 2.9779999
-23.93 0.648 2.9619999
-23.93 0.648 2.9400001
-23.909 0.63599998 2.9130001
-23.93 0.648 2.8970001
-23.927 0.64600003 2.8740001
-23.92 0.64200002 2.8510001
-23.917 0.61699998 2.977
-23.916 0.616 2.9549999
-23.92 0.61799997 2.9349999
-23.927999 0.62300003 2.915
-23.908001 0.61000001 2.888
-23.92 0.61799997 2.869
-23.941 0.63099998 2.8529999
-23.938999 0.63 2.8310001
-23.931 0.60000002 2.9779999
-23.927999 0.59799999 2.9549999
-23.924 0.59600002 2.9330001
-23.927999 0.59799999 2.9119999
-23.931 0.60000002 2.891
-23.917 0.59100002 2.8659999
-23.934999 0.60299999 2.849
-23.936001 0.60299999 2.8269999
-23.973 0.62599999 2.816
-23.921 0.56999999 2.994
-23.929001 0.57499999 2.9749999
-23.937 0.57999998 2.9549999
-23.945999 0.58499998 2.9360001
-23.938 0.57999998 2.9119999
-23.924999 0.57200003 2.8870001
-23.924999 0.57200003 2.865
-23.929001 0.574 2.8440001
-23.941999 0.58200002 2.826
-23.951 0.58700001 2.8069999
-23.976 0.60299999 2.7920001
-23.931999 0.55199999 2.994
-23.936001 0.55500001 2.974
-23.93 0.551 2.95
-23.952999 0.565 2.9349999
-23.940001 0.55699998 2.9100001
-23.931999 0.55199999 2.8859999
-23.927999 0.54900002 2.8629999
-23.927999 0.54900002 2.8410001
-23.940001 0.55699998 2.823
-23.931999 0.55199999 2.799
-23.955999 0.56699997 2.7839999
-24.025 0.60799998 2.78
-23.934 0.52999997 2.9920001
-23.934 0.52999997 2.97
-23.951 0.54000002 2.9530001
-23.938 0.53200001 2.928
-23.947001 0.537 2.9089999
-23.938 0.53200001 2.885
-23.938 0.53200001 2.8629999
-23.938 0.53200001 2.8410001
-23.934 0.52899998 2.819
-23.938 0.53200001 2.7980001
-23.924999 0.52399999 2.773
-23.951 0.53899997 2.7579999
-23.945 0.51200002 2.9920001
-23.941 0.50999999 2.9690001
-23.945 0.51200002 2.9489999
-23.945 0.51200002 2.927
-23.941 0.50999999 2.904
-23.937 0.50700003 2.881
-23.941 0.509 2.8610001
-23.952999 0.51700002 2.842
-23.941 0.509 2.8169999
-23.948999 0.514 2.7980001
-23.940001 0.509 2.7739999
-23.936001 0.50599998 2.7520001
-23.945 0.51200002 2.7320001
-23.972 0.528 2.7179999
-23.952999 0.49399999 2.9920001
-23.938999 0.48500001 2.9660001
-23.947001 0.49000001 2.9460001
-23.934999 0.48199999 2.921
-23.943001 0.48699999 2.902
-23.955999 0.495 2.8840001
-23.951 0.49200001 2.8610001
-23.955 0.49399999 2.8399999
-23.947001 0.48899999 2.816
-23.951 0.49200001 2.796
-23.941999 0.486 2.7720001
-23.951 0.491 2.753
-23.959 0.49599999 2.733
-23.938 0.484 2.707
-23.948999 0.46700001 2.9660001
-23.948999 0.46700001 2.944
-23.948999 0.46700001 2.9219999
-23.958 0.472 2.9030001
-23.954 0.46900001 2.8800001
-23.958 0.472 2.8599999
-23.952999 0.46900001 2.8369999
-23.958 0.472 2.8169999
-23.945 0.46399999 2.7920001
-23.961 0.47400001 2.7739999
-23.961 0.47400001 2.753
-23.948 0.46599999 2.7279999
-23.961 0.47299999 2.71
-23.951 0.46700001 2.6860001
-24.033001 0.493 2.9860001
-23.966 0.45300001 2.9460001
-23.962999 0.45100001 2.9230001
-23.948 0.442 2.8970001
-23.948 0.442 2.8759999
-23.952 0.44400001 2.855
-23.947001 0.44100001 2.8329999
-23.952 0.44400001 2.812
-23.959999 0.449 2.793
-23.947001 0.44100001 2.7679999
-23.951 0.44299999 2.747
-23.955 0.44499999 2.727
-23.966999 0.45300001 2.7090001
-23.955 0.44499999 2.684
-23.964001 0.45100001 2.665
-24.072001 0.49200001 2.9949999
-24.016001 0.45899999 2.957
-23.966 0.42899999 2.921
-23.958 0.42399999 2.898
-23.962 0.426 2.8770001
-23.958 0.42399999 2.8540001
-23.954 0.421 2.832
-23.969999 0.43099999 2.8139999
-23.966 0.42899999 2.7920001
-23.950001 0.419 2.766
-23.954 0.421 2.7460001
-23.955 0.421 2.724
-23.954 0.421 2.7030001
-23.966 0.428 2.684
-23.966 0.428 2.6630001
-23.971001 0.43099999 2.6429999
-24.073999 0.46900001 2.97
-24.021999 0.43799999 2.934
-23.966999 0.405 2.8970001
-23.959999 0.40099999 2.8740001
-23.959999 0.40099999 2.852
-23.948999 0.39399999 2.8269999
-23.973 0.40799999 2.812
-23.968 0.40599999 2.79
-23.964001 0.403 2.767
-23.957001 0.39899999 2.744
-23.969 0.405 2.7249999
-23.965 0.403 2.7030001
-23.969 0.405 2.6819999
-23.973 0.40799999 2.6619999
-23.950001 0.39399999 2.635
-23.987 0.41600001 2.6229999
-24.115 0.46900001 2.957
-24.028999 0.41800001 2.911
-23.976999 0.38800001 2.8759999
-23.975 0.38600001 2.8529999
-23.959 0.37599999 2.8269999
-23.966 0.38100001 2.8080001
-23.975 0.38600001 2.789
-23.964001 0.37900001 2.7639999
-23.983 0.38999999 2.7479999
-23.971001 0.38299999 2.723
-23.962999 0.37799999 2.7
-23.983 0.38999999 2.6830001
-23.987 0.39300001 2.6630001
-23.966 0.38 2.6359999
-23.974001 0.38499999 2.6170001
-23.99 0.39399999 2.599
-24.118999 0.447 2.9330001
-24.018 0.38699999 2.8840001
-23.98 0.36399999 2.852
-23.976999 0.36300001 2.8299999
-23.969999 0.359 2.806
-23.974001 0.361 2.786
-23.974001 0.361 2.7639999
-23.974001 0.361 2.743
-23.965 0.35600001 2.7190001
-23.973 0.36000001 2.7
-23.973 0.36000001 2.678
-23.99 0.37 2.661
-23.976999 0.36199999 2.6359999
-23.972 0.359 2.6140001
-23.98 0.36300001 2.5940001
-23.990999 0.36899999 2.576
-24.091999 0.40599999 2.901
-24.011999 0.359 2.858
-23.978001 0.33899999 2.8269999
-23.988001 0.345 2.8080001
-23.964001 0.331 2.78
-23.976 0.338 2.7620001
-23.98 0.34 2.7420001
-23.98 0.34 2.72
-23.983999 0.34200001 2.7
-23.975 0.33700001 2.6760001
-23.971001 0.33399999 2.654
-23.983 0.34099999 2.635
-23.978001 0.33899999 2.6129999
-23.986 0.34299999 2.5940001
-23.962 0.329 2.566
-23.992001 0.347 2.552
-24.096001 0.384 2.878
-24.016001 0.338 2.835
-23.997999 0.32699999 2.8080001
-23.987 0.32100001 2.7839999
-23.982 0.31799999 2.7609999
-23.974001 0.31299999 2.7379999
-23.978001 0.315 2.717
-23.982 0.317 2.697
-23.973 0.31200001 2.6730001
-23.976999 0.31400001 2.6530001
-23.976 0.31400001 2.631
-23.976 0.31400001 2.6099999
-23.997 0.32600001 2.5940001
-23.988001 0.31999999 2.5699999
-23.979 0.315 2.5469999
-23.986 0.31999999 2.527
-24.087 0.35600001 2.8510001
-24.013 0.31299999 2.8099999
-23.989 0.29800001 2.7820001
-23.98 0.29300001 2.7579999
-23.992001 0.30000001 2.74
-23.992001 0.30000001 2.7179999
-23.983 0.29499999 2.6949999
-23.987 0.29699999 2.674
-23.983 0.294 2.652
-23.990999 0.29899999 2.632
-23.978001 0.29100001 2.608
-23.976999 0.29100001 2.586
-23.981001 0.29300001 2.566
-23.98 0.29300001 2.5450001
-23.983999 0.29499999 2.5239999
-23.99 0.29800001 2.5050001
-24.09 0.33399999 2.8269999
-24.017 0.29100001 2.786
-23.978001 0.26800001 2.7550001
-23.976999 0.26800001 2.733
-23.997999 0.28 2.717
-23.997999 0.28 2.6960001
-23.993 0.27700001 2.6730001
-23.997 0.27900001 2.6530001
-23.988001 0.27399999 2.6289999
-23.992001 0.27599999 2.609
-23.983 0.271 2.586
-23.990999 0.27500001 2.566
-23.990999 0.27500001 2.5450001
-23.993999 0.27700001 2.5239999
-23.976999 0.26699999 2.4990001
-24.000999 0.28099999 2.483
-24.098 0.31400001 2.8050001
-24.018 0.26800001 2.763
-23.983 0.248 2.7320001
-23.990999 0.25299999 2.7130001
-23.990999 0.252 2.6919999
-24.003 0.259 2.6730001
-23.999001 0.257 2.651
-23.99 0.25099999 2.6270001
-23.981001 0.24600001 2.6040001
-23.993 0.25299999 2.586
-23.976 0.243 2.5599999
-24.000999 0.257 2.5450001
-24 0.257 2.523
-23.995001 0.25400001 2.5009999
-23.996 0.255 2.48
-23.993 0.25299999 2.4579999
-24.091999 0.28799999 2.78
-24.013 0.242 2.7379999
-24.000999 0.235 2.7130001
-23.997 0.233 2.691
-24.004999 0.237 2.671
-23.981001 0.223 2.6440001
-23.990999 0.229 2.625
-23.995001 0.23199999 2.605
-23.999001 0.234 2.585
-23.99 0.228 2.5610001
-23.997999 0.233 2.5420001
-23.997 0.233 2.5209999
-24.004999 0.237 2.5009999
-23.979 0.222 2.474
-24 0.234 2.4579999
-23.973 0.21799999 2.4300001
-24.101999 0.27000001 2.7579999
-24.018 0.221 2.7149999
-24.011 0.21699999 2.6919999
-24.007 0.214 2.6689999
-24.014999 0.219 2.6500001
-23.993 0.207 2.6229999
-24.006001 0.214 2.605
-24.004999 0.213 2.5840001
-23.996 0.208 2.5599999
-23.996 0.208 2.539
-24.003 0.212 2.52
-23.999001 0.20900001 2.497
-23.997999 0.20900001 2.4760001
-24.002001 0.211 2.4560001
-24.000999 0.20999999 2.434
-23.988001 0.20299999 2.4100001
-24.103001 0.24699999 2.734
-24.014 0.19599999 2.6900001
-24.007999 0.192 2.6670001
-24.007999 0.192 2.6459999
-23.995001 0.185 2.6210001
-24.011 0.19400001 2.6040001
-24.014999 0.19599999 2.5840001
-23.997 0.186 2.5580001
-24.000999 0.18799999 2.5380001
-24.021999 0.2 2.5220001
-24.013 0.19400001 2.4979999
-23.995001 0.184 2.473
-24.003 0.18799999 2.454
-23.997999 0.185 2.4319999
-24.01 0.192 2.4130001
-24.003 0.18799999 2.3900001
-24.101 0.222 2.71
-24.016001 0.17299999 2.6670001
-24.003 0.16599999 2.642
-24 0.16500001 2.6199999
-24.007999 0.169 2.6010001
-24.004 0.16599999 2.579
-24.016001 0.17299999 2.5610001
-24.02 0.175 2.54
-24.007 0.167 2.516
-23.997 0.162 2.493
-24.018 0.17399999 2.4760001
-24.004999 0.16599999 2.4519999
-24.004 0.16500001 2.431
-24 0.163 2.4089999
-24.014999 0.17200001 2.391
-23.983999 0.154 2.3629999
-24.103001 0.2 2.6860001
-24.021 0.153 2.6440001
-24.017 0.15099999 2.622
-24.031 0.15899999 2.6040001
-24.021999 0.153 2.5810001
-24.011 0.147 2.5569999
-24.021 0.153 2.5380001
-24.011999 0.148 2.5150001
-24.007 0.145 2.493
-24.007 0.14399999 2.471
-24.014 0.149 2.4519999
-23.993 0.13699999 2.4260001
-24.004999 0.14300001 2.408
-24.009001 0.145 2.3870001
-24.004999 0.14300001 2.3659999
-24.106001 0.178 2.6630001
-24.035999 0.138 2.6240001
-24.013 0.125 2.598
-24.007 0.121 2.575
-24.023001 0.131 2.5580001
-24.000999 0.118 2.5309999
-24.009001 0.123 2.5120001
-24.013 0.125 2.4920001
-24.011999 0.124 2.47
-24.02 0.12800001 2.451
-24.011999 0.124 2.428
-24.023001 0.13 2.4100001
-24.014999 0.125 2.3870001
-24.01 0.122 2.3640001
-24.017 0.126 2.345
-23.111 -0.39300001 0.071999997
-23.089001 -0.40599999 0.054000001
-23.077 -0.41299999 0.035
-23.073999 -0.414 0.017000001
-24.093 0.146 2.6359999
-24.027 0.109 2.599
-24.021 0.106 2.576
-24.028999 0.11 2.5569999
-24.011 0.1 2.5309999
-24.028 0.109 2.5139999
-24.018999 0.104 2.4909999
-24.018999 0.104 2.47
-24.003 0.094999999 2.4449999
-23.999001 0.093000002 2.4230001
-24.017 0.103 2.4059999
-24.016001 0.102 2.385
-24.011 0.098999999 2.3629999
-24.023001 0.106 2.3440001
-24.025999 0.108 2.3239999
-23.233999 -0.345 0.16500001
-23.174999 -0.37799999 0.146
-23.156 -0.389 0.127
-23.145 -0.39500001 0.109
-23.125999 -0.40599999 0.090000004
-23.113001 -0.41299999 0.071999997
-23.091999 -0.42500001 0.054000001
-23.076 -0.43399999 0.035
-24.087 0.12 2.6110001
-24.033001 0.090000004 2.5769999
-24.025999 0.085000001 2.5539999
-24.018 0.081 2.5309999
-24.021999 0.082999997 2.51
-24.017 0.079999998 2.4879999
-24.032 0.088 2.471
-24.024 0.083999999 2.448
-24.017 0.079999998 2.425
-24.018 0.079999998 2.404
-24.021999 0.082000002 2.3840001
-24.011999 0.077 2.3610001
-24.02 0.081 2.342
-24.024 0.082999997 2.3210001
-24.051001 0.097999997 2.306
-23.239 -0.36300001 0.221
-23.231001 -0.368 0.20200001
-23.221001 -0.37400001 0.183
-23.205 -0.38299999 0.16500001
-23.174999 -0.40000001 0.146
-23.160999 -0.40700001 0.127
-23.141001 -0.419 0.109
-23.125 -0.428 0.090999998
-23.114 -0.43399999 0.071999997
-23.101 -0.44100001 0.054000001
-23.075001 -0.456 0.035999998
-24.094999 0.1 2.589
-24.039 0.07 2.5550001
-24.023001 0.061000001 2.53
-24.027 0.063000001 2.5090001
-24.027 0.061999999 2.4879999
-24.030001 0.064000003 2.4679999
-24.028999 0.064000003 2.447
-24.016001 0.056000002 2.4230001
-24.024 0.059999999 2.4030001
-24.009001 0.052000001 2.3789999
-24.021999 0.059 2.3610001
-24.017 0.056000002 2.339
-24.025 0.061000001 2.3199999
-24.028 0.061999999 2.299
-24.049999 0.075000003 2.283
-23.33 -0.33399999 0.29699999
-23.285999 -0.35800001 0.278
-23.266001 -0.37 0.259
-23.273001 -0.366 0.23999999
-23.246 -0.38100001 0.221
-23.219999 -0.396 0.20200001
-23.205 -0.40400001 0.183
-23.193001 -0.41100001 0.16500001
-23.179001 -0.419 0.146
-23.157 -0.43099999 0.12800001
-23.16 -0.42899999 0.109
-23.135 -0.44299999 0.090999998
-23.127001 -0.44800001 0.071999997
-23.091 -0.46799999 0.054000001
-23.082001 -0.47299999 0.035999998
-24.083 0.07 2.563
-24.035 0.044 2.53
-24.037001 0.045000002 2.51
-24.032 0.041999999 2.487
-24.031 0.041999999 2.4660001
-24.025999 0.039000001 2.444
-24.025999 0.037999999 2.4230001
-24.031 0.041000001 2.4030001
-24.024 0.037 2.3800001
-24.028 0.039000001 2.3599999
-24.031 0.041000001 2.3399999
-24.017 0.033 2.316
-24.021 0.035 2.296
-24.028 0.039000001 2.276
-24.038 0.045000002 2.2579999
-23.372999 -0.331 0.35499999
-23.351 -0.34400001 0.33500001
-23.347 -0.34599999 0.31600001
-23.306999 -0.368 0.29699999
-23.306 -0.36899999 0.278
-23.275 -0.38600001 0.259
-23.268999 -0.38999999 0.23999999
-23.257999 -0.396 0.221
-23.226 -0.414 0.20200001
-23.225 -0.414 0.184
-23.190001 -0.43399999 0.16500001
-23.177 -0.44100001 0.146
-23.171 -0.44499999 0.12800001
-23.139 -0.46200001 0.109
-23.138 -0.463 0.090999998
-23.101 -0.484 0.072999999
-23.104 -0.48199999 0.054000001
-23.080999 -0.49399999 0.035999998
-23.073 -0.49900001 0.017999999
-24.135 0.077 2.573
-24.097 0.056000002 2.543
-24.041 0.025 2.5079999
-24.042 0.025 2.4879999
-24.041 0.025 2.4660001
-24.035999 0.022 2.444
-24.027 0.016000001 2.421
-24.030001 0.017999999 2.401
-24.025 0.015 2.3789999
-24.034 0.02 2.359
-24.032 0.018999999 2.3380001
-24.016001 0.0099999998 2.3139999
-24.021 0.013 2.2939999
-24.039 0.023 2.277
-24.024 0.014 2.253
-24.040001 0.023 2.2349999
-23.448999 -0.31 0.433
-23.422001 -0.32600001 0.41299999
-23.403 -0.336 0.39300001
-23.391001 -0.34299999 0.37400001
-23.375999 -0.35100001 0.35499999
-23.353001 -0.36399999 0.33500001
-23.343 -0.36899999 0.31600001
-23.316999 -0.384 0.29699999
-23.313 -0.38600001 0.278
-23.292 -0.398 0.259
-23.287001 -0.40099999 0.23999999
-23.273001 -0.40900001 0.221
-23.247 -0.42300001 0.20200001
-23.214001 -0.44100001 0.184
-23.205 -0.44600001 0.16500001
-23.183001 -0.458 0.146
-23.157 -0.47299999 0.12800001
-23.165001 -0.46900001 0.109
-23.139999 -0.48199999 0.090999998
-23.139 -0.48300001 0.071999997
-23.101 -0.50400001 0.054000001
-23.091999 -0.509 0.035999998
-24.131001 0.050999999 2.5480001
-24.101 0.034000002 2.52
-24.040001 0 2.4849999
-24.035 -0.003 2.4630001
-24.037001 -0.001 2.4419999
-24.037001 -0.0020000001 2.421
-24.032 -0.0049999999 2.3989999
-24.044001 0.0020000001 2.381
-24.034 -0.003 2.3570001
-24.02 -0.011 2.3340001
-24.039 -0.001 2.3169999
-24.044001 0.0020000001 2.2969999
-24.042999 0.0020000001 2.276
-24.034 -0.0040000002 2.253
-24.033001 -0.0040000002 2.2320001
-24.035 -0.003 2.211
-24.030001 -0.0060000001 2.1889999
-23.511999 -0.29800001 0.51099998
-23.503 -0.303 0.49200001
-23.482 -0.315 0.472
-23.459 -0.32699999 0.45199999
-23.450001 -0.33199999 0.433
-23.429001 -0.34400001 0.41299999
-23.395 -0.36300001 0.39300001
-23.407 -0.35600001 0.37400001
-23.368999 -0.377 0.354
-23.368 -0.37799999 0.33500001
-23.339001 -0.39399999 0.31600001
-23.334 -0.396 0.29699999
-23.308001 -0.41100001 0.278
-23.277 -0.428 0.259
-23.27 -0.43200001 0.23999999
-23.268999 -0.433 0.221
-23.257 -0.43900001 0.20200001
-23.225 -0.45699999 0.184
-23.218 -0.461 0.16500001
-23.17 -0.48699999 0.146
-23.174 -0.48500001 0.12800001
-23.155001 -0.49599999 0.109
-23.148001 -0.49900001 0.090999998
-23.132999 -0.50800002 0.072999999
-23.118999 -0.51499999 0.054000001
-23.09 -0.53100002 0.035999998
-24.132999 0.028999999 2.526
-24.09 0.0049999999 2.494
-24.038 -0.024 2.461
-24.056 -0.014 2.444
-24.038 -0.024 2.4189999
-24.033001 -0.027000001 2.3970001
-24.018999 -0.034000002 2.3729999
-24.040001 -0.023 2.3570001
-24.042999 -0.021 2.336
-24.046 -0.02 2.316
-24.049999 -0.017999999 2.296
-24.045 -0.021 2.2739999
-24.031 -0.028999999 2.25
-24.030001 -0.028999999 2.2290001
-24.034 -0.027000001 2.2090001
-24.042 -0.023 2.1900001
-23.554001 -0.29699999 0.56999999
-23.542 -0.303 0.551
-23.545 -0.30199999 0.53100002
-23.530001 -0.31 0.51200002
-23.506001 -0.32300001 0.49200001
-23.483999 -0.33500001 0.472
-23.471001 -0.34299999 0.45199999
-23.441999 -0.35800001 0.43200001
-23.427 -0.36700001 0.41299999
-23.403999 -0.37900001 0.39300001
-23.396999 -0.38299999 0.37400001
-23.372999 -0.396 0.354
-23.374001 -0.396 0.336
-23.334999 -0.417 0.31600001
-23.325001 -0.42300001 0.29699999
-23.311001 -0.43000001 0.278
-23.297001 -0.43900001 0.259
-23.267 -0.45500001 0.23999999
-23.259001 -0.46000001 0.221
-23.25 -0.46399999 0.20200001
-23.233 -0.47400001 0.184
-23.212 -0.48500001 0.16500001
-23.191 -0.49700001 0.146
-23.181999 -0.50199997 0.12800001
-23.172001 -0.50700003 0.109
-23.146 -0.52200001 0.090999998
-23.127001 -0.53200001 0.072999999
-23.118999 -0.537 0.055
-23.094999 -0.55000001 0.035999998
-23.082001 -0.55699998 0.017999999
-24.149 0.014 2.506
-24.084 -0.022 2.47
-24.059999 -0.035 2.4430001
-24.049999 -0.041000001 2.4200001
-24.045 -0.044 2.398
-24.055 -0.037999999 2.3789999
-24.041 -0.046 2.355
-24.040001 -0.046999998 2.3340001
-24.035 -0.050000001 2.312
-24.025 -0.055 2.289
-24.037001 -0.048 2.27
-24.040001 -0.046999998 2.25
-24.035 -0.050000001 2.2279999
-24.047001 -0.043000001 2.21
-24.046 -0.044 2.1889999
-24.042999 -0.046 2.1670001
-23.611 -0.287 0.63099998
-23.598 -0.29499999 0.611
-23.591999 -0.29800001 0.59100002
-23.582001 -0.30399999 0.57099998
-23.554001 -0.31900001 0.551
-23.527 -0.33399999 0.52999997
-23.527 -0.33399999 0.51099998
-23.497 -0.34999999 0.491
-23.485001 -0.35699999 0.47099999
-23.462 -0.36899999 0.45199999
-23.451 -0.375 0.43200001
-23.433001 -0.38499999 0.41299999
-23.406 -0.40000001 0.39300001
-23.4 -0.403 0.37400001
-23.382999 -0.412 0.354
-23.362 -0.42399999 0.33500001
-23.349001 -0.43099999 0.31600001
-23.326 -0.44400001 0.29699999
-23.302 -0.45699999 0.278
-23.291 -0.463 0.259
-23.287001 -0.46599999 0.23999999
-23.267 -0.47600001 0.221
-23.261 -0.47999999 0.20299999
-23.219999 -0.50199997 0.184
-23.215 -0.505 0.16500001
-23.205 -0.50999999 0.147
-23.188 -0.51999998 0.12800001
-23.171 -0.52999997 0.11
-23.155001 -0.53799999 0.090999998
-23.136999 -0.54799998 0.072999999
-23.115 -0.56 0.055
-23.113001 -0.56199998 0.035999998
-23.091999 -0.57300001 0.017999999
-24.15 -0.0089999996 2.483
-24.089001 -0.041999999 2.448
-24.054001 -0.061999999 2.4189999
-24.044001 -0.067000002 2.395
-24.038 -0.07 2.3729999
-24.042 -0.068000004 2.3529999
-24.037001 -0.071000002 2.3310001
-24.044001 -0.067000002 2.312
-24.042999 -0.068000004 2.2909999
-24.042 -0.068000004 2.27
-24.037001 -0.071000002 2.2479999
-24.049 -0.064999998 2.2290001
-24.035 -0.072999999 2.2060001
-24.042999 -0.068999998 2.1860001
-24.041 -0.068999998 2.165
-24.049 -0.064999998 2.1459999
-23.68 -0.27200001 0.69199997
-23.663 -0.28200001 0.67199999
-23.645 -0.29100001 0.65200001
-23.641001 -0.294 0.63200003
-23.615 -0.308 0.611
-23.594 -0.31900001 0.59100002
-23.580999 -0.32600001 0.57099998
-23.563 -0.336 0.551
-23.541 -0.34799999 0.53100002
-23.511999 -0.36399999 0.50999999
-23.514999 -0.36199999 0.491
-23.478001 -0.382 0.47099999
-23.481001 -0.38100001 0.45199999
-23.457001 -0.39399999 0.43200001
-23.437 -0.405 0.41299999
-23.413 -0.41800001 0.39300001
-23.416 -0.417 0.37400001
-23.384001 -0.43399999 0.354
-23.362 -0.44600001 0.33500001
-23.347 -0.45500001 0.31600001
-23.334999 -0.461 0.29699999
-23.333 -0.46200001 0.278
-23.306 -0.477 0.259
-23.285 -0.48800001 0.23999999
-23.245001 -0.50999999 0.221
-23.246 -0.509 0.20200001
-23.233 -0.51700002 0.184
-23.211 -0.52899998 0.16500001
-23.195 -0.53799999 0.147
-23.191999 -0.53899997 0.12800001
-23.177 -0.54699999 0.11
-23.166 -0.55400002 0.090999998
-23.166 -0.55299997 0.072999999
-23.153 -0.56 0.055
-23.157 -0.55900002 0.035999998
-23.132999 -0.57200003 0.017999999
-23.848 -0.19400001 2.994
-23.865999 -0.184 2.9779999
-23.916 -0.15700001 2.971
-24.153 -0.030999999 2.46
-24.087 -0.067000002 2.424
-24.059 -0.082999997 2.3970001
-24.046 -0.090000004 2.3729999
-24.047001 -0.089000002 2.352
-24.055 -0.085000001 2.3329999
-24.044001 -0.090999998 2.3099999
-24.033001 -0.097000003 2.286
-24.048 -0.089000002 2.2690001
-24.045 -0.090000004 2.247
-24.042 -0.093000002 2.2260001
-24.045 -0.090999998 2.2060001
-24.048 -0.089000002 2.1860001
-24.044001 -0.090999998 2.164
-24.034 -0.097000003 2.141
-24.056 -0.085000001 2.125
-23.752001 -0.255 0.77499998
-23.729 -0.26800001 0.75300002
-23.735001 -0.264 0.73400003
-23.704 -0.28099999 0.713
-23.691 -0.28799999 0.69300002
-23.674 -0.29800001 0.67199999
-23.648001 -0.31200001 0.65100002
-23.627001 -0.32300001 0.63099998
-23.617001 -0.329 0.611
-23.580999 -0.34799999 0.58999997
-23.576 -0.35100001 0.56999999
-23.563999 -0.35699999 0.551
-23.547001 -0.36700001 0.53100002
-23.535999 -0.373 0.51099998
-23.500999 -0.39199999 0.491
-23.483999 -0.40099999 0.47099999
-23.462999 -0.412 0.45100001
-23.451 -0.419 0.43200001
-23.440001 -0.42500001 0.412
-23.429001 -0.43099999 0.39300001
-23.400999 -0.44600001 0.37400001
-23.393 -0.45100001 0.354
-23.362 -0.46799999 0.33500001
-23.356001 -0.47099999 0.31600001
-23.344 -0.47799999 0.29699999
-23.313999 -0.49399999 0.278
-23.302 -0.50099999 0.259
-23.294001 -0.505 0.23999999
-23.266001 -0.51999998 0.221
-23.26 -0.52399999 0.20299999
-23.246 -0.53100002 0.184
-23.242001 -0.53299999 0.16500001
-23.209999 -0.551 0.147
-23.218 -0.54699999 0.12800001
-23.221001 -0.54500002 0.11
-23.207001 -0.55299997 0.090999998
-23.205 -0.55400002 0.072999999
-23.198999 -0.55699998 0.054000001
-23.194 -0.56 0.035999998
-23.177 -0.56900001 0.017999999
-23.870001 -0.204 2.997
-23.882999 -0.197 2.98
-23.885 -0.197 2.96
-23.896 -0.191 2.941
-23.910999 -0.183 2.925
-23.903 -0.18700001 2.901
-23.917 -0.18000001 2.8840001
-23.923 -0.177 2.865
-23.955999 -0.15899999 2.8529999
-24.153 -0.054000001 2.437
-24.083 -0.092 2.4000001
-24.069 -0.1 2.3759999
-24.038 -0.117 2.348
-24.044001 -0.114 2.329
-24.051001 -0.11 2.309
-24.046 -0.113 2.2869999
-24.052999 -0.109 2.2679999
-24.061001 -0.105 2.2490001
-24.041 -0.116 2.224
-24.037001 -0.118 2.2019999
-24.035999 -0.119 2.181
-24.042999 -0.115 2.1619999
-24.034 -0.12 2.1389999
-24.054001 -0.109 2.1229999
-24.045 -0.114 2.0999999
-23.813 -0.244 0.83700001
-23.795 -0.25400001 0.81599998
-23.778999 -0.26300001 0.796
-23.763 -0.271 0.77499998
-23.746 -0.28099999 0.75400001
-23.732 -0.28799999 0.73400003
-23.707001 -0.30199999 0.713
-23.687 -0.31200001 0.69199997
-23.673 -0.32100001 0.67199999
-23.643999 -0.336 0.65100002
-23.648001 -0.33399999 0.63200003
-23.618999 -0.34999999 0.611
-23.598 -0.361 0.58999997
-23.577 -0.373 0.56999999
-23.559999 -0.382 0.55000001
-23.544001 -0.391 0.52999997
-23.521999 -0.403 0.50999999
-23.524 -0.40099999 0.491
-23.483 -0.42399999 0.47099999
-23.465 -0.43399999 0.45100001
-23.468 -0.43200001 0.43200001
-23.431 -0.45199999 0.412
-23.417999 -0.45899999 0.39300001
-23.419001 -0.45899999 0.37400001
-23.393 -0.47299999 0.354
-23.379999 -0.47999999 0.33500001
-23.361 -0.49000001 0.31600001
-23.329 -0.50700003 0.29699999
-23.323999 -0.50999999 0.278
-23.311001 -0.51700002 0.259
-23.271999 -0.53799999 0.23999999
-23.277 -0.53600001 0.221
-23.266001 -0.542 0.20299999
-23.275999 -0.53600001 0.184
-23.275 -0.537 0.16599999
-23.271999 -0.53799999 0.147
-23.266001 -0.542 0.12800001
-23.267 -0.54100001 0.11
-23.253 -0.54900002 0.090999998
-23.247 -0.55199999 0.072999999
-23.25 -0.551 0.054000001
-23.237 -0.55800003 0.035999998
-23.232 -0.56 0.017000001
-23.855 -0.236 2.99
-23.877001 -0.22400001 2.9760001
-23.881001 -0.222 2.9560001
-23.91 -0.206 2.9430001
-23.902 -0.211 2.9189999
-23.919001 -0.20200001 2.9030001
-23.948999 -0.186 2.8900001
-23.940001 -0.19 2.8670001
-23.958 -0.18099999 2.8510001
-23.945 -0.18799999 2.826
-23.957001 -0.182 2.8080001
-23.976999 -0.171 2.7920001
-23.997999 -0.16 2.777
-24.153 -0.079000004 2.414
-24.094999 -0.11 2.3789999
-24.063999 -0.127 2.352
-24.054001 -0.132 2.329
-24.056 -0.131 2.3080001
-24.054001 -0.132 2.2869999
-24.059 -0.13 2.267
-24.054001 -0.133 2.2449999
-24.048 -0.13600001 2.223
-24.056999 -0.131 2.204
-24.059 -0.13 2.184
-24.058001 -0.131 2.1630001
-24.044001 -0.139 2.1389999
-24.063999 -0.12800001 2.1229999
-24.042 -0.14 2.098
-24.065001 -0.127 2.0810001
-23.888 -0.227 0.92199999
-23.886 -0.228 0.90200001
-23.862 -0.241 0.88
-23.855 -0.245 0.86000001
-23.83 -0.259 0.838
-23.812 -0.26800001 0.81699997
-23.796 -0.27700001 0.796
-23.761999 -0.29499999 0.77399999
-23.753 -0.30000001 0.75400001
-23.733 -0.31099999 0.73299998
-23.708 -0.324 0.71200001
-23.690001 -0.33399999 0.69199997
-23.681999 -0.33899999 0.67199999
-23.658001 -0.35100001 0.65100002
-23.646999 -0.35800001 0.63099998
-23.620001 -0.37200001 0.61000001
-23.608 -0.37900001 0.58999997
-23.584999 -0.391 0.56999999
-23.556 -0.40599999 0.55000001
-23.549 -0.41 0.52999997
-23.540001 -0.41499999 0.51099998
-23.534 -0.419 0.491
-23.499001 -0.43700001 0.47099999
-23.475 -0.44999999 0.45100001
-23.466 -0.456 0.43200001
-23.441 -0.46900001 0.412
-23.431999 -0.47400001 0.39300001
-23.41 -0.486 0.37400001
-23.393999 -0.495 0.354
-23.379999 -0.50199997 0.33500001
-23.370001 -0.50700003 0.31600001
-23.351 -0.51800001 0.29699999
-23.343 -0.52200001 0.278
-23.344999 -0.52100003 0.259
-23.339001 -0.52399999 0.241
-23.344999 -0.52100003 0.222
-23.327999 -0.53100002 0.20299999
-23.323999 -0.53299999 0.184
-23.322001 -0.53399998 0.16599999
-23.322001 -0.53399998 0.147
-23.316 -0.537 0.12800001
-23.311001 -0.54000002 0.11
-23.304001 -0.54299998 0.090999998
-23.312 -0.54000002 0.071999997
-23.285999 -0.55400002 0.054000001
-23.304001 -0.54400003 0.035
-23.878 -0.24699999 2.994
-23.891001 -0.23999999 2.977
-23.891001 -0.23999999 2.9560001
-23.895 -0.23800001 2.9360001
-23.903999 -0.233 2.9170001
-23.924999 -0.222 2.902
-23.92 -0.22499999 2.8800001
-23.950001 -0.20900001 2.8670001
-23.950001 -0.20900001 2.846
-23.972 -0.197 2.8310001
-23.976 -0.19499999 2.8110001
-23.976 -0.19499999 2.79
-23.983 -0.192 2.7709999
-24.004999 -0.18000001 2.7550001
-24.025 -0.169 2.7390001
-24.027 -0.168 2.7190001
-23.999001 -0.183 2.691
-23.976 -0.19599999 2.664
-23.992001 -0.18700001 2.6470001
-23.959999 -0.204 2.618
-23.988001 -0.19 2.6040001
-23.957001 -0.206 2.575
-23.973 -0.198 2.5580001
-23.958 -0.206 2.5339999
-23.966 -0.20200001 2.5150001
-23.962 -0.204 2.493
-23.961 -0.205 2.4719999
-23.961 -0.205 2.4519999
-23.964001 -0.20299999 2.431
-23.962999 -0.204 2.411
-23.974001 -0.198 2.392
-23.974001 -0.198 2.372
-24.139999 -0.109 2.3870001
-24.089001 -0.13699999 2.355
-24.048 -0.15899999 2.325
-24.052999 -0.156 2.306
-24.054001 -0.156 2.2850001
-24.051001 -0.15700001 2.2639999
-24.042999 -0.162 2.2409999
-24.045 -0.161 2.221
-24.051001 -0.15800001 2.201
-24.052999 -0.15700001 2.181
-24.054001 -0.156 2.1600001
-24.044001 -0.162 2.138
-24.044001 -0.162 2.1170001
-24.047001 -0.16 2.0969999
-24.055 -0.156 2.0780001
-24.070999 -0.148 2.0599999
-23.959999 -0.207 2.0179999
-23.952 -0.211 1.997
-23.974001 -0.199 1.98
-23.983999 -0.19499999 1.88
-23.959 -0.20900001 1.834
-23.948999 -0.214 1.812
-23.950001 -0.214 1.772
-23.940001 -0.22 1.709
-23.955999 -0.211 1.692
-23.934999 -0.223 1.587
-23.993999 -0.191 1.5549999
-23.981001 -0.199 1.452
-23.941 -0.221 0.98500001
-23.945999 -0.219 0.96600002
-23.933001 -0.226 0.94499999
-23.899 -0.244 0.92199999
-23.874001 -0.25799999 0.89999998
-23.871 -0.259 0.88
-23.857 -0.26699999 0.85900003
-23.832001 -0.28 0.838
-23.816 -0.289 0.81699997
-23.795 -0.30000001 0.79500002
-23.778 -0.30899999 0.77499998
-23.76 -0.31900001 0.75400001
-23.735001 -0.33199999 0.73299998
-23.719999 -0.34 0.71200001
-23.681999 -0.361 0.69099998
-23.681999 -0.361 0.671
-23.65 -0.37799999 0.64999998
-23.636999 -0.38499999 0.63
-23.622 -0.39300001 0.61000001
-23.603001 -0.40400001 0.58999997
-23.59 -0.41100001 0.56999999
-23.589001 -0.412 0.551
-23.559999 -0.42699999 0.52999997
-23.524 -0.447 0.50999999
-23.507 -0.456 0.49000001
-23.493999 -0.463 0.47099999
-23.482 -0.46900001 0.45100001
-23.459999 -0.48100001 0.43099999
-23.452999 -0.48500001 0.412
-23.427 -0.49900001 0.39300001
-23.424 -0.5 0.37400001
-23.424 -0.5 0.35499999
-23.405001 -0.51099998 0.336
-23.403 -0.51200002 0.317
-23.403999 -0.51099998 0.29800001
-23.4 -0.514 0.27900001
-23.391001 -0.51800001 0.25999999
-23.386 -0.52100003 0.241
-23.389999 -0.51899999 0.222
-23.382999 -0.523 0.204
-23.379 -0.52499998 0.185
-23.382 -0.523 0.16599999
-23.382999 -0.523 0.147
-23.353001 -0.53899997 0.12899999
-23.348 -0.542 0.11
-23.959 -0.21600001 0.068999998
-25.139999 0.41499999 0.039000001
-25.150999 0.41999999 0.017000001
-23.875 -0.27200001 2.9909999
-23.879 -0.26899999 2.971
-23.892 -0.26199999 2.954
-23.909 -0.25299999 2.937
-23.909 -0.25299999 2.9159999
-23.93 -0.242 2.901
-23.931999 -0.242 2.881
-23.934 -0.23999999 2.8599999
-23.955999 -0.229 2.845
-23.955 -0.229 2.8239999
-23.976999 -0.21799999 2.809
-23.979 -0.21699999 2.7880001
-23.983 -0.215 2.7679999
-23.99 -0.211 2.7490001
-23.974001 -0.22 2.724
-23.987 -0.213 2.7060001
-23.971001 -0.221 2.681
-23.975 -0.219 2.661
-23.98 -0.21699999 2.642
-23.979 -0.21699999 2.6199999
-23.979 -0.21799999 2.599
-23.983 -0.21600001 2.5799999
-23.983999 -0.215 2.559
-23.974001 -0.22 2.536
-23.979 -0.21799999 2.516
-23.974001 -0.221 2.494
-23.964001 -0.226 2.471
-23.98 -0.21799999 2.454
-23.976 -0.22 2.4319999
-23.964001 -0.226 2.4089999
-23.974001 -0.221 2.3900001
-23.969999 -0.223 2.369
-23.972 -0.222 2.348
-23.969 -0.22400001 2.3269999
-23.969999 -0.223 2.3069999
-23.965 -0.226 2.2850001
-23.955999 -0.23100001 2.2620001
-23.975 -0.221 2.2460001
-23.968 -0.22499999 2.224
-23.966 -0.226 2.2030001
-23.976 -0.221 2.184
-23.988001 -0.215 2.1659999
-23.98 -0.219 2.1440001
-23.968 -0.22499999 2.1210001
-23.997 -0.20999999 2.1059999
-23.992001 -0.213 2.0840001
-23.983999 -0.21699999 2.062
-23.979 -0.22 2.0409999
-23.969 -0.22499999 2.0190001
-23.968 -0.226 1.998
-23.966999 -0.227 1.977
-23.969 -0.22499999 1.957
-23.972 -0.22400001 1.937
-23.965 -0.228 1.915
-23.974001 -0.22400001 1.897
-23.951 -0.236 1.872
-23.964001 -0.229 1.854
-23.958 -0.23199999 1.8329999
-23.962 -0.23 1.813
-23.954 -0.235 1.791
-23.959999 -0.23199999 1.772
-23.954 -0.235 1.751
-23.968 -0.228 1.733
-23.971001 -0.226 1.7130001
-23.962999 -0.23 1.691
-23.955 -0.235 1.67
-23.957001 -0.233 1.65
-23.962999 -0.23 1.631
-23.969 -0.227 1.6109999
-23.961 -0.23199999 1.59
-23.966999 -0.229 1.5700001
-23.961 -0.23199999 1.549
-23.934999 -0.24600001 1.525
-23.959999 -0.23199999 1.5089999
-23.955 -0.236 1.488
-23.955 -0.235 1.4680001
-23.966999 -0.229 1.449
-23.950001 -0.23800001 1.427
-23.964001 -0.23100001 1.408
-23.952 -0.237 1.387
-23.948999 -0.23899999 1.3660001
-23.965 -0.23 1.348
-23.948 -0.23999999 1.326
-23.951 -0.23800001 1.306
-23.955 -0.236 1.286
-23.950001 -0.23899999 1.266
-23.952 -0.23800001 1.2460001
-23.952999 -0.237 1.226
-23.959 -0.234 1.206
-23.945 -0.242 1.1849999
-23.948 -0.23999999 1.165
-23.945999 -0.241 1.145
-23.955999 -0.236 1.126
-23.945999 -0.242 1.105
-23.950001 -0.23999999 1.085
-23.945999 -0.242 1.0650001
-23.947001 -0.241 1.045
-24.011 -0.207 1.031
-23.969999 -0.229 1.007
-23.955999 -0.237 0.986
-23.941 -0.245 0.96399999
-23.924 -0.25400001 0.94300002
-23.892 -0.271 0.921
-23.898001 -0.26800001 0.90100002
-23.872999 -0.28099999 0.87900001
-23.855 -0.29100001 0.85799998
-23.834 -0.30199999 0.83700001
-23.813999 -0.31299999 0.81599998
-23.804001 -0.31799999 0.796
-23.768 -0.33700001 0.77399999
-23.743999 -0.34999999 0.75199997
-23.74 -0.352 0.73299998
-23.721001 -0.36300001 0.71200001
-23.698 -0.375 0.69099998
-23.673 -0.389 0.67000002
-23.66 -0.396 0.64999998
-23.639 -0.40700001 0.63
-23.632 -0.41100001 0.61000001
-23.608999 -0.42300001 0.58999997
-23.597 -0.42899999 0.56999999
-23.570999 -0.44299999 0.55000001
-23.539 -0.46000001 0.52899998
-23.533001 -0.46399999 0.50999999
-23.516001 -0.47299999 0.49000001
-23.499001 -0.48199999 0.47099999
-23.500999 -0.48100001 0.45199999
-23.489 -0.48699999 0.43200001
-23.474001 -0.49599999 0.41299999
-23.476999 -0.49399999 0.39399999
-23.475 -0.495 0.375
-23.459999 -0.50300002 0.35600001
-23.469999 -0.498 0.33700001
-23.462999 -0.50199997 0.31799999
-23.459999 -0.50400001 0.29899999
-23.464001 -0.50099999 0.28
-23.455999 -0.50599998 0.26100001
-23.448 -0.50999999 0.242
-23.465 -0.50099999 0.223
-23.447001 -0.51099998 0.204
-23.931999 -0.25299999 0.18799999
-23.921 -0.259 0.168
-23.924999 -0.257 0.148
-23.92 -0.259 0.12899999
-23.934999 -0.25099999 0.109
