ply
format ascii 1.0
comment PCL generated
element vertex 639
property float x
property float y
property float z
element camera 1
property float view_px
property float view_py
property float view_pz
property float x_axisx
property float x_axisy
property float x_axisz
property float y_axisx
property float y_axisy
property float y_axisz
property float z_axisx
property float z_axisy
property float z_axisz
property float focal
property float scalex
property float scaley
property float centerx
property float centery
property int viewportx
property int viewporty
property float k1
property float k2
end_header
19.565001 10.696 0.0060000001
19.622 10.697668 0.007666667
18.655714 10.795429 0.033857144
18.758444 10.796777 0.054000005
18.827833 10.797832 0.064833336
19.491501 10.7645 0.0105
19.551582 10.749325 0.049008187
19.640059 10.754576 0.04603821
18.592667 10.832001 0.0099999998
18.65856 10.814689 0.042925015
18.745106 10.809714 0.048319146
18.854183 10.830614 0.050746482
18.907053 10.842388 0.08772222
19.482 10.817 0.043000001
19.514999 10.839847 0.063615389
19.669563 10.83056 0.051505499
19.752003 10.851013 0.050205551
20.387777 10.848668 0.088555552
20.45594 10.85088 0.055601224
20.551172 10.857179 0.049314134
20.629049 10.865555 0.035202023
18.643999 10.93189 0.055222221
18.861322 10.942913 0.043406781
18.9072 10.9328 0.092200004
19.5278 10.9198 0.058600005
19.778334 10.948425 0.049285717
20.386665 10.955 0.070333332
20.431499 10.9195 0.015000001
20.591625 10.959 0.085500002
20.635811 10.948328 0.037171878
19.532001 11.0324 0.056799997
19.770508 11.031128 0.057659574
20.392 11.005 0.089000002
20.431 11.026 0.048999999
20.574001 11.022001 0.083000004
19.5208 11.1516 0.031600002
19.686001 11.1645 0.010166666
19.717167 11.124334 0.015166665
19.506001 11.208 0.014
18.695999 10.798 0.103
18.740833 10.797 0.125
18.843428 10.797 0.14
18.923 10.797 0.197
19.570221 10.793333 0.10822222
19.615099 10.793 0.1104
18.685499 10.8256 0.1173
18.751001 10.812766 0.14332636
18.851597 10.811185 0.15014434
18.943247 10.839501 0.15372591
19.033001 10.854 0.11
19.497335 10.878334 0.15333334
19.552731 10.830332 0.15378574
19.65156 10.831647 0.14973612
19.750027 10.853165 0.14904495
20.294001 10.865 0.186
20.361475 10.853782 0.15875402
20.449369 10.853598 0.14823531
20.538588 10.864416 0.1393083
18.691999 10.943333 0.11633334
18.715834 10.916 0.15333334
18.899 10.973 0.1065
18.951002 10.940282 0.15026563
19.493668 10.911001 0.19233334
19.518799 10.9322 0.15100001
19.776241 10.947805 0.14861955
20.289 10.942 0.189
20.343624 10.937124 0.15612499
20.499001 10.995 0.193
20.546387 10.951987 0.14724672
20.601999 10.964 0.1
19.529667 11.043333 0.14366667
19.777363 11.026137 0.15405174
19.799999 11.027 0.19599999
20.326 11.017 0.17
20.5424 11.0148 0.1322
18.774 10.796 0.212
18.838335 10.796167 0.24533334
19.647701 10.7797 0.2904
18.778042 10.824696 0.22056524
18.850924 10.815815 0.25156525
18.949806 10.819304 0.24987935
19.034555 10.844735 0.2586903
19.557543 10.839539 0.25015455
19.650888 10.837509 0.24948524
19.747192 10.854138 0.25013405
20.271118 10.853193 0.26284143
20.349453 10.856584 0.24879691
20.443041 10.864286 0.24417128
20.5061 10.862399 0.20860003
18.769751 10.93425 0.22150001
18.8155 10.93775 0.27375001
18.990585 10.952834 0.20958334
19.035133 10.942715 0.25604481
19.4895 10.956501 0.24824999
19.5235 10.941668 0.241
19.774664 10.949013 0.2517097
20.27 10.956 0.24455553
20.304001 10.912 0.20900001
20.462214 10.951507 0.25185338
20.503092 10.950636 0.20354547
19.519501 11.058001 0.24399999
19.77635 11.029195 0.25212896
19.80125 11.027 0.22274999
20.219 11.005 0.28999999
20.446201 11.0106 0.26040003
19.638186 10.647489 0.35748032
19.579666 10.769668 0.32933334
19.638792 10.740396 0.32510352
18.872776 10.824059 0.33219999
18.949707 10.818103 0.35090578
19.054724 10.826435 0.34451097
19.124273 10.847755 0.36678082
19.497999 10.863 0.39500001
19.558794 10.846696 0.36118054
19.65593 10.841046 0.34991029
19.748331 10.857672 0.35069147
20.178413 10.85463 0.37373909
20.250786 10.855823 0.34939203
20.34803 10.86377 0.34752414
20.413717 10.873034 0.31753573
18.868334 10.942777 0.34055558
18.91325 10.94675 0.38674998
19.087 10.942291 0.31979167
19.126225 10.93855 0.36508167
19.52775 10.92575 0.34325004
19.774765 10.947707 0.34973681
20.173 10.924001 0.36399999
20.211334 10.938667 0.32733333
20.370678 10.949468 0.36721274
20.414896 10.94438 0.31631035
19.526501 11.035 0.33649999
19.774422 11.037812 0.35201353
20.202 11.008 0.32300001
20.362299 11.0064 0.36780006
20.40625 11.01125 0.31125
19.622999 10.633 0.40000001
18.964188 10.828096 0.44135612
19.04896 10.822671 0.44877389
19.154284 10.834476 0.4451209
19.21718 10.851818 0.47611365
19.55267 10.847937 0.44879532
19.649857 10.846611 0.45015836
19.745359 10.859287 0.44870475
20.08292 10.85876 0.47735998
20.150877 10.856064 0.4528797
20.248734 10.861527 0.44933328
20.319689 10.867001 0.42602086
18.959751 10.932501 0.45925
19.004002 10.9345 0.48899999
19.172655 10.940868 0.42381579
19.218159 10.934579 0.47197369
19.5345 10.942833 0.45116669
19.77487 10.948125 0.44955668
20.083 10.931 0.48699999
20.116001 10.941168 0.44116664
20.280275 10.946515 0.47834486
20.322786 10.945976 0.42735714
19.530001 11.0488 0.45199999
19.776346 11.037304 0.45138961
20.126499 11.002 0.41250002
20.282646 11.01994 0.46123531
20.314735 11.021467 0.42933333
18.997 10.828 0.51450002
19.056707 10.827248 0.54383147
19.151569 10.82463 0.54888511
19.25108 10.843687 0.54996037
19.312485 10.860666 0.58429629
19.497999 10.869 0.505
19.555254 10.850375 0.54771537
19.649258 10.848385 0.54977369
19.745161 10.859483 0.54903477
19.993601 10.858201 0.58579999
20.057861 10.855224 0.55466419
20.150536 10.85833 0.55084848
20.227726 10.867805 0.5346666
19.043156 10.940694 0.54953843
19.105 10.99 0.58600003
19.268375 10.940572 0.53852451
19.308376 10.944812 0.58525002
19.530001 10.962334 0.56033337
19.774889 10.948667 0.54864651
20.042166 10.926001 0.53900003
20.188835 10.964667 0.59025007
20.232264 10.946816 0.54216391
19.5355 11.018 0.56800002
19.777153 11.035117 0.55140257
19.799999 11.045 0.51300001
20.056999 11.004 0.509
20.189249 11.01375 0.58050001
20.2278 11.009001 0.53420001
19.086538 10.834002 0.61607695
19.151554 10.830828 0.64690286
19.250849 10.829814 0.6489327
19.344145 10.848774 0.65328884
19.405001 10.857 0.69474995
19.555782 10.851931 0.64833051
19.649435 10.85094 0.64980119
19.745787 10.86325 0.64964378
19.894335 10.887 0.68466663
19.965389 10.858674 0.6582526
20.048948 10.859236 0.64895582
20.133398 10.867999 0.64111763
19.089333 10.926333 0.62066668
19.129126 10.952625 0.65599996
19.353962 10.937191 0.6473335
19.405668 10.949667 0.68966669
19.521999 10.958835 0.63350004
19.773371 10.95188 0.64853269
19.949202 10.9388 0.64860004
20.142351 10.949279 0.6513676
19.129 11.008 0.61199999
19.490999 11.072 0.69599998
19.5336 11.040999 0.65180004
19.77458 11.034372 0.6476118
19.992001 11.011 0.60100001
20.098 11.013 0.69700003
20.141169 11.007 0.64566672
19.181681 10.839108 0.7256071
19.248102 10.837763 0.74886382
19.348789 10.837319 0.74716908
19.435041 10.856483 0.75716394
19.558212 10.849145 0.74943125
19.649981 10.851226 0.74823338
19.747465 10.859861 0.74978715
19.873137 10.860256 0.76778424
19.948814 10.856317 0.74969077
20.042894 10.866115 0.74218166
20.102751 10.87875 0.70574999
19.181168 10.9335 0.72633332
19.221169 10.962333 0.76599997
19.393715 10.950572 0.70528579
19.426109 10.92673 0.73508114
19.503 10.967334 0.74033332
19.773867 10.940659 0.74051303
19.845251 10.909249 0.741
20.06028 10.947939 0.75268763
20.104666 10.924 0.70600003
19.421501 11.0205 0.74399996
19.518202 11.0712 0.75500005
19.675499 11.0975 0.74800003
19.771555 11.022112 0.727
20.056477 11.009571 0.75214273
20.106001 11.001 0.704
19.274607 10.843982 0.83168626
19.349911 10.84113 0.84872389
19.45118 10.843391 0.84793645
19.550045 10.849155 0.84937418
19.651731 10.85149 0.84945327
19.749008 10.860719 0.84784883
19.851643 10.857673 0.85142988
19.947966 10.862483 0.84648657
20.011751 10.87 0.81593758
19.262901 10.9481 0.83450001
19.303499 10.935 0.87849998
19.493999 10.921 0.81099999
19.506001 10.928 0.80800003
19.770668 10.914444 0.83166677
19.970703 10.952384 0.86636162
20.0128 10.943199 0.81603992
19.372501 11.021999 0.86000001
19.43 11.028334 0.86866665
19.515499 11.07325 0.86724997
19.693001 11.099 0.83600003
19.771 11.045 0.801
19.971001 11.008778 0.8544445
20.005999 11.006 0.81674999
19.700001 11.1 0.89399999
19.361015 10.846911 0.93646908
19.448059 10.843389 0.94870138
19.548159 10.847491 0.94817275
19.650198 10.85727 0.9494893
19.750147 10.859239 0.94957441
19.849213 10.860905 0.9497779
19.917086 10.870673 0.9265002
19.294001 10.9 0.912
19.349333 10.945333 0.94316667
19.643002 10.9025 0.98399997
19.709 10.904 0.90999997
19.879503 10.955501 0.97820002
19.923847 10.953668 0.92774367
19.445 11.026 0.94700003
19.516571 11.063 0.95314288
19.87875 11.014 0.97025001
19.912001 11.005751 0.9285
19.712999 11.1 0.95300001
19.577 10.798 1.059
19.388201 10.8582 1.0087999
19.459597 10.847289 1.0421981
19.554607 10.844357 1.0494469
19.648191 10.853225 1.046679
19.748154 10.857559 1.052242
19.826595 10.870364 1.0352354
19.393 10.953 1.002
19.434 10.942233 1.0475385
19.639 10.929 1.008
19.792875 10.951749 1.0885
19.834692 10.94375 1.0375769
19.467001 11.021334 1.0500001
19.51709 11.061363 1.0566363
19.779135 11.038001 1.0840001
19.82025 11.016 1.04475
19.713001 11.104 1.0405
19.487999 10.856417 1.1161667
19.553625 10.854447 1.1501039
19.648869 10.859296 1.1494561
19.742615 10.869171 1.1490909
19.474998 10.938334 1.1110001
19.519274 10.948545 1.1611819
19.772617 10.945793 1.1511149
19.497335 11.054667 1.1426667
19.525858 11.0465 1.155643
19.772114 11.038519 1.1508397
19.731499 11.106501 1.158
19.493999 10.877 1.295
19.557144 10.86097 1.2514001
19.64922 10.865024 1.2486665
19.741436 10.872484 1.2495302
19.528236 10.946295 1.2504705
19.76944 10.947967 1.2490879
19.521763 11.051471 1.2534705
19.770437 11.042611 1.2488847
19.802 11.041 1.211
19.747999 11.108 1.2460001
19.499001 10.873 1.3380001
19.555122 10.859263 1.3497289
19.65049 10.860558 1.3483984
19.738111 10.873739 1.3512913
19.528625 10.947937 1.34225
19.768797 10.948934 1.3485957
19.5238 11.047001 1.3440001
19.550692 10.86104 1.4494873
19.649235 10.859092 1.4496309
19.740366 10.871914 1.4493802
19.526777 10.952945 1.439889
19.767197 10.94957 1.4485341
19.493 11.065 1.423
19.520472 11.052765 1.4433529
19.552454 10.86013 1.5471216
19.649637 10.860278 1.5480884
19.741158 10.872843 1.549897
19.521667 10.947722 1.5454446
19.765387 10.944435 1.5477102
19.552704 10.861427 1.6474777
19.649065 10.859871 1.6485242
19.740936 10.869362 1.6469284
19.522791 10.947894 1.6546842
19.762859 10.94452 1.6499578
19.492001 11.077 1.6440001
19.519001 11.043546 1.6557273
19.497 10.879499 1.771
19.553955 10.86248 1.7495353
19.651796 10.859489 1.7488768
19.738703 10.870056 1.7490321
19.523439 10.951876 1.7554375
19.762331 10.950189 1.7477765
19.524643 11.050286 1.7517859
19.76021 11.042987 1.7485968
19.499001 10.878 1.811
19.552471 10.864562 1.8495868
19.649738 10.862302 1.8502603
19.740385 10.870333 1.8486409
19.497999 10.984 1.804
19.526251 10.95125 1.8556876
19.761976 10.950414 1.8489383
19.489 11.045 1.885
19.521626 11.055687 1.8541877
19.757412 11.043027 1.8497001
19.498001 10.870501 1.9835
19.550558 10.863659 1.949775
19.648533 10.863302 1.9500002
19.739388 10.871323 1.9474864
19.524563 10.955999 1.9515625
19.761536 10.948015 1.9482776
19.519251 11.05125 1.951625
19.755402 11.039139 1.9508309
19.551369 10.864821 2.0481622
19.650908 10.865406 2.0513308
19.738844 10.873266 2.0468934
19.496 10.981 2.079
19.522451 10.957751 2.0448999
19.759302 10.950342 2.0492108
19.513054 11.049685 2.0472102
19.752518 11.041429 2.0501251
19.552532 10.866703 2.1505256
19.651773 10.864519 2.1505046
19.736362 10.872302 2.1474242
19.492001 10.984501 2.1849999
19.522894 10.954422 2.1434212
19.75666 10.951088 2.1501145
19.495802 11.0382 2.1312001
19.511734 11.054934 2.1544003
19.747866 11.044983 2.147537
19.521168 11.123833 2.1721668
19.613001 11.169 2.171
19.733 11.101 2.171
19.543285 10.786 2.2932858
19.626499 10.797 2.2939999
19.494499 10.885 2.2444999
19.552155 10.844833 2.2539463
19.645725 10.854877 2.254705
19.734762 10.875122 2.2471735
19.497999 10.983 2.2739999
19.524649 10.953849 2.24
19.755289 10.950625 2.2490129
19.493334 11.042 2.2720001
19.511471 11.050706 2.2382941
19.744188 11.037243 2.2471349
19.497999 11.106 2.286
19.517309 11.140693 2.2524617
19.688999 11.1335 2.28
19.7085 11.115499 2.253
19.556286 10.694001 2.3931427
19.606335 10.688666 2.3936667
19.49675 10.762 2.3482499
19.548969 10.752423 2.3486218
19.630449 10.754213 2.3584287
19.474001 10.881 2.3199999
19.526787 10.836214 2.3385
19.655981 10.852524 2.3478036
19.730968 10.877239 2.3477499
19.48875 10.9365 2.3282499
19.519154 10.947949 2.3488004
19.752815 10.942618 2.349798
19.4888 11.0657 2.3381002
19.511751 11.036499 2.3496666
19.74008 11.036334 2.3504872
19.494373 11.147125 2.3557498
19.511 11.14689 2.3351109
19.67878 11.151668 2.3467777
19.703251 11.1135 2.3487499
19.533998 11.22125 2.35975
19.647133 11.214932 2.3630002
19.553501 10.590501 2.4920998
19.644001 10.5975 2.4875
19.494728 10.655545 2.4571819
19.54648 10.649203 2.4506547
19.626005 10.655786 2.4579346
19.495251 10.75 2.46275
19.52186 10.744483 2.4343448
19.641869 10.744946 2.4470658
18.965 10.89 2.4089999
19.495667 10.855667 2.4523335
19.514412 10.849648 2.4471178
19.658134 10.854841 2.4489501
19.732908 10.878184 2.4484766
19.51716 10.957475 2.4467895
19.669001 10.904 2.4860001
19.752193 10.94622 2.4518538
19.497999 11.073 2.457
19.515612 11.050167 2.4450552
19.73897 11.037514 2.4441285
19.495501 11.13975 2.4635
19.507843 11.147052 2.4436319
19.66806 11.170706 2.4487648
19.704668 11.110334 2.448
19.496 11.216 2.474
19.522223 11.237667 2.45
19.647501 11.240587 2.4531522
19.631001 11.301 2.4960001
19.490667 10.482778 2.5594442
19.52389 10.491445 2.5872223
19.6175 10.4965 2.5970001
19.492264 10.543304 2.5498261
19.545094 10.54863 2.5498729
19.626101 10.556852 2.5559564
19.489498 10.659 2.5522501
19.52141 10.635058 2.5418823
19.637342 10.649945 2.5479343
19.4935 10.749501 2.5575719
19.509184 10.745364 2.5374548
19.640642 10.743746 2.5422232
19.491501 10.853001 2.563
19.54635 10.8728 2.5576999
19.651154 10.866848 2.5481181
19.729605 10.878974 2.5525312
19.493999 10.959 2.543
19.513575 10.953428 2.5463812
19.750814 10.946445 2.5497406
19.492001 11.082667 2.5356669
19.513062 11.048811 2.5492501
19.738064 11.039364 2.5416667
19.495251 11.177999 2.5504999
19.508177 11.142764 2.5472941
19.667284 11.171953 2.5528095
19.7045 11.105499 2.5840001
19.491714 11.23043 2.5547142
19.512545 11.256183 2.5460911
19.651361 11.248199 2.5501821
19.542667 11.323001 2.5626667
19.641335 11.319112 2.568167
19.487 10.398 2.6849999
19.548002 10.3934 2.6952
19.48904 10.447858 2.6527956
19.549721 10.450975 2.6501219
19.624973 10.456576 2.6583488
19.488922 10.555154 2.6453846
19.519188 10.531063 2.6301875
19.634846 10.545284 2.6454213
19.493429 10.659286 2.6508572
19.507084 10.643834 2.6503334
19.636593 10.644972 2.6478784
19.4925 10.708 2.635
19.5275 10.73 2.6394999
19.625111 10.730889 2.6361668
19.4865 10.885 2.6605
19.571352 10.869129 2.6555004
19.650963 10.875363 2.6481421
19.73192 10.880774 2.6505821
19.498501 10.952499 2.664
19.512722 10.953667 2.6463332
19.671501 10.901 2.6760001
19.748211 10.948643 2.6468272
19.492001 11.002 2.652
19.512943 11.053888 2.6403334
19.734289 11.042161 2.6487093
19.492001 11.169668 2.645
19.518225 11.156168 2.6470003
19.666199 11.1682 2.6519599
19.702 11.11 2.608
19.494251 11.26125 2.6470001
19.505934 11.255468 2.6438003
19.655241 11.24589 2.6487594
19.488501 11.323 2.6830001
19.514 11.3355 2.641875
19.644859 11.337278 2.6547904
19.611 11.423 2.678
19.489429 10.288143 2.7908576
19.546574 10.296429 2.7920003
19.613667 10.293667 2.7969999
19.486872 10.351772 2.7518859
19.551628 10.349931 2.7501168
19.620432 10.357973 2.7575295
19.489098 10.449151 2.7414999
19.535715 10.419216 2.7160716
19.628443 10.446967 2.7489157
19.489061 10.551875 2.7511246
19.504002 10.580999 2.7320001
19.631443 10.544107 2.746654
19.490499 10.632999 2.7160001
19.57225 10.663 2.7675002
19.621 10.636732 2.7392671
19.604668 10.742332 2.7296667
19.48875 10.884 2.7595
19.549612 10.874511 2.7513564
19.649233 10.868297 2.7491236
19.728628 10.881486 2.7509437
19.493999 10.929 2.7335
19.511904 10.951651 2.7531497
19.66375 10.907249 2.7544999
19.745619 10.94596 2.7487433
19.497999 11.086 2.7980001
19.511131 11.047479 2.7468259
19.731825 11.041903 2.7523904
19.539089 11.180727 2.7409091
19.655413 11.18753 2.7368824
19.702499 11.1035 2.7519999
19.488602 11.256001 2.7504003
19.513403 11.241734 2.7519331
19.657661 11.248532 2.7504671
19.497335 11.367332 2.7680001
19.511539 11.346153 2.7461541
19.647602 11.346459 2.7482202
19.58 11.4568 2.7464001
19.636814 11.417812 2.7702498
19.480999 10.190778 2.890111
19.540888 10.191889 2.8925557
19.608501 10.189 2.892
19.480988 10.249543 2.852941
19.55002 10.250537 2.8494265
19.617836 10.260241 2.859663
19.475212 10.332894 2.8437369
19.529108 10.319777 2.8176665
19.626505 10.347581 2.8467965
19.486866 10.441133 2.8369334
19.501799 10.4554 2.8502002
19.626402 10.447851 2.8467624
19.480667 10.524334 2.8296669
19.58 10.594 2.888
19.619823 10.538973 2.8348238
19.591999 10.630501 2.8319998
19.612499 10.6025 2.8065
19.481167 10.887668 2.8593335
19.551266 10.868217 2.8505819
19.653578 10.860043 2.8490713
19.724779 10.87887 2.8478444
19.47975 10.92125 2.8588748
19.514799 10.958651 2.84905
19.744642 10.941592 2.8512235
19.492001 11.0515 2.8615
19.510626 11.054438 2.8541875
19.737696 11.035955 2.8521523
19.705168 11.105501 2.8436668
19.4925 11.2675 2.8470001
19.532354 11.25541 2.8491764
19.644148 11.254182 2.8444395
19.494667 11.335333 2.8481669
19.508667 11.357 2.8535001
19.650265 11.349467 2.8504488
19.482 11.417 2.859
19.505501 11.438999 2.8534999
19.640026 11.438314 2.8563418
19.612 11.507999 2.8645
19.480274 10.087545 2.9880912
19.548832 10.094501 2.9927499
19.6138 10.0952 2.9895999
19.478216 10.149037 2.9475515
19.548046 10.148056 2.9500396
19.613676 10.159689 2.9577374
19.482088 10.236131 2.9414783
19.545923 10.213 2.9063847
19.620783 10.246415 2.9473827
19.477882 10.348531 2.939353
19.504 10.327499 2.9130001
19.623344 10.345881 2.9440715
19.485334 10.419833 2.9286668
19.595669 10.461333 2.9753332
19.612503 10.439088 2.9406769
19.594 10.525 2.918
19.4804 10.877301 2.9572999
19.55162 10.863791 2.9506176
19.653904 10.856001 2.9504724
19.728092 10.871788 2.9512835
19.480499 10.943357 2.9700713
19.508078 10.955231 2.9329231
19.747044 10.947328 2.9517076
19.488001 11.050625 2.9646249
19.50946 11.051691 2.9483078
19.738701 11.043063 2.9529145
19.708715 11.115572 2.9581428
19.569221 11.2815 2.9474444
19.627743 11.282743 2.9273543
19.496201 11.353801 2.9650002
19.544857 11.322858 2.9655714
19.645596 11.34306 2.9562347
19.491335 11.448334 2.9673336
19.515333 11.466667 2.9433334
19.643684 11.44898 2.9460208
19.523001 11.532 2.9909999
19.631462 11.517231 2.9609232
0 0 0 1 0 0 0 1 0 0 0 1 0 0 0 0 0 639 1 0 0
