ply
format ascii 1.0
comment PCL generated
element vertex 703
property float x
property float y
property float z
element camera 1
property float view_px
property float view_py
property float view_pz
property float x_axisx
property float x_axisy
property float x_axisz
property float y_axisx
property float y_axisy
property float y_axisz
property float z_axisx
property float z_axisy
property float z_axisz
property float focal
property float scalex
property float scaley
property float centerx
property float centery
property int viewportx
property int viewporty
property float k1
property float k2
end_header
-0.83850002 -4.60425 0.0067500002
-1.003 -4.5250006 0.023666665
-0.94557893 -4.5375514 0.040595509
-0.84659797 -4.5466614 0.044139866
-1.001 -4.4619999 0.094999999
-0.9638226 -4.4720798 0.069790334
-0.81164432 -4.4666929 0.056153849
-0.79712725 -4.4318175 0.03974545
-0.94960421 -4.3464375 0.04810416
-0.82578945 -4.3603683 0.048263162
-0.76468104 -4.3307815 0.04860216
0.18095833 -4.3053761 0.077458337
0.25461945 -4.3102961 0.054068178
0.33144933 -4.3124509 0.035507251
0.40000001 -4.3070002 0.012
-2.0072498 -4.2132502 0.0080000004
-1.9402448 -4.2227149 0.043938763
-1.8511584 -4.2320976 0.050096553
-1.7533618 -4.2306504 0.05290132
-1.6939999 -4.2224002 0.090999998
-0.92980003 -4.2494001 0.053080004
-0.87853861 -4.241231 0.049923077
-0.71889144 -4.2550135 0.049789809
0.093999997 -4.2659998 0.096000001
0.15653048 -4.2760725 0.058499996
0.2401509 -4.2936797 0.04757547
0.3590118 -4.2635689 0.057887591
0.41849998 -4.2342763 0.018741379
-2.0116003 -4.1484003 0.0078000003
-1.9551817 -4.1519694 0.062090911
-1.7343556 -4.1526957 0.041466665
-1.6909188 -4.1442976 0.089081079
-0.92433327 -4.1523337 0.04277778
-0.87626666 -4.1644669 0.054600008
-0.71687782 -4.1516914 0.051645175
-0.69999999 -4.1300001 0.011
0.093249999 -4.1674995 0.095999993
0.16032472 -4.1574135 0.060292993
0.25009215 -4.1550221 0.050899573
0.34610897 -4.1646113 0.047943126
0.41268426 -4.1813159 0.018736843
-1.9366153 -4.0604029 0.037649576
-1.8504479 -4.0698166 0.051054735
-1.7531614 -4.0822802 0.052036487
-1.6875384 -4.0861154 0.08515384
-0.91372228 -4.0481105 0.057388891
-0.89399999 -4.0334997 0.032499999
-0.72928011 -4.0403457 0.051168222
-0.69 -4.0149999 0.048
-0.90759373 -3.9484999 0.055062499
-0.85042065 -3.9383631 0.052176964
-0.74923104 -3.951849 0.045482013
-0.69700003 -3.9679999 0.0175
-0.90100002 -3.8970001 0.0040000002
-0.85850006 -3.8953123 0.0088125002
-0.76200002 -3.8963335 0.0063333339
-0.84109527 -4.5100474 0.10409524
-0.9457472 -4.4416852 0.14232753
-0.8421647 -4.4492364 0.14812456
-0.79111111 -4.4328895 0.13833334
-0.95964587 -4.3621244 0.16541666
-0.80919033 -4.3762617 0.15814286
-0.76542497 -4.3254514 0.14954723
0.076666668 -4.3038335 0.17766666
0.16325663 -4.3070431 0.15746903
0.23732103 -4.3100185 0.13634859
-1.9127694 -4.2172308 0.11653847
-1.8409296 -4.2284636 0.14516668
-1.7486558 -4.2380939 0.1486291
-1.6589404 -4.232482 0.15639061
-0.9446249 -4.2510505 0.15225001
-0.8506667 -4.2466669 0.12133335
-0.72496879 -4.2599931 0.14888267
-0.003 -4.2410002 0.197
0.062714271 -4.2679501 0.16084471
0.14125447 -4.2894211 0.14707102
0.25468358 -4.2709217 0.15569495
0.31968424 -4.2401934 0.11794737
-1.9153078 -4.1668458 0.12069231
-1.8754286 -4.1495361 0.16
-1.725 -4.1030002 0.13340001
-1.6428154 -4.149282 0.14761153
-1.5967144 -4.1300001 0.19371429
-0.93202853 -4.1414862 0.15879999
-0.86249995 -4.1855001 0.1105
-0.71678412 -4.1503897 0.15233958
-0.69461536 -4.1353846 0.17230769
-0.0070000002 -4.1589999 0.199
0.062961526 -4.1504235 0.16362309
0.14802149 -4.1477056 0.15070266
0.24971366 -4.1562619 0.14962503
0.32094443 -4.1767778 0.1221111
-1.9077142 -4.0707145 0.111
-1.8403498 -4.0642872 0.14461347
-1.7511765 -4.0758123 0.15064172
-1.6552906 -4.0841689 0.15425001
-1.5927501 -4.0843749 0.188375
-0.91755253 -4.0477896 0.15065791
-0.85063499 -4.0261602 0.16786128
-0.75253034 -4.0409694 0.15159142
0.16075 -4.0924997 0.18399999
-0.90672719 -3.9825459 0.11672728
-0.85314274 -3.9857743 0.1203333
-0.7658723 -3.9877241 0.1149362
-0.84238714 -4.4080639 0.20880643
-0.94228882 -4.3469634 0.24393979
-0.84007424 -4.3562508 0.25014052
-0.75794619 -4.3121428 0.24710177
0.067312501 -4.3037505 0.26262498
0.14016069 -4.3059826 0.23219647
0.20699999 -4.3015003 0.204
-1.821257 -4.2154574 0.2252
-1.7484553 -4.2289553 0.24873133
-1.6481496 -4.2392101 0.24874263
-1.5678641 -4.2315369 0.25975192
-1.449 -4.2420001 0.29300001
-0.9569453 -4.2464008 0.25458184
-0.85900009 -4.251667 0.24633333
-0.72915745 -4.2628889 0.25160104
-0.03071852 -4.2612529 0.26300001
0.048315383 -4.2846594 0.25001916
0.15005559 -4.2757225 0.25379473
0.21871696 -4.2466602 0.21713211
-1.8248333 -4.1569586 0.22425002
-1.7724444 -4.1422596 0.27151856
-1.6065 -4.1700001 0.22299999
-1.5546296 -4.149756 0.25074014
-0.93745297 -4.1453123 0.26065627
-0.84136146 -4.1096807 0.28391489
-0.72910827 -4.1415796 0.25501984
-0.69366664 -4.1438098 0.24433331
-0.035009339 -4.1481309 0.26799065
0.04619313 -4.1425424 0.25068691
0.14818774 -4.148541 0.25173065
0.22191206 -4.1663184 0.22605497
-1.8134286 -4.0677147 0.21161906
-1.7449993 -4.0667582 0.24373482
-1.6509182 -4.0777907 0.24897966
-1.561483 -4.086637 0.25583884
-1.493 -4.0890002 0.294
-0.91821736 -4.0862608 0.25039127
-0.85524505 -4.0742583 0.24049045
-0.77174634 -4.0803251 0.22935212
0.18042858 -4.0972857 0.22257143
-0.91464883 -4.3071356 0.34864864
-0.8455075 -4.3105292 0.34094763
-0.76042044 -4.3074832 0.34477779
-0.018400002 -4.3018003 0.36960003
0.048947368 -4.3050528 0.3386316
0.10633334 -4.302 0.30533335
-1.7242552 -4.2195301 0.33705881
-1.6477401 -4.2339277 0.35029328
-1.5452279 -4.2417331 0.34601688
-1.4721146 -4.231761 0.36689577
-0.94145197 -4.2691154 0.34269229
-0.85886812 -4.2927256 0.36075827
-0.7341643 -4.263556 0.35052177
-0.12856731 -4.2531543 0.36801931
-0.051314175 -4.2768474 0.34876621
0.050075486 -4.2762861 0.35085285
0.12113044 -4.2493629 0.32360876
-1.73 -4.1549358 0.33412901
-1.6832858 -4.1337147 0.37821427
-1.5129646 -4.1583929 0.31103572
-1.4653587 -4.1471524 0.35468262
-0.94067872 -4.1594996 0.35142866
-0.84736389 -4.1158981 0.34934211
-0.73943609 -4.1369529 0.35092217
-0.69507146 -4.1390715 0.3546429
-0.1304231 -4.1369238 0.36789423
-0.05189595 -4.1349649 0.34911308
0.049429134 -4.1413298 0.35077155
0.12481038 -4.1610088 0.32970679
-1.7185863 -4.0688968 0.31779313
-1.6504128 -4.0693855 0.34548473
-1.5508661 -4.0798564 0.34931716
-1.4659592 -4.0875478 0.36009032
-0.91240007 -4.0936003 0.34810001
-0.87172747 -4.0961823 0.35540906
-0.72500002 -4.0929999 0.38
-0.12899999 -4.099 0.38299999
-0.91892868 -4.3060007 0.44110715
-0.84586149 -4.3069229 0.44964623
-0.75424182 -4.3068557 0.44409889
-0.025666667 -4.3023334 0.41666669
-1.631092 -4.2257757 0.43894747
-1.5502002 -4.2378578 0.44817412
-1.446362 -4.2395749 0.44628021
-1.3755831 -4.2283192 0.47420835
-0.92180276 -4.2740135 0.45454928
-0.85288495 -4.2917175 0.44923085
-0.73992223 -4.2671027 0.45138085
-0.22382432 -4.2474604 0.46989194
-0.15050003 -4.2698021 0.45059448
-0.051275242 -4.2746577 0.44988146
0.022739131 -4.2499032 0.42355439
-1.6396668 -4.1543846 0.44241026
-1.5815717 -4.1230006 0.48142862
-1.418295 -4.1487708 0.41795075
-1.3693312 -4.1460838 0.46377274
-0.92431474 -4.1354809 0.44583336
-0.84571779 -4.1129947 0.44977659
-0.73769659 -4.1357665 0.45038322
-0.69471425 -4.1347146 0.44764283
-0.22513919 -4.1371269 0.47124049
-0.15081388 -4.1262202 0.44742852
-0.048932306 -4.1339498 0.45202777
0.029866667 -4.156374 0.43215352
-1.6226883 -4.0649834 0.42367211
-1.5522473 -4.0712829 0.44997036
-1.4507803 -4.0822501 0.44999999
-1.3704457 -4.0890217 0.46556526
-0.91774368 -4.0928464 0.44533339
-0.86913151 -4.0940008 0.45292112
-0.78533334 -4.0980005 0.48199999
-0.236 -4.099 0.484
-0.14300001 -4.0994997 0.4655
-0.093000002 -4.0999999 0.484
-0.92085719 -4.3079643 0.54896426
-0.84611273 -4.3056121 0.54774183
-0.75958586 -4.3054581 0.55078572
-1.603 -4.2199998 0.50599998
-1.5383965 -4.2274051 0.53874534
-1.4497243 -4.2390976 0.55029356
-1.3480488 -4.2381086 0.54818135
-1.2851924 -4.2245383 0.57807696
-0.92320222 -4.2781591 0.54853195
-0.85317677 -4.291811 0.54858828
-0.74120843 -4.2704673 0.54956257
-0.32134095 -4.2297497 0.57709086
-0.24855602 -4.2602572 0.55234081
-0.15058593 -4.2691483 0.54970902
-0.07413131 -4.2464943 0.52824241
-1.5459 -4.1526251 0.54894996
-1.4966667 -4.1256671 0.58766669
-1.3227345 -4.1460609 0.52963269
-1.2758609 -4.1450434 0.57136524
-0.92486358 -4.1348176 0.53977281
-0.84193015 -4.1077404 0.54866993
-0.73933524 -4.1319456 0.54894555
-0.69412506 -4.1308126 0.54987496
-0.32238805 -4.1344032 0.57449257
-0.24753524 -4.1239033 0.54842472
-0.14823157 -4.1261015 0.5513413
-0.067094125 -4.1476359 0.53523523
-1.5287223 -4.0689893 0.53257775
-1.4499764 -4.0745444 0.55037087
-1.3515223 -4.0854077 0.55035818
-1.2789516 -4.0892096 0.56969362
-0.91671443 -4.0872388 0.55585724
-0.85685879 -4.0926991 0.55030084
-0.755 -4.0965004 0.55133337
-0.301 -4.0999999 0.579
-0.27237499 -4.0966249 0.55662501
-0.92089474 -4.3052635 0.6494211
-0.84560001 -4.3045454 0.65223634
-0.76014894 -4.3066387 0.63785106
-1.5100001 -4.2184 0.61280006
-1.4437839 -4.2286401 0.64455187
-1.3510803 -4.2413511 0.64835644
-1.2526127 -4.2371664 0.65210772
-1.1908002 -4.2163997 0.68314999
-0.92240012 -4.2824411 0.64787382
-0.85231811 -4.2919469 0.6496883
-0.74432361 -4.2690139 0.65083265
-0.41679165 -4.2197094 0.68120831
-0.34520483 -4.2491713 0.65426826
-0.24851154 -4.2626805 0.64973468
-0.17115998 -4.2456875 0.63121605
-0.097999997 -4.2049999 0.602
-1.4588751 -4.1488247 0.65107501
-1.3210001 -4.1064997 0.61500001
-1.2288305 -4.1487417 0.631603
-1.1822051 -4.145638 0.67965072
-0.93000001 -4.1433253 0.63350004
-0.84592861 -4.1067424 0.64778572
-0.73803264 -4.1293573 0.64999276
-0.69171435 -4.1262145 0.64128572
-0.42000002 -4.1355948 0.68154061
-0.3469685 -4.1192856 0.65011054
-0.24573767 -4.1202393 0.65001786
-0.16256349 -4.1431365 0.63985264
-1.4324173 -4.0674009 0.63825977
-1.3527511 -4.0749812 0.65091842
-1.2514127 -4.0863194 0.6512965
-1.1753777 -4.0900435 0.67931098
-0.91666174 -4.0887847 0.65595394
-0.85185939 -4.0912733 0.64834809
-0.76576 -4.0942001 0.64515996
-0.40900001 -4.0938888 0.68500006
-0.34648779 -4.0954151 0.65682918
-0.26666668 -4.0969162 0.65983343
-0.164 -4.0999999 0.60699999
-0.91779995 -4.3035002 0.73809999
-0.84295571 -4.3049111 0.73902225
-0.7482692 -4.3048849 0.75219232
-1.415579 -4.2210002 0.71584213
-1.3457944 -4.2323756 0.74338287
-1.2507821 -4.2410665 0.74937445
-1.1536109 -4.2334237 0.755
-1.0866667 -4.2238889 0.7853334
-0.9237684 -4.2823892 0.74797904
-0.8513236 -4.290566 0.75277066
-0.7477361 -4.2699637 0.74886411
-0.51069236 -4.2184615 0.78615391
-0.44179296 -4.2419953 0.75711489
-0.34934276 -4.256041 0.74955916
-0.26768461 -4.2419658 0.73406017
-1.4104286 -4.1498575 0.71257144
-1.3641611 -4.1473866 0.75854832
-1.2192 -4.1052003 0.74299997
-1.1363052 -4.1443844 0.74006766
-1.0900426 -4.1402125 0.78514898
-0.92279994 -4.12536 0.74387997
-0.84870201 -4.1063619 0.7446171
-0.73496205 -4.1299319 0.74889475
-0.69711113 -4.1239996 0.76511115
-0.51390475 -4.1375241 0.7816667
-0.4501166 -4.1211028 0.74472278
-0.34376618 -4.1128888 0.74903512
-0.25754225 -4.1369338 0.74391478
-0.19216667 -4.1503334 0.70600003
-1.405 -4.0768003 0.70880002
-1.3391807 -4.0672131 0.74078077
-1.2505518 -4.0777726 0.75011325
-1.1538814 -4.088037 0.75308752
-1.0852222 -4.0913706 0.78518528
-0.9190768 -4.0841026 0.75091016
-0.85257506 -4.0902605 0.75246388
-0.76530176 -4.0951514 0.75396228
-0.50399995 -4.0932503 0.78900003
-0.4425295 -4.0938239 0.76268238
-0.36247444 -4.0953226 0.75235587
-0.28312501 -4.0981255 0.73337501
-0.91350001 -4.3024998 0.84899998
-0.83808702 -4.3034348 0.85526085
-0.75393754 -4.3053131 0.8384375
-1.3174334 -4.2263002 0.81846678
-1.2477453 -4.2330194 0.84717405
-1.1493409 -4.2429991 0.84926474
-1.0624605 -4.2334356 0.85674721
-0.9250294 -4.2773576 0.8477428
-0.85064095 -4.2887239 0.84910393
-0.74755919 -4.2691393 0.84960735
-0.60533333 -4.2070003 0.8926667
-0.53842551 -4.2348294 0.85939014
-0.45030382 -4.2494478 0.85050648
-0.36547017 -4.2392678 0.83769619
-1.3229374 -4.158875 0.81412488
-1.2730002 -4.1418929 0.86335713
-1.1313334 -4.1051669 0.83633339
-1.0474075 -4.1504507 0.84544957
-0.93900007 -4.1294374 0.84824997
-0.83166677 -4.1049442 0.85505557
-0.7332418 -4.1316619 0.8450501
-0.63279319 -4.1549311 0.88017237
-0.55769992 -4.1426001 0.84398758
-0.44224638 -4.1073914 0.85105801
-0.34877363 -4.1342072 0.84574497
-0.29179999 -4.1502004 0.80720001
-1.3100001 -4.0727148 0.80985719
-1.2439818 -4.0664787 0.8443054
-1.1498706 -4.0806623 0.84909809
-1.0628617 -4.0884004 0.85570008
-0.92433304 -4.08038 0.85291964
-0.85166276 -4.0871534 0.8485623
-0.75972486 -4.0925612 0.85566247
-0.60549998 -4.0970001 0.88699996
-0.53646773 -4.0877008 0.85926616
-0.45076957 -4.0916123 0.84956956
-0.3757838 -4.0956492 0.84137839
-0.92199999 -4.3060002 0.91550004
-0.84944451 -4.3042226 0.94566673
-0.75230008 -4.3037004 0.95400012
-1.2257646 -4.2246871 0.92874515
-1.1501733 -4.2340531 0.94837004
-1.0462161 -4.2429504 0.9456718
-0.95269811 -4.2574916 0.95237857
-0.85055703 -4.2870255 0.94963825
-0.75118065 -4.2715821 0.94902784
-0.63248682 -4.2272382 0.95973468
-0.54965436 -4.2458711 0.94889867
-0.46128324 -4.2363405 0.93873972
-0.39933333 -4.2110004 0.90700006
-1.2276088 -4.1573911 0.92986965
-1.1736875 -4.1418753 0.97399998
-1.0351818 -4.1130905 0.92736357
-0.95934486 -4.1388969 0.94220686
-0.82755554 -4.1067772 0.9275555
-0.73067665 -4.1404896 0.94549525
-0.65910769 -4.1452799 0.94694591
-0.53427023 -4.1069455 0.95429748
-0.44323838 -4.133749 0.95320541
-0.38816667 -4.1464338 0.91476667
-1.2162857 -4.067286 0.91307163
-1.1489695 -4.0692992 0.94680178
-1.0524455 -4.0820775 0.95053864
-0.951873 -4.085413 0.95485735
-0.85053647 -4.083703 0.9495852
-0.76085174 -4.0912967 0.95311111
-0.63231945 -4.0827317 0.96327722
-0.55206925 -4.0860114 0.94919634
-0.46562767 -4.0917134 0.93910629
-0.39399999 -4.0999999 0.90499997
-0.91600001 -4.3010001 1.03
-0.84158337 -4.303 1.0488335
-0.77757144 -4.3030005 1.0637144
-1.1286447 -4.2273684 1.0333027
-1.0487419 -4.238142 1.0483024
-0.9501214 -4.2623215 1.0501697
-0.85105038 -4.2858996 1.0488738
-0.74835104 -4.2639194 1.0497388
-0.64940006 -4.2327709 1.0511384
-0.55896533 -4.2302241 1.038236
-0.49362499 -4.2137504 1.005875
-1.1338001 -4.1522565 1.0384573
-1.0854 -4.1339002 1.0818
-0.92891669 -4.1126671 1.0227501
-0.85535705 -4.1139765 1.0588335
-0.75022858 -4.1346145 1.0380428
-0.66383338 -4.1368332 1.0408334
-0.53648061 -4.1366668 1.0574728
-0.48420507 -4.1468196 1.0155128
-1.119059 -4.0661774 1.0246863
-1.0506817 -4.0713887 1.0493132
-0.95233887 -4.0806885 1.0517488
-0.84994006 -4.0862126 1.0482532
-0.74497002 -4.0826292 1.0498983
-0.65030491 -4.0787349 1.0500855
-0.56200701 -4.087873 1.0431212
-0.49375001 -4.0932498 1.0174999
-0.85699999 -4.3010001 1.165
-0.77100003 -4.3049998 1.1619999
-1.0363142 -4.2250857 1.1378382
-0.94958681 -4.2558203 1.1497424
-0.84904832 -4.2831841 1.1501209
-0.74836665 -4.2604623 1.1507814
-0.66045225 -4.2223496 1.1400003
-0.59516668 -4.2138338 1.1110001
-1.0434572 -4.1553712 1.1440572
-0.93578565 -4.119143 1.1425714
-0.82652187 -4.1287394 1.1336306
-0.7829091 -4.115273 1.1115454
-0.62990534 -4.1489472 1.1648737
-0.58180356 -4.1363573 1.1224285
-1.0245204 -4.0666571 1.1280274
-0.95164561 -4.07127 1.1521585
-0.85446197 -4.0779595 1.1551582
-0.74829847 -4.0659628 1.1507061
-0.65471351 -4.0801892 1.1450102
-0.59131247 -4.0891871 1.1146874
-0.82700002 -4.303 1.202
-0.77700001 -4.3039999 1.23
-1.0039999 -4.224 1.205
-0.93522561 -4.262394 1.245621
-0.85012817 -4.2795558 1.2490491
-0.7541967 -4.2617364 1.2474015
-0.69112498 -4.213625 1.21075
-1.0057499 -4.1804996 1.20775
-0.95539463 -4.1479201 1.2496316
-0.7242341 -4.1547341 1.2657444
-0.67585015 -4.139451 1.2228501
-0.93115658 -4.069171 1.2435297
-0.8508088 -4.0681753 1.2505834
-0.75371379 -4.0737309 1.247507
-0.68521869 -4.0855942 1.2209064
-0.92902279 -4.2668867 1.3481063
-0.84886688 -4.2772169 1.3492513
-0.75724334 -4.2595282 1.3501067
-0.9394902 -4.1480784 1.3537647
-0.87450004 -4.1230001 1.3535
-0.73694211 -4.1450801 1.3491955
-0.92474979 -4.0695195 1.3506829
-0.8518737 -4.0687184 1.3510511
-0.7588073 -4.0794148 1.3500575
-0.92400002 -4.3070002 1.46
-0.93027604 -4.2624984 1.4514257
-0.84858787 -4.2734232 1.448645
-0.75710905 -4.2591319 1.4486459
-0.93647474 -4.1508746 1.44745
-0.83966672 -4.1016669 1.4463333
-0.73977405 -4.1473708 1.450287
-0.92661047 -4.0639296 1.450752
-0.85028088 -4.0690217 1.4490459
-0.75585508 -4.0787148 1.4492171
-0.93189776 -4.2589569 1.5513068
-0.84878063 -4.2697864 1.5499253
-0.760427 -4.257041 1.548546
-0.93639541 -4.1534653 1.5484184
-0.74055636 -4.1472888 1.5508099
-0.92721128 -4.06287 1.5494801
-0.84990507 -4.0666323 1.5488054
-0.75700021 -4.0767965 1.5499084
-0.93066937 -4.2563949 1.6513065
-0.8498041 -4.2662883 1.6490163
-0.76015306 -4.2531281 1.6506988
-0.94065785 -4.1543946 1.6517631
-0.74248278 -4.148674 1.6520474
-0.92684484 -4.0604734 1.649608
-0.8495205 -4.0622835 1.648904
-0.75720948 -4.0737534 1.6483252
-0.93229038 -4.2542911 1.7483628
-0.84986609 -4.2632046 1.7487692
-0.76112437 -4.2514534 1.7489053
-0.94014698 -4.1493526 1.7496473
-0.74295342 -4.1503687 1.7496846
-0.92834783 -4.0543618 1.7498914
-0.84978789 -4.0589499 1.7508801
-0.75797987 -4.0707173 1.7496818
-0.93211007 -4.2524166 1.8482759
-0.84927917 -4.26019 1.8505214
-0.76106596 -4.2476659 1.8487867
-0.94411367 -4.1528411 1.8468866
-0.74583322 -4.1458483 1.851303
-0.92875946 -4.0503678 1.8511354
-0.84936333 -4.0559368 1.8504547
-0.75826442 -4.0685964 1.8503675
-0.93300003 -4.2513127 1.949656
-0.84938973 -4.2568803 1.9498194
-0.76116079 -4.2438087 1.9503102
-0.94309998 -4.1495495 1.9522749
-0.7442627 -4.1477962 1.9496102
-0.9282971 -4.0476866 1.9505621
-0.85003316 -4.0516191 1.9492612
-0.7576614 -4.067524 1.950969
-0.93244725 -4.2496147 2.0495522
-0.85006386 -4.2536755 2.0490165
-0.76144499 -4.2454572 2.049659
-0.94842857 -4.1419525 2.0529046
-0.89999998 -4.1209998 2.0469999
-0.74499989 -4.1496859 2.0467784
-0.92797345 -4.0429463 2.0502145
-0.85111523 -4.0499849 2.0485635
-0.75683331 -4.0669065 2.0498075
-0.9334051 -4.2462974 2.1474593
-0.85097641 -4.2514815 2.1503353
-0.76246268 -4.2414374 2.1486068
-0.94519043 -4.1492381 2.1476195
-0.7450527 -4.1476803 2.1481595
-0.92844468 -4.0422568 2.1498036
-0.84977663 -4.04772 2.1478019
-0.75794452 -4.0634742 2.1480761
-0.93204629 -4.2461576 2.2491493
-0.85111856 -4.247798 2.2492483
-0.76414496 -4.2370353 2.2499452
-0.95064294 -4.150857 2.2577858
-0.74626315 -4.1462016 2.247833
-0.92866951 -4.0435472 2.2528632
-0.84924561 -4.0387101 2.2539101
-0.75935757 -4.0611029 2.250772
-0.8378334 -3.9888334 2.2940001
-0.92799991 -4.2427778 2.3481722
-0.84815687 -4.2454591 2.3503132
-0.76492429 -4.2352004 2.3477445
-0.95331812 -4.1477494 2.3468411
-0.74537039 -4.1494021 2.3476694
-0.94634813 -4.0455432 2.3357284
-0.84276927 -4.0158219 2.315949
-0.76229125 -4.0543346 2.3492699
-0.92477739 -3.9629495 2.3621542
-0.84922594 -3.9564667 2.3536472
-0.79537499 -3.9545937 2.3685939
-0.91900003 -3.895 2.3970001
-0.84850001 -3.8994999 2.395
-0.93079388 -4.2396288 2.4489591
-0.85204977 -4.2432904 2.4489503
-0.76705927 -4.2331486 2.4497263
-0.94651204 -4.1501951 2.4464633
-0.75014442 -4.1489329 2.4506056
-0.94199997 -4.0508423 2.4496322
-0.81025004 -4.0247498 2.42975
-0.76069218 -4.0527992 2.4474607
-0.9346028 -3.9387801 2.4332054
-0.85050893 -3.9178171 2.4159822
-0.78946298 -3.9376299 2.4494445
-0.9242326 -3.8673699 2.4607062
-0.8480317 -3.861187 2.4570847
-0.79188889 -3.8649244 2.4647655
-0.83950001 -3.7939999 2.4960001
-0.93687737 -4.2325096 2.5520852
-0.85132301 -4.2384691 2.5492501
-0.76979178 -4.2290673 2.5496998
-0.96192515 -4.1534739 2.5476749
-0.75139785 -4.1496835 2.5503361
-0.93558335 -4.0560284 2.5498052
-0.84625 -4.02 2.563375
-0.75984061 -4.0533514 2.5483122
-0.93570268 -3.9457843 2.5444593
-0.82433337 -3.9579999 2.5656667
-0.78286779 -3.9330001 2.5483017
-0.9284144 -3.83672 2.5318165
-0.85236984 -3.8151779 2.5165756
-0.78393275 -3.8477659 2.5464709
-0.92124069 -3.7716861 2.5631683
-0.84883958 -3.7605419 2.5606432
-0.7858479 -3.7660003 2.5630763
-0.94554836 -4.2459421 2.6525538
-0.85281378 -4.2439842 2.6536067
-0.76845187 -4.2254519 2.647913
-1.005 -4.1729999 2.655
-0.96813142 -4.1511316 2.6489472
-0.75196832 -4.1507688 2.6493688
-0.93787181 -4.056282 2.649513
-0.83899999 -4.04 2.6515
-0.75924736 -4.0529304 2.6513445
-0.91835719 -3.9323571 2.6280718
-0.86166668 -3.9219999 2.6503334
-0.78277147 -3.9324567 2.6409998
-0.92435277 -3.8496764 2.6485589
-0.81000006 -3.8500001 2.6392002
-0.77901125 -3.8454833 2.6499667
-0.92485726 -3.7426701 2.6371646
-0.84954655 -3.7191041 2.6171043
-0.77762425 -3.7454317 2.6451766
-0.91776466 -3.6710389 2.6716859
-0.85073847 -3.6627271 2.6611178
-0.78330696 -3.6649735 2.6627026
-0.88099998 -3.5940001 2.698
-0.77700001 -3.5969999 2.6930001
-0.94877982 -4.3081355 2.7787623
-0.86952943 -4.3138824 2.7738237
-1.005 -4.2495003 2.7495
-0.95243108 -4.277503 2.7397196
-0.84700018 -4.2616858 2.7437627
-0.7707181 -4.2258449 2.7475367
-1.015 -4.1960001 2.7030001
-0.97199994 -4.1527839 2.7483511
-0.75335014 -4.1496091 2.7488699
-0.9411751 -4.0543995 2.7511744
-0.84885716 -4.0365715 2.7624288
-0.76113862 -4.0513816 2.7495317
-0.77100009 -3.9483747 2.7398748
-0.91149998 -3.8341665 2.7235
-0.83649993 -3.8343337 2.7445557
-0.78003764 -3.8342652 2.7363963
-0.91775858 -3.757966 2.7499309
-0.83724999 -3.7892501 2.79425
-0.77195257 -3.7492383 2.7500196
-0.91515863 -3.6334918 2.7366037
-0.85043609 -3.6199787 2.7170522
-0.77258748 -3.6435726 2.7437711
-0.91174996 -3.58215 2.7709
-0.84993696 -3.5659583 2.7623737
-0.77847093 -3.5642061 2.7659338
-0.884 -3.4979999 2.7969999
-1.0020001 -4.3284998 2.8734999
-0.94900453 -4.3358717 2.8507502
-0.8690213 -4.3364182 2.8519568
-1.0143334 -4.2836666 2.8403335
-0.97883719 -4.2517443 2.848233
-0.83436882 -4.2515316 2.8500004
-0.77188206 -4.2239542 2.8472447
-0.96587175 -4.1508465 2.8473847
-0.75381911 -4.1504383 2.8490193
-0.95126468 -4.0510883 2.8485296
-0.82406253 -4.0328121 2.870625
-0.76224297 -4.0486422 2.8481379
-0.75433338 -3.9923334 2.8593335
-0.89300001 -3.8080001 2.8110001
-0.77475005 -3.8267503 2.82375
-0.91133332 -3.7436666 2.8180003
-0.83962059 -3.744483 2.840414
-0.77277952 -3.734695 2.8364077
-0.91991675 -3.6397495 2.8399999
-0.8490001 -3.6787148 2.8770003
-0.76507646 -3.6527905 2.8498862
-0.91473585 -3.5527546 2.8530567
-0.85238791 -3.5214837 2.8209128
-0.76816308 -3.5439153 2.8433895
-0.90757149 -3.4818575 2.8754287
-0.84803593 -3.4672008 2.8659601
-0.77557343 -3.4665594 2.8646512
-1.002 -4.4070001 2.9949999
-0.9519428 -4.4065428 2.9826
-0.88283336 -4.4093332 2.9758334
-1.0081053 -4.3528428 2.9488947
-0.95448941 -4.3728318 2.9444113
-0.86746347 -4.361968 2.9481459
-1.025 -4.2979999 2.914
-0.98372734 -4.2471218 2.9505458
-0.83534771 -4.2447023 2.9509234
-0.7729587 -4.2222261 2.9503915
-0.95389754 -4.1474361 2.951103
-0.81599998 -4.1589999 2.994
-0.75446892 -4.1497879 2.9473717
-0.95056421 -4.0515642 2.9493589
-0.82551616 -4.0177093 2.9476771
-0.76202124 -4.0423779 2.9500792
-0.8035 -3.9909999 2.9099998
-0.76400006 -3.9834292 2.9347146
-0.76300001 -3.757 2.9089999
-0.91075003 -3.61725 2.924
-0.85191667 -3.6417508 2.9466946
-0.76730311 -3.6395762 2.937288
-0.91321748 -3.5322609 2.9349999
-0.87266666 -3.5686667 2.9725556
-0.75903237 -3.5532253 2.950484
-0.912485 -3.4621208 2.9416969
-0.8565371 -3.425926 2.9226282
-0.76458055 -3.4420409 2.9349031
-0.90700006 -3.3850002 2.9790001
-0.84556007 -3.3693199 2.9644399
-0.76658142 -3.3695817 2.9657905
0 0 0 1 0 0 0 1 0 0 0 1 0 0 0 0 0 703 1 0 0
