ply
format ascii 1.0
comment PCL generated
element vertex 862
property float x
property float y
property float z
element camera 1
property float view_px
property float view_py
property float view_pz
property float x_axisx
property float x_axisy
property float x_axisz
property float y_axisx
property float y_axisy
property float y_axisz
property float z_axisx
property float z_axisy
property float z_axisz
property float focal
property float scalex
property float scaley
property float centerx
property float centery
property int viewportx
property int viewporty
property float k1
property float k2
end_header
19.395 -5.401 0
19.43343 -5.4040003 0.0038571428
19.371223 -5.3430605 0.044654135
19.450293 -5.3492436 0.046725761
19.506638 -5.3257041 0.022136364
19.346159 -5.2826395 0.079599999
19.488726 -5.2890453 0.087000005
19.515301 -5.2497454 0.047707208
19.488739 -5.1215811 0.021516126
19.519678 -5.1546121 0.052852735
19.392 -5.0960002 0.022
19.461 -5.0705004 0.05566667
19.514166 -5.0834169 0.08291667
19.379875 -4.9222503 0.037374999
19.490433 -4.9374094 0.040795457
19.550919 -4.9259181 0.049277052
19.612709 -4.9111443 0.044919357
20.680117 -4.9068828 0.064116269
20.752857 -4.9085875 0.046956543
20.844383 -4.9094882 0.039692912
20.911938 -4.9126673 0.013133334
18.074606 -4.8407378 0.026710529
18.151512 -4.8487616 0.049923077
18.254139 -4.8540487 0.045180123
18.329264 -4.8358374 0.062900893
19.377249 -4.8471251 0.049312498
19.594334 -4.8806667 0.050000004
19.616804 -4.8490162 0.050559603
20.589417 -4.8529167 0.088166669
20.649174 -4.8769631 0.053650364
20.745646 -4.8937049 0.056522746
20.859194 -4.865644 0.057198826
20.912512 -4.8493257 0.012093024
18.076685 -4.7244215 0.021578945
18.148773 -4.7079773 0.039749991
18.257729 -4.7128291 0.038024385
18.342524 -4.7417274 0.052111574
18.400999 -4.7290001 0.090000004
19.374466 -4.7620001 0.04593334
19.464958 -4.731698 0.04196639
19.549122 -4.7368522 0.051517222
19.614725 -4.7616386 0.050142851
20.588558 -4.7610373 0.082629628
20.653849 -4.7649117 0.053163107
20.751402 -4.761487 0.049857579
20.844723 -4.7634087 0.043898247
20.907137 -4.7752724 0.0099545466
18.089399 -4.6907997 0.0132
18.157183 -4.6943388 0.051901415
18.241488 -4.6962562 0.058697667
18.337564 -4.6943469 0.062391315
19.373751 -4.6289997 0.057499997
19.48077 -4.665308 0.045615386
19.516132 -4.6243858 0.068613634
19.361952 -4.5467148 0.046190482
19.497999 -4.5419998 0.072999999
19.518873 -4.5491686 0.051238377
19.361076 -4.4265175 0.072333321
19.461006 -4.419364 0.079761386
19.512093 -4.4555697 0.04431073
19.364033 -4.3771205 0.027409641
19.451862 -4.3752913 0.033404578
19.507298 -4.3768396 0.024579996
19.392668 -5.3096671 0.10699999
19.439476 -5.3098955 0.10521053
19.370398 -5.2487822 0.1464961
19.453533 -5.2539992 0.14996043
19.506321 -5.2274551 0.12493183
19.341066 -5.1843343 0.18273334
19.487665 -5.189333 0.18533334
19.515398 -5.1505294 0.14901634
19.474001 -5.0190001 0.107
19.523365 -5.0646887 0.15282567
19.3825 -4.9127502 0.12875
19.440777 -4.9521108 0.14411111
19.549297 -4.9251423 0.14712867
19.610367 -4.9097719 0.14521049
20.57725 -4.9058752 0.17649999
20.655287 -4.9072275 0.14145453
20.749424 -4.9068813 0.14536957
20.815138 -4.9083996 0.11906666
18.173716 -4.835999 0.13181132
18.250834 -4.8450251 0.14982116
18.354761 -4.8449602 0.14327587
18.428329 -4.83178 0.16789001
19.380896 -4.8497372 0.14547369
19.589668 -4.8900003 0.16966668
19.614197 -4.8530169 0.15069997
20.48975 -4.8450003 0.19225
20.560165 -4.8754344 0.15647885
20.649946 -4.8913183 0.15304914
20.756701 -4.8736525 0.15775485
20.817472 -4.8602571 0.11785713
18.170843 -4.7338428 0.1291579
18.242193 -4.7103338 0.13914286
18.369371 -4.7265511 0.12719402
18.437744 -4.7405257 0.15606277
19.369669 -4.7566667 0.14872223
19.478142 -4.7306671 0.12185714
19.547365 -4.7309957 0.15221705
19.614357 -4.7615485 0.14977144
20.493299 -4.7455001 0.18970001
20.556076 -4.7579923 0.15658568
20.650305 -4.7575521 0.15006691
20.746363 -4.761991 0.14619331
20.815262 -4.7647395 0.1162826
18.183708 -4.6900001 0.12282354
18.254072 -4.6921597 0.15098019
18.344852 -4.6949024 0.15419751
18.425554 -4.6962066 0.16189656
19.365265 -4.6512632 0.14605264
19.499001 -4.6090002 0.154
19.514652 -4.6455245 0.15170343
19.354893 -4.527174 0.16821741
19.471972 -4.5172815 0.17868753
19.510864 -4.5507503 0.14739877
19.294001 -4.4899998 0.127
19.361645 -4.4681149 0.14060652
19.454826 -4.465673 0.14502557
19.505999 -4.4724908 0.12903275
19.382771 -5.207231 0.20853847
19.438623 -5.2101002 0.21040006
19.36883 -5.1527367 0.24994214
19.454376 -5.1573124 0.25480247
19.507931 -5.1338854 0.22236063
19.344572 -5.0748572 0.27821431
19.494471 -5.0921764 0.28511763
19.51466 -5.059916 0.2474786
19.378002 -4.9472995 0.25659999
19.422001 -4.9120002 0.21699999
19.552343 -4.9311113 0.24832354
19.609625 -4.9093957 0.24869764
20.493999 -4.9029999 0.27500001
20.54775 -4.9051499 0.24565001
20.656656 -4.9053421 0.24670455
20.722334 -4.9080558 0.2245
18.267015 -4.8329229 0.23434377
18.348051 -4.8430905 0.24869142
18.452072 -4.8446159 0.24610107
18.521797 -4.8313837 0.27237207
19.38378 -4.8461113 0.24922223
19.4296 -4.8432002 0.25319999
19.596333 -4.8778334 0.25300002
19.616138 -4.8504357 0.24962103
20.3925 -4.8155003 0.29250002
20.460197 -4.8671436 0.25900692
20.547859 -4.885016 0.24857348
20.652311 -4.8769155 0.25605702
20.720549 -4.8598142 0.22469068
18.266705 -4.7427063 0.24064703
18.354074 -4.7075715 0.22964288
18.472874 -4.7364101 0.22332639
18.532282 -4.7429996 0.26275292
19.3601 -4.7405 0.25700003
19.477333 -4.7536669 0.23033333
19.548801 -4.7256889 0.25072595
19.610981 -4.7589169 0.24917316
20.398001 -4.7434998 0.292
20.460487 -4.748642 0.25882608
20.550171 -4.7519808 0.24985717
20.648291 -4.7558212 0.24806979
20.719788 -4.7629995 0.21983072
18.277731 -4.6881819 0.22318181
18.352915 -4.6891131 0.24961741
18.448935 -4.6919575 0.25405428
18.528084 -4.6962128 0.26653194
19.34643 -4.6387615 0.25528571
19.496334 -4.6218672 0.26420003
19.509037 -4.6523318 0.24855629
19.359444 -4.5532007 0.24779379
19.457758 -4.5488467 0.24973661
19.507427 -4.5668483 0.23152778
19.343498 -4.4975004 0.2035
19.497999 -4.4879999 0.20200001
19.385571 -5.1118574 0.31371427
19.43762 -5.112618 0.31674543
19.365517 -5.0540433 0.35528207
19.456387 -5.0602622 0.3572343
19.505774 -5.0359998 0.32548386
19.34943 -4.9768572 0.36771429
19.496857 -4.9960003 0.38357148
19.54565 -4.9275594 0.34898341
19.609875 -4.909719 0.34418756
20.395 -4.902 0.36199999
20.436666 -4.9063334 0.35033333
20.554928 -4.9045715 0.33585718
18.363541 -4.8296967 0.33602524
18.45067 -4.8411269 0.34941664
18.553579 -4.8420925 0.34704539
18.620846 -4.8279853 0.37743944
19.356455 -4.8481822 0.3518182
19.582769 -4.8810773 0.34861541
19.615068 -4.8511481 0.34922603
20.364754 -4.8604608 0.36143073
20.449064 -4.8816929 0.34797367
20.552586 -4.8781466 0.35532683
20.625036 -4.8665743 0.32882109
18.363436 -4.7312179 0.34904349
18.442917 -4.7122498 0.3424167
18.57542 -4.7451901 0.32320958
18.627884 -4.7440476 0.36923775
19.346815 -4.7485003 0.3565
19.494118 -4.7174711 0.36717647
19.546553 -4.7276373 0.3494249
19.611073 -4.7561021 0.35151586
20.363695 -4.7386498 0.36321956
20.447807 -4.7438989 0.3484022
20.548933 -4.749794 0.34928811
20.622421 -4.7603302 0.32723871
18.372395 -4.6868143 0.32825586
18.45266 -4.6855726 0.35023478
18.548409 -4.690321 0.35215202
18.620605 -4.6934733 0.37265787
19.294001 -4.665 0.368
19.354834 -4.6382198 0.35283962
19.461475 -4.6385651 0.3576602
19.505423 -4.6641102 0.33675006
19.36031 -4.5920768 0.31007695
19.45668 -4.5906816 0.31379548
19.504 -4.5915003 0.30399999
19.381285 -5.014286 0.41595247
19.441864 -5.0160689 0.41978073
19.363989 -4.9618139 0.45703921
19.457167 -4.9616199 0.46248886
19.546467 -4.9196806 0.44583708
19.610001 -4.9060001 0.43345451
20.298 -4.901 0.48800001
20.361334 -4.9040003 0.44099998
20.456001 -4.9050002 0.45828575
20.525249 -4.9072499 0.43024999
18.3955 -4.8189998 0.40399998
18.463545 -4.8312035 0.44099995
18.550808 -4.8466096 0.44882712
18.651754 -4.8431396 0.44739094
18.715473 -4.8269215 0.4815295
19.344669 -4.8556666 0.45816669
19.499001 -4.8990002 0.47600001
19.582956 -4.8891249 0.45341671
19.612991 -4.8538265 0.45018688
20.271097 -4.8561258 0.46470216
20.3501 -4.8771896 0.44779831
20.453186 -4.8782887 0.45323396
20.530399 -4.8632293 0.43380851
18.435431 -4.7487617 0.43728575
18.575274 -4.7039094 0.46127272
18.665375 -4.7313032 0.43981436
18.722975 -4.7439137 0.47240022
19.351509 -4.7253757 0.4659501
19.460909 -4.7180114 0.46549499
19.547657 -4.7246284 0.44884875
19.612507 -4.7552857 0.44924179
20.269953 -4.7317314 0.46730763
20.34963 -4.7287688 0.44908184
20.448763 -4.7409387 0.45066664
20.524296 -4.7544127 0.43196693
18.468082 -4.6812491 0.43665001
18.551062 -4.6843514 0.45132852
18.632706 -4.6940231 0.44611359
18.7192 -4.6991997 0.47240001
19.354548 -4.6841226 0.41771922
19.459454 -4.6818047 0.4259901
19.5065 -4.678 0.42000002
19.377844 -4.9194994 0.54921287
19.449663 -4.9193072 0.55068779
19.545685 -4.9150696 0.54638749
19.609184 -4.9097271 0.53830302
20.3585 -4.9012499 0.52625
20.417999 -4.9050002 0.53799999
18.4855 -4.8258748 0.51274997
18.557631 -4.8345199 0.54350394
18.650146 -4.8416119 0.54802996
18.749973 -4.83775 0.55248529
18.809479 -4.8217201 0.58719993
19.329187 -4.8481884 0.5503282
19.460501 -4.8973002 0.55470002
19.578691 -4.8876905 0.55809528
19.611767 -4.8513222 0.54854703
20.172705 -4.8496251 0.57137322
20.250862 -4.8718448 0.54873514
20.353876 -4.8770285 0.55010188
20.433403 -4.8605342 0.538674
18.494999 -4.7620001 0.50700003
18.54435 -4.7420001 0.54275006
18.665413 -4.7068048 0.53307307
18.762989 -4.7363696 0.53781193
18.814917 -4.7442198 0.57985419
19.362587 -4.7286282 0.5514344
19.452057 -4.7223239 0.54941344
19.550911 -4.722187 0.5475989
19.611856 -4.7509141 0.55102152
20.174593 -4.7285967 0.56958437
20.24943 -4.7213631 0.54992622
20.351021 -4.7246933 0.55033231
20.430367 -4.7474923 0.53519535
18.491669 -4.6930003 0.50900006
18.563326 -4.685842 0.54066318
18.645638 -4.6921391 0.55403715
18.737093 -4.6965179 0.56020373
18.8106 -4.6981997 0.57980001
19.353399 -4.6966 0.56739998
19.476999 -4.6989999 0.51800001
19.625 -4.6989999 0.55699998
19.373131 -4.9161267 0.65141159
19.449572 -4.9188366 0.65007216
19.544746 -4.9146218 0.64849746
19.606503 -4.9085007 0.63809997
18.585751 -4.8244996 0.61616671
18.655228 -4.8287606 0.64550686
18.748709 -4.8362927 0.64861906
18.844362 -4.8322525 0.65502059
18.907001 -4.8046665 0.69050002
19.369875 -4.8813748 0.64775002
19.4568 -4.8936 0.6778
19.581154 -4.8887687 0.64917964
19.613802 -4.8519225 0.64930224
20.076401 -4.8477964 0.67457646
20.149023 -4.8665571 0.65082467
20.247772 -4.8723941 0.64817512
20.335663 -4.8587508 0.64042461
20.4 -4.8520002 0.602
18.584799 -4.7753997 0.61920005
18.648422 -4.7347374 0.65410531
18.764292 -4.7074003 0.64031106
18.859003 -4.7387376 0.64168131
18.908918 -4.7427864 0.68606573
19.365442 -4.7267075 0.64970142
19.454166 -4.7202005 0.65008891
19.550211 -4.7184024 0.64926255
19.612339 -4.7524247 0.65037704
20.077419 -4.7221189 0.67455924
20.152132 -4.7164054 0.65194947
20.252075 -4.7167416 0.64910114
20.336697 -4.7359595 0.63836998
18.5818 -4.6952004 0.61080003
18.658352 -4.6860008 0.64072406
18.745043 -4.6911178 0.65415323
18.846071 -4.6953006 0.66483343
18.919834 -4.6953335 0.69366664
19.352001 -4.6974998 0.67275006
19.6 -4.6999998 0.64999998
20.083 -4.6999998 0.65899998
20.268999 -4.698 0.64600003
20.299999 -4.6929998 0.68400002
19.371443 -4.9139075 0.74584407
19.447758 -4.9125938 0.74788362
19.545425 -4.9111614 0.75040829
19.605 -4.9040003 0.7385
18.681038 -4.8180375 0.71896297
18.751606 -4.8231397 0.74659884
18.8514 -4.8351254 0.75004011
18.935303 -4.8260064 0.75456613
19.371859 -4.8815718 0.76947623
19.458279 -4.8959198 0.75564003
19.566269 -4.8898506 0.74928343
19.612947 -4.8504181 0.74807346
19.982891 -4.8409171 0.77674991
20.051153 -4.8590341 0.75212324
20.148539 -4.8693538 0.74937761
20.241606 -4.8583326 0.74164873
20.301001 -4.8450003 0.70499998
18.682249 -4.7572498 0.71899998
18.731314 -4.7426872 0.76987505
18.861822 -4.704751 0.73357147
18.956902 -4.7460442 0.74797267
19.005621 -4.7262855 0.79195231
19.363863 -4.7269664 0.74935108
19.45504 -4.7175131 0.74818653
19.550531 -4.7162724 0.74987978
19.612671 -4.748795 0.74988955
19.705999 -4.7280002 0.75
19.982977 -4.7254648 0.77895337
20.053562 -4.7118797 0.74978399
20.149399 -4.7114487 0.75061035
20.241674 -4.7324896 0.74074674
20.301001 -4.7969999 0.69999999
18.687883 -4.6865292 0.71276474
18.755352 -4.6830616 0.74303091
18.84565 -4.6891179 0.75290275
18.94342 -4.6938629 0.75836837
19.0042 -4.6938 0.78460002
19.352751 -4.6958747 0.74299997
19.480499 -4.698 0.78299999
19.572001 -4.6989999 0.74450004
19.973288 -4.6967144 0.79057145
20.048395 -4.6979632 0.75814283
20.142365 -4.6973634 0.76381814
20.222374 -4.6975002 0.75199997
19.371979 -4.9110103 0.84893948
19.447481 -4.9118209 0.84870541
19.544077 -4.9108076 0.85221875
19.601999 -4.901 0.815
18.77857 -4.8147302 0.82183796
18.853317 -4.8201003 0.84742767
18.951731 -4.8274832 0.84681267
19.031267 -4.820796 0.86472666
19.372953 -4.878809 0.84728581
19.455013 -4.8961401 0.84951997
19.567724 -4.8900814 0.8439045
19.61236 -4.8501263 0.84960926
19.883591 -4.8390374 0.88151854
19.953245 -4.8547959 0.85376006
20.049105 -4.8629479 0.84965461
20.146458 -4.8534575 0.8446871
20.206402 -4.8363333 0.80680001
18.777363 -4.7829094 0.84072733
18.831312 -4.7599998 0.86900002
18.972454 -4.7113633 0.82600009
19.046719 -4.7486277 0.84953362
19.103399 -4.7144003 0.89560002
19.365282 -4.7222414 0.84862125
19.450169 -4.716507 0.85110962
19.550087 -4.713098 0.84922659
19.612368 -4.7528849 0.84901011
19.8859 -4.7133002 0.88050002
19.951334 -4.7140837 0.84638178
20.049782 -4.7080488 0.84338152
20.145103 -4.7268214 0.84569776
20.203701 -4.7495999 0.80430001
18.781332 -4.6801906 0.81485713
18.853212 -4.6801443 0.84709096
18.949293 -4.6872683 0.849567
19.039965 -4.6908989 0.86072028
19.101999 -4.6939998 0.88800001
19.350334 -4.6956668 0.8481667
19.482168 -4.6981668 0.84833336
19.541 -4.6971664 0.82866663
19.608999 -4.6919999 0.86000001
19.886 -4.6942501 0.89125001
19.958023 -4.6957192 0.8634358
20.045809 -4.6964526 0.85912323
20.133551 -4.6971998 0.82639998
19.369965 -4.9115005 0.95393312
19.451469 -4.9112639 0.94735223
19.540236 -4.9097805 0.94787699
19.607 -4.901 0.954
18.871204 -4.8095226 0.92422742
18.950962 -4.8170676 0.94691372
19.053755 -4.8267179 0.94666141
19.126034 -4.8204403 0.9699012
19.372 -4.8899751 0.94152516
19.448738 -4.8953671 0.95569408
19.569435 -4.8887062 0.94842333
19.610867 -4.849741 0.95027584
19.788469 -4.8335333 0.9842667
19.855814 -4.8508468 0.95533901
19.949867 -4.8585982 0.94957626
20.047022 -4.8515515 0.94707495
20.111097 -4.8379059 0.91212505
18.876116 -4.7751184 0.9420588
18.926645 -4.773643 0.98257142
19.085718 -4.7560616 0.91574997
19.1376 -4.7450118 0.95431942
19.362295 -4.7183461 0.94894153
19.450859 -4.7130842 0.94718724
19.549648 -4.713006 0.94720703
19.610437 -4.7491746 0.94832534
19.761078 -4.7331538 0.97769225
19.858892 -4.710413 0.94906658
19.951826 -4.7054315 0.94446337
20.058252 -4.7291036 0.94684923
20.10977 -4.7455001 0.91050005
18.880445 -4.6785007 0.9218685
18.952469 -4.6775465 0.9483999
19.049976 -4.6830359 0.95116472
19.131817 -4.6904254 0.96365327
19.351461 -4.6946926 0.94984609
19.475643 -4.6972857 0.9682858
19.53886 -4.6965709 0.95776188
19.775547 -4.6929092 0.9909091
19.857279 -4.6923313 0.95975417
19.950569 -4.6942887 0.95278257
20.031921 -4.6949511 0.94332665
20.106602 -4.6916003 0.92200005
19.371901 -4.9103718 1.0421046
19.450069 -4.9106183 1.0510126
19.542631 -4.9072208 1.045431
19.605499 -4.902 1.039
18.973972 -4.8084183 1.0224185
19.052565 -4.8137026 1.0442836
19.150173 -4.8205414 1.0491043
19.218691 -4.8168573 1.0768368
19.369246 -4.8919764 1.0609272
19.452112 -4.8958445 1.0452889
19.557159 -4.8902535 1.0530845
19.613567 -4.8422246 1.0468163
19.758444 -4.8477859 1.0582372
19.849226 -4.8546886 1.0491785
19.949009 -4.8478456 1.0478982
20.017748 -4.8373332 1.0173137
18.964403 -4.780405 1.0449523
19.0292 -4.7917342 1.0721668
19.182253 -4.7559876 1.0207926
19.228479 -4.7458601 1.062686
19.364994 -4.7160516 1.0483304
19.451452 -4.7095661 1.0465289
19.550583 -4.709054 1.0478122
19.61619 -4.7501478 1.0504911
19.745146 -4.725265 1.0427942
19.861921 -4.7055411 1.0449729
19.960735 -4.7309713 1.0565141
20.014612 -4.7448182 1.0192953
18.977098 -4.6732831 1.0263584
19.049328 -4.673316 1.0496358
19.1502 -4.6825285 1.0484887
19.230989 -4.6876121 1.0650535
19.348858 -4.6944289 1.031
19.451385 -4.6971135 1.0557956
19.551182 -4.6964865 1.0550001
19.619749 -4.6949997 1.0760001
19.764009 -4.6890445 1.061782
19.846905 -4.6907301 1.0504873
19.942865 -4.6928973 1.0459738
20.009104 -4.6941576 1.0199475
19.371357 -4.906908 1.1488885
19.4485 -4.907824 1.1495074
19.542276 -4.9074335 1.1521689
19.077234 -4.8061337 1.1257668
19.15741 -4.8128567 1.1435835
19.244616 -4.8194923 1.1535306
19.360964 -4.8767667 1.158671
19.456015 -4.8941879 1.1510437
19.557495 -4.8927398 1.1482292
19.648819 -4.8426356 1.1557194
19.749685 -4.8492041 1.1495413
19.848055 -4.8456488 1.1474293
19.920233 -4.8347692 1.1189231
18.996 -4.7870002 1.104
19.059258 -4.7824297 1.1403764
19.126289 -4.7950239 1.1694144
19.277246 -4.7496519 1.1245285
19.346901 -4.7212329 1.1523304
19.447445 -4.7069173 1.1462361
19.555006 -4.7082047 1.1475916
19.614153 -4.7442756 1.1343814
19.762337 -4.7034006 1.1569334
19.870731 -4.739625 1.1695937
19.925211 -4.7460613 1.1269547
19.071325 -4.6660261 1.1298311
19.148336 -4.6696525 1.1481483
19.247633 -4.6776814 1.1502221
19.332088 -4.6858177 1.1697422
19.449869 -4.6963964 1.1558678
19.543053 -4.6954312 1.1540862
19.665144 -4.6840196 1.1631142
19.749256 -4.6861558 1.1490936
19.848204 -4.6891971 1.1478301
19.91778 -4.6897993 1.1268668
19.369909 -4.9042497 1.2425935
19.450991 -4.9087172 1.249053
19.542988 -4.9055486 1.251219
19.174475 -4.8056316 1.2226316
19.255482 -4.8119926 1.2400694
19.349943 -4.865201 1.2533523
19.449146 -4.8947554 1.2501999
19.554604 -4.891201 1.2481447
19.645813 -4.8436756 1.2495804
19.748005 -4.8428507 1.2470794
19.82155 -4.8323922 1.2243334
19.096001 -4.7820001 1.2065001
19.158133 -4.7845359 1.2444124
19.233418 -4.7942305 1.2718127
19.365152 -4.7334156 1.2358
19.455204 -4.7187905 1.2545969
19.532061 -4.7319884 1.2376165
19.639999 -4.7093334 1.2213334
19.775887 -4.7383065 1.268639
19.830671 -4.7466335 1.241624
19.16888 -4.6624179 1.2362528
19.250584 -4.6662607 1.2502066
19.346199 -4.6746354 1.2530916
19.438858 -4.6890454 1.2562356
19.558592 -4.6855536 1.2614324
19.65173 -4.6816711 1.2513658
19.746973 -4.6858096 1.2514368
19.825327 -4.6834497 1.2324877
19.374426 -4.9046187 1.366762
19.449642 -4.9070525 1.3463539
19.535561 -4.9067817 1.3489218
19.603001 -4.901 1.302
19.2731 -4.8050003 1.3152001
19.360931 -4.8782902 1.3455088
19.448799 -4.8940597 1.3542024
19.557306 -4.8896627 1.3490797
19.644098 -4.8386745 1.3482466
19.726315 -4.8313341 1.3230669
19.189144 -4.7734289 1.309
19.256449 -4.7805166 1.3445404
19.306736 -4.7924004 1.3635334
19.449232 -4.7382326 1.3176744
19.5 -4.7140002 1.306
19.684727 -4.7456365 1.3753637
19.74128 -4.745779 1.344923
19.195 -4.6550002 1.3
19.263567 -4.6601324 1.3366934
19.349754 -4.6615887 1.3492947
19.443739 -4.6717715 1.3526189
19.552214 -4.6756272 1.3523879
19.648693 -4.6816573 1.3495363
19.729963 -4.6812062 1.340907
19.371359 -4.9042392 1.4473201
19.455708 -4.906034 1.4471911
19.539244 -4.9044867 1.4437026
19.363981 -4.8833122 1.4499664
19.445387 -4.8938661 1.4510385
19.552498 -4.8877945 1.4507314
19.61821 -4.838264 1.4443057
19.283749 -4.7680006 1.4159168
19.320398 -4.7509599 1.44304
19.578001 -4.7287149 1.4810002
19.640322 -4.748312 1.4548084
19.703501 -4.7405 1.404
19.284 -4.664 1.402
19.353079 -4.6590095 1.44021
19.450167 -4.6566277 1.4480969
19.550724 -4.6766582 1.4496027
19.643126 -4.6809831 1.4331294
19.713001 -4.6793337 1.4036669
19.386 -4.5999999 1.441
19.436317 -4.5879545 1.4153183
19.365 -4.90275 1.53675
19.457441 -4.9049039 1.5448079
19.533308 -4.9054623 1.5471538
19.366552 -4.8802829 1.5486315
19.446926 -4.8921547 1.5520288
19.556095 -4.8795285 1.5509099
19.606436 -4.8368106 1.5466777
19.347183 -4.7388635 1.5454546
19.4102 -4.7105999 1.585
19.5812 -4.7339497 1.5505669
19.606617 -4.749898 1.5491503
19.357931 -4.6851602 1.5518302
19.459345 -4.6673427 1.5465405
19.547829 -4.6860576 1.5491372
19.605307 -4.6921153 1.5456538
19.370701 -4.9050002 1.6372999
19.455641 -4.90416 1.64092
19.52828 -4.9035554 1.6482779
19.366177 -4.8792009 1.6504579
19.447996 -4.8915815 1.6500483
19.560524 -4.8764415 1.6491305
19.606419 -4.8377609 1.6516308
19.352777 -4.7303896 1.6538609
19.429874 -4.7076254 1.6346248
19.591312 -4.7364044 1.6479765
19.606693 -4.7496295 1.6490767
19.362457 -4.6900802 1.6490983
19.449562 -4.6873851 1.651701
19.551603 -4.6868129 1.6509794
19.607437 -4.6863475 1.6470433
19.356001 -4.9070001 1.7484001
19.44725 -4.9033337 1.7436669
19.539499 -4.9045 1.7539999
19.367884 -4.880228 1.7506567
19.451513 -4.8882966 1.748318
19.556356 -4.8787413 1.7486757
19.605278 -4.8444743 1.7491291
19.358854 -4.7316475 1.7489411
19.4526 -4.7084002 1.7543999
19.591866 -4.7410793 1.7531374
19.605499 -4.7512298 1.7485651
19.36491 -4.6889009 1.7502432
19.451092 -4.6851192 1.7499691
19.552925 -4.6848245 1.7509353
19.605207 -4.6881719 1.745
19.359501 -4.9060001 1.8347501
19.463501 -4.9038334 1.8331666
19.519001 -4.9029999 1.8446668
19.365934 -4.8776574 1.847934
19.448181 -4.8862715 1.8495952
19.556038 -4.8766642 1.8510673
19.605082 -4.8387685 1.8446627
19.359886 -4.7474999 1.8480769
19.446999 -4.704 1.8492501
19.59337 -4.7473865 1.8510702
19.605152 -4.7473297 1.847597
19.36228 -4.6877933 1.8510656
19.453085 -4.6830688 1.8500315
19.552015 -4.683322 1.8503319
19.605295 -4.6885552 1.8444444
19.452499 -4.9029999 1.938
19.366119 -4.8757305 1.949535
19.449497 -4.8838048 1.9489442
19.559853 -4.8704786 1.9506437
19.60461 -4.8360667 1.9500848
19.359921 -4.7477202 1.95128
19.450251 -4.7049999 1.951
19.590893 -4.7432866 1.9532541
19.604456 -4.7486038 1.9469815
19.362171 -4.6839824 1.9508644
19.449707 -4.6811104 1.9490974
19.551899 -4.6806087 1.9487011
19.606335 -4.6879625 1.9396669
19.389 -4.9050002 2.062
19.366062 -4.8745594 2.0495234
19.447998 -4.8803301 2.0495172
19.557493 -4.8701935 2.0496249
19.604237 -4.83427 2.0447798
19.348783 -4.743783 2.0515654
19.444 -4.71 2.016
19.595016 -4.7487159 2.052108
19.604208 -4.7484465 2.0484705
19.358704 -4.6800575 2.050529
19.448532 -4.6772003 2.0505245
19.552954 -4.6795607 2.049392
19.604483 -4.6896396 2.0510001
19.363531 -4.8721428 2.1498218
19.451326 -4.8787103 2.1503901
19.559851 -4.864408 2.1501284
19.603235 -4.8318076 2.1463828
19.35379 -4.7467585 2.1509395
19.439001 -4.711 2.1493335
19.596046 -4.7489758 2.1534629
19.60391 -4.7519269 2.1468828
19.358721 -4.6775885 2.1511533
19.45026 -4.6764784 2.1497791
19.554983 -4.6787944 2.1498847
19.60424 -4.6861997 2.1461999
19.36483 -4.8712287 2.2503211
19.450027 -4.8768559 2.2501907
19.561485 -4.861917 2.2496312
19.602753 -4.8290319 2.2433751
19.353613 -4.7491112 2.2539999
19.438999 -4.7030001 2.2484999
19.595459 -4.7497997 2.2497334
19.603413 -4.7439737 2.2489998
19.360088 -4.6763821 2.2506609
19.450737 -4.6736245 2.2504811
19.55592 -4.6758542 2.2484343
19.604691 -4.6854372 2.25525
19.363489 -4.8671703 2.3482668
19.450285 -4.8739624 2.3498147
19.559002 -4.8608565 2.3497729
19.601957 -4.8278565 2.336762
19.350901 -4.7541327 2.3522668
19.447001 -4.7199998 2.3510001
19.595135 -4.7550683 2.3522227
19.602449 -4.7458797 2.3458967
19.359322 -4.6735516 2.349097
19.450302 -4.6702271 2.3498676
19.554718 -4.6746702 2.3502452
19.605112 -4.6806669 2.3497777
19.359354 -4.8597527 2.4496739
19.449205 -4.8696413 2.4481261
19.562948 -4.8559628 2.4504957
19.601004 -4.8302002 2.4408996
19.342651 -4.7531352 2.4517024
19.593895 -4.7524343 2.4490793
19.602001 -4.7423224 2.4528387
19.279499 -4.6954999 2.4905
19.361748 -4.6663237 2.4496546
19.449865 -4.6671047 2.4488292
19.555252 -4.6725445 2.4510508
19.603401 -4.6815333 2.4470665
19.360746 -4.8613172 2.5516064
19.448391 -4.8660984 2.5499635
19.559376 -4.8552809 2.5495849
19.602274 -4.826364 2.5494547
19.276714 -4.711 2.5729525
19.331421 -4.7543221 2.5533221
19.592018 -4.7493634 2.5509536
19.602003 -4.7503338 2.5319335
19.276258 -4.6813703 2.5638518
19.355286 -4.6398053 2.5464168
19.451046 -4.6462264 2.5500903
19.556196 -4.6722846 2.5504546
19.607166 -4.672667 2.5574999
19.346594 -4.5835967 2.5853543
19.431301 -4.5832324 2.5841861
19.352177 -4.9109201 2.6757803
19.423176 -4.9094348 2.6815653
19.357357 -4.8742232 2.6410069
19.450891 -4.8737435 2.6487193
19.55924 -4.8518667 2.6493244
19.601667 -4.8210001 2.6486669
19.264999 -4.7030001 2.6040001
19.339935 -4.7524691 2.6550939
19.591724 -4.7487202 2.6485717
19.6014 -4.7606001 2.6694
19.273499 -4.697 2.6055
19.340342 -4.6521873 2.6539686
19.474779 -4.6404529 2.6474116
19.55566 -4.6687455 2.6494153
19.601665 -4.6878338 2.6425004
19.350857 -4.5419526 2.640692
19.446405 -4.54951 2.6479995
19.344275 -4.4820619 2.6819003
19.42853 -4.4860425 2.6825109
19.359282 -4.9359245 2.7512755
19.433878 -4.9262238 2.7524102
19.282616 -4.8546925 2.7816157
19.33358 -4.8533721 2.7498608
19.475998 -4.8736606 2.7435491
19.558554 -4.8501425 2.7484822
19.601801 -4.8172002 2.7607999
19.339611 -4.7474518 2.7509031
19.591434 -4.7495937 2.7469766
19.602669 -4.7495332 2.7493334
19.338902 -4.6493864 2.7510004
19.476957 -4.6433535 2.7455213
19.559231 -4.6663871 2.7498448
19.6015 -4.6829996 2.7490001
19.33728 -4.5563598 2.7598801
19.470083 -4.5436954 2.745945
19.281616 -4.4446158 2.7557697
19.34943 -4.4412436 2.7372491
19.443436 -4.4485478 2.7473342
19.292601 -4.3942003 2.7820001
19.350815 -4.3833408 2.7814112
19.426058 -4.3848572 2.7822449
19.3547 -5.0076518 2.8850868
19.415501 -5.0053334 2.8815
19.356647 -4.9735131 2.8463767
19.43877 -4.9640784 2.8478589
19.283001 -4.8476672 2.8216667
19.326515 -4.8489437 2.8498576
19.478983 -4.8630915 2.8515995
19.558657 -4.8475428 2.8473697
19.601999 -4.8169999 2.8740001
19.339266 -4.7508235 2.8470881
19.591404 -4.7514634 2.8482962
19.601 -4.796 2.8440001
19.349653 -4.6597924 2.8530343
19.458887 -4.6505456 2.8538744
19.559261 -4.6635513 2.8499308
19.602249 -4.6752501 2.8247502
19.337545 -4.5456367 2.8518186
19.466129 -4.5332823 2.8329747
19.33412 -4.4569378 2.8501875
19.467442 -4.4491124 2.8453798
19.275595 -4.351666 2.8511484
19.347759 -4.3373079 2.8357248
19.443794 -4.3504562 2.8450086
19.297501 -4.2789998 2.8899999
19.354855 -4.2790213 2.8786669
19.423658 -4.2836609 2.8783751
19.357164 -5.0300121 2.9516909
19.436119 -5.0218229 2.9582534
19.337 -4.9612374 2.9468155
19.457415 -4.9706192 2.9363968
19.289 -4.895 2.9289999
19.330276 -4.8488064 2.9496949
19.478863 -4.8620615 2.9486773
19.554878 -4.8445277 2.9487584
19.345144 -4.7511182 2.9507356
19.588989 -4.7497211 2.9499028
19.368111 -4.6572037 2.9600554
19.449114 -4.6498189 2.9496214
19.561014 -4.6608734 2.9487963
19.601 -4.671 2.914
19.33 -4.5173335 2.9136667
19.443201 -4.5283999 2.9234002
19.331921 -4.4432402 2.9451602
19.467022 -4.4381361 2.9254544
19.251751 -4.3299999 2.9094999
19.32737 -4.352222 2.9527407
19.464478 -4.3488383 2.9468768
19.274611 -4.2510557 2.9485557
19.348938 -4.2345881 2.9341044
19.44096 -4.2481613 2.9436986
19.289444 -4.1820002 2.9861112
19.352028 -4.174592 2.9778683
19.42474 -4.1768379 2.9768507
0 0 0 1 0 0 0 1 0 0 0 1 0 0 0 0 0 862 1 0 0
