ply
format ascii 1.0
comment PCL generated
element vertex 2027
property float x
property float y
property float z
element camera 0
property float view_px
property float view_py
property float view_pz
property float x_axisx
property float x_axisy
property float x_axisz
property float y_axisx
property float y_axisy
property float y_axisz
property float z_axisx
property float z_axisy
property float z_axisz
property float focal
property float scalex
property float scaley
property float centerx
property float centery
property int viewportx
property int viewporty
property float k1
property float k2
end_header
9.9180002 10.794 0.098999999
9.9320002 10.788 0.085000001
9.9090004 10.796 0.068999998
9.915 10.793 0.055
9.9069996 10.796 0.041000001
9.9020004 10.797 0.026000001
9.9189997 10.79 0.012
9.9560003 10.895 2.9820001
9.974 10.887 2.973
9.9589996 10.893 2.95
9.9549999 10.894 2.9319999
9.9689999 10.888 2.921
9.9519997 10.894 2.898
9.948 10.894 2.8800001
9.9619999 10.889 2.869
9.9580002 10.89 2.8510001
9.9540005 10.891 2.8329999
9.9449997 10.893 2.813
9.9499998 10.891 2.799
9.9460001 10.892 2.7809999
9.941 10.893 2.763
9.9560003 10.887 2.7520001
9.9300003 10.896 2.7260001
9.9350004 10.894 2.7119999
9.9390001 10.892 2.697
9.9350004 10.893 2.6800001
9.9399996 10.89 2.665
9.9359999 10.891 2.648
9.9359999 10.891 2.632
9.9540005 10.883 2.622
9.9469995 10.885 2.6040001
9.9469995 10.885 2.5880001
9.9350004 10.889 2.5669999
9.9060001 10.899 2.5409999
9.9029999 10.9 2.523
9.8929996 10.903 2.5039999
9.9119997 10.895 2.4949999
9.9060001 10.897 2.477
9.927 10.877 2.1240001
9.9180002 10.88 2.1059999
9.9130001 10.881 2.089
9.9209995 10.877 2.076
9.9160004 10.879 2.059
9.9200001 10.877 2.0439999
9.9289999 10.873 2.0320001
9.9139996 10.878 2.0120001
9.9130001 10.878 1.9960001
9.9160004 10.876 1.982
9.915 10.876 1.966
9.9189997 10.874 1.952
9.9180002 10.874 1.936
9.9119997 10.875 1.919
9.9110003 10.875 1.904
9.9110003 10.875 1.8890001
9.9180002 10.872 1.875
9.9169998 10.871 1.86
9.9119997 10.873 1.8430001
9.8959999 10.878 1.824
9.9139996 10.871 1.813
9.9209995 10.868 1.8
9.915 10.869 1.783
9.9130001 10.869 1.768
9.9160004 10.868 1.753
9.9110003 10.869 1.737
9.9060001 10.871 1.72
9.9090004 10.869 1.706
9.8979998 10.873 1.688
9.9090004 10.868 1.676
9.9219999 10.863 1.664
9.9160004 10.864 1.648
9.9180002 10.863 1.633
9.8979998 10.87 1.613
9.9209995 10.861 1.604
9.9139996 10.863 1.587
9.9130001 10.863 1.572
9.9090004 10.864 1.556
9.908 10.864 1.54
9.9239998 10.857 1.529
9.9040003 10.864 1.51
9.9069996 10.863 1.495
9.9060001 10.863 1.48
9.9180002 10.858 1.4680001
9.9029999 10.863 1.45
9.9189997 10.856 1.438
9.9200001 10.855 1.424
9.915 10.857 1.408
9.9259996 10.852 1.396
9.9119997 10.857 1.377
9.9139996 10.855 1.363
9.9169998 10.854 1.349
9.9230003 10.851 1.335
9.9069996 10.856 1.317
9.9060001 10.856 1.302
9.9160004 10.852 1.289
9.9060001 10.855 1.273
9.9130001 10.852 1.2589999
9.9230003 10.848 1.2460001
9.9069996 10.853 1.228
9.9230003 10.847 1.217
9.9250002 10.845 1.202
9.9230003 10.846 1.187
9.9200001 10.846 1.1720001
9.9209995 10.845 1.158
9.915 10.847 1.142
9.9180002 10.846 1.127
9.915 10.846 1.112
9.9169998 10.845 1.098
9.9099998 10.847 1.082
9.9069996 10.847 1.067
9.9189997 10.842 1.054
9.8990002 10.85 1.036
9.9099998 10.845 1.023
9.9160004 10.842 1.01
9.9239998 10.838 0.99599999
9.9119997 10.842 0.98000002
9.9180002 10.839 0.96600002
9.9139996 10.841 0.95099998
9.9060001 10.843 0.935
9.9309998 10.833 0.92400002
9.9189997 10.837 0.90799999
9.9119997 10.839 0.89200002
9.9040003 10.842 0.87599999
9.9280005 10.832 0.86500001
9.9309998 10.831 0.85100001
9.9280005 10.831 0.83600003
9.9300003 10.83 0.82200003
9.9180002 10.834 0.80599999
9.9110003 10.836 0.79000002
9.9209995 10.832 0.77700001
9.9049997 10.838 0.75999999
9.915 10.833 0.74699998
9.908 10.835 0.73100001
9.9130001 10.833 0.71799999
9.8970003 10.839 0.70099998
9.9259996 10.827 0.69
9.908 10.833 0.67400002
9.9139996 10.83 0.66000003
9.9160004 10.829 0.64600003
9.9399996 10.82 0.634
9.9300003 10.823 0.61799997
9.9189997 10.827 0.602
9.9250002 10.824 0.58899999
9.9219999 10.825 0.574
9.915 10.827 0.55900002
9.9099998 10.828 0.54400003
9.9250002 10.822 0.53100002
9.9250002 10.821 0.51599997
9.9090004 10.827 0.5
9.9160004 10.824 0.486
9.9180002 10.823 0.472
9.9289999 10.818 0.45899999
9.9130001 10.824 0.44299999
9.9169998 10.821 0.42899999
9.9250002 10.818 0.41499999
9.9239998 10.818 0.40099999
9.9209995 10.818 0.38600001
9.9180002 10.819 0.37099999
9.9289999 10.814 0.35800001
9.9250002 10.815 0.34299999
9.9329996 10.811 0.329
9.9219999 10.815 0.31400001
9.9230003 10.814 0.30000001
9.9139996 10.817 0.285
9.915 10.816 0.27000001
9.9250002 10.812 0.257
9.9209995 10.813 0.242
9.9139996 10.815 0.227
9.9130001 10.815 0.213
9.9049997 10.818 0.198
9.9230003 10.81 0.184
9.9049997 10.817 0.169
9.9060001 10.816 0.155
9.9090004 10.814 0.14
9.9280005 10.806 0.127
9.9130001 10.811 0.112
9.9230003 10.807 0.097999997
9.9239998 10.806 0.083999999
9.9250002 10.805 0.068999998
9.915 10.809 0.055
9.9160004 10.808 0.039999999
9.9209995 10.806 0.026000001
9.9200001 10.805 0.012
10.021 10.886 2.99
10.009 10.889 2.9679999
10.009 10.889 2.9519999
10.021 10.884 2.9400001
10.005 10.889 2.9170001
10.008 10.888 2.902
10.019 10.883 2.8900001
10.006 10.887 2.868
10.007 10.886 2.852
9.9890003 10.893 2.8280001
10.005 10.886 2.8180001
9.9960003 10.889 2.7980001
9.993 10.89 2.7809999
9.9969997 10.887 2.766
9.993 10.888 2.7479999
9.9980001 10.886 2.734
10.003 10.884 2.7190001
9.9940004 10.887 2.7
10.017 10.877 2.6919999
9.9899998 10.887 2.6659999
9.9809999 10.89 2.6459999
9.9840002 10.888 2.631
9.974 10.891 2.6110001
9.9460001 10.901 2.585
9.9029999 10.917 2.553
9.9029999 10.916 2.5369999
9.9119997 10.912 2.5239999
9.9069996 10.913 2.507
9.8979998 10.916 2.4879999
9.9029999 10.914 2.473
9.9420004 10.887 2.1259999
9.9449997 10.885 2.112
9.9359999 10.888 2.0940001
9.9440002 10.884 2.0810001
9.9519997 10.88 2.0680001
9.9379997 10.885 2.0480001
9.9499998 10.88 2.036
9.9370003 10.885 2.017
9.9440002 10.881 2.0039999
9.9440002 10.881 1.988
9.9469995 10.879 1.974
9.9370003 10.882 1.955
9.9359999 10.882 1.9400001
9.9350004 10.882 1.924
9.9390001 10.88 1.91
9.9379997 10.88 1.8940001
9.9499998 10.875 1.883
9.9309998 10.881 1.862
9.9390001 10.878 1.849
9.9329996 10.88 1.832
9.9230003 10.883 1.814
9.9259996 10.881 1.8
9.934 10.878 1.786
9.9280005 10.879 1.77
9.9350004 10.876 1.757
9.9300003 10.878 1.74
9.9460001 10.871 1.729
9.9309998 10.876 1.71
9.9219999 10.879 1.692
9.9250002 10.878 1.678
9.9180002 10.88 1.661
9.9250002 10.876 1.648
9.9289999 10.874 1.6339999
9.9180002 10.878 1.6160001
9.9169998 10.878 1.601
9.9329996 10.872 1.59
9.9219999 10.875 1.572
9.915 10.877 1.5549999
9.9169998 10.876 1.541
9.915 10.876 1.526
9.927 10.871 1.513
9.9289999 10.87 1.499
9.9189997 10.873 1.482
9.9289999 10.869 1.469
9.9230003 10.87 1.4529999
9.9130001 10.874 1.436
9.9250002 10.869 1.423
9.9230003 10.869 1.408
9.9209995 10.869 1.393
9.9320002 10.864 1.38
9.9259996 10.866 1.364
9.9370003 10.861 1.352
9.9390001 10.86 1.337
9.9300003 10.863 1.3200001
9.9230003 10.865 1.304
9.9300003 10.862 1.291
9.9189997 10.865 1.274
9.9259996 10.862 1.26
9.9320002 10.859 1.247
9.9160004 10.865 1.229
9.915 10.865 1.214
9.9359999 10.857 1.2029999
9.915 10.864 1.184
9.9309998 10.857 1.173
9.9200001 10.861 1.156
9.9259996 10.858 1.142
9.9230003 10.859 1.127
9.9379997 10.853 1.115
9.9180002 10.86 1.097
9.9160004 10.86 1.082
9.9309998 10.854 1.0700001
9.9189997 10.858 1.053
9.9259996 10.855 1.039
9.9239998 10.855 1.024
9.9209995 10.856 1.0089999
9.9180002 10.856 0.99400002
9.9250002 10.853 0.98000002
9.9309998 10.85 0.96700001
9.9239998 10.852 0.95099998
9.9259996 10.851 0.93699998
9.9169998 10.854 0.921
9.9289999 10.849 0.90799999
9.9169998 10.853 0.89200002
9.9189997 10.852 0.87699997
9.9300003 10.847 0.86400002
9.9139996 10.852 0.847
9.9110003 10.853 0.83200002
9.927 10.847 0.81999999
9.9230003 10.848 0.80500001
9.9259996 10.846 0.79100001
9.9090004 10.852 0.77399999
9.9189997 10.848 0.76099998
9.9250002 10.845 0.74699998
9.9219999 10.846 0.73199999
9.9250002 10.844 0.71799999
9.915 10.847 0.70200002
9.9130001 10.848 0.68800002
9.9099998 10.848 0.67299998
9.9259996 10.842 0.66000003
9.9219999 10.842 0.64499998
9.927 10.84 0.63099998
9.9200001 10.842 0.616
9.9119997 10.845 0.60100001
9.9040003 10.848 0.58499998
9.9219999 10.84 0.57300001
9.9189997 10.841 0.55800003
9.9110003 10.843 0.54299998
9.9169998 10.84 0.52899998
9.9040003 10.845 0.51300001
9.915 10.84 0.5
9.9169998 10.839 0.486
9.9169998 10.838 0.47099999
9.9180002 10.838 0.45699999
9.9139996 10.838 0.442
9.9309998 10.831 0.42899999
9.9250002 10.833 0.414
9.9110003 10.838 0.398
9.9230003 10.833 0.38499999
9.915 10.835 0.37
9.9189997 10.833 0.35600001
9.9300003 10.829 0.34299999
9.9300003 10.828 0.32800001
9.9309998 10.827 0.31400001
9.9280005 10.828 0.29899999
9.9160004 10.832 0.28400001
9.9200001 10.83 0.27000001
9.9209995 10.829 0.255
9.9359999 10.823 0.242
9.9189997 10.829 0.226
9.9060001 10.833 0.211
9.915 10.829 0.198
9.9069996 10.832 0.183
9.9300003 10.822 0.17
9.9219999 10.825 0.155
9.9180002 10.826 0.14
9.9049997 10.831 0.125
9.9130001 10.827 0.111
9.9060001 10.829 0.097000003
9.9200001 10.823 0.082999997
9.915 10.825 0.068000004
9.9250002 10.821 0.054000001
9.9160004 10.824 0.039999999
9.9090004 10.826 0.025
9.9169998 10.822 0.011
10.051 10.89 2.983
10.063 10.885 2.9719999
10.056 10.887 2.9519999
10.045 10.89 2.931
10.056 10.886 2.9189999
10.045 10.889 2.8970001
10.049 10.887 2.8829999
10.046 10.888 2.865
10.042 10.889 2.8469999
10.049 10.886 2.8329999
10.058 10.882 2.8199999
10.036 10.889 2.7950001
10.034 10.889 2.7780001
10.051 10.883 2.7679999
10.049 10.882 2.7509999
10.046 10.883 2.734
10.046 10.882 2.717
10.019 10.892 2.691
10.038 10.884 2.6819999
10.031 10.886 2.6630001
9.9560003 10.914 2.618
9.9119997 10.93 2.586
9.8999996 10.934 2.5650001
9.9130001 10.928 2.5539999
9.9209995 10.925 2.5409999
9.9139996 10.927 2.523
9.9090004 10.928 2.5050001
9.8990002 10.931 2.4860001
9.908 10.927 2.473
9.993 10.883 2.1400001
10.006 10.878 2.1289999
9.9960003 10.881 2.1099999
9.9919996 10.882 2.0929999
9.993 10.881 2.0780001
9.9949999 10.88 2.063
9.9919996 10.88 2.0469999
9.9860001 10.882 2.03
9.9809999 10.883 2.0120001
9.9709997 10.887 1.994
9.9840002 10.881 1.982
9.9779997 10.883 1.965
9.9820004 10.881 1.951
9.9759998 10.882 1.934
9.9750004 10.882 1.918
9.9700003 10.884 1.902
9.9820004 10.879 1.8890001
9.9680004 10.883 1.87
9.9799995 10.878 1.858
9.9790001 10.878 1.8430001
9.9779997 10.878 1.827
9.9860001 10.874 1.814
9.9840002 10.874 1.798
9.974 10.878 1.78
9.9680004 10.879 1.763
9.9759998 10.876 1.75
9.9610004 10.881 1.7309999
9.9639997 10.879 1.717
9.9619999 10.879 1.701
9.9750004 10.874 1.689
9.9729996 10.874 1.674
9.9619999 10.878 1.656
9.9750004 10.873 1.6440001
9.9549999 10.88 1.624
9.967 10.875 1.612
9.9560003 10.878 1.594
9.9499998 10.88 1.577
9.9569998 10.877 1.564
9.9510002 10.878 1.5470001
9.9630003 10.873 1.535
9.9610004 10.874 1.52
9.9549999 10.875 1.503
9.9530001 10.876 1.488
9.9469995 10.877 1.471
9.9589996 10.873 1.459
9.9469995 10.876 1.442
9.9449997 10.877 1.426
9.9429998 10.877 1.411
9.9549999 10.872 1.399
9.934 10.879 1.3789999
9.9370003 10.878 1.365
9.9259996 10.881 1.348
9.9329996 10.878 1.334
9.927 10.88 1.318
9.9300003 10.878 1.304
9.9180002 10.882 1.2869999
9.934 10.876 1.275
9.9359999 10.874 1.261
9.934 10.875 1.2460001
9.9329996 10.875 1.2309999
9.9300003 10.875 1.215
9.9239998 10.877 1.199
9.9350004 10.872 1.187
9.9420004 10.869 1.173
9.9239998 10.875 1.155
9.9399996 10.869 1.143
9.9280005 10.873 1.126
9.9209995 10.875 1.11
9.9350004 10.869 1.098
9.9440002 10.865 1.085
9.9370003 10.867 1.069
9.934 10.868 1.054
9.9440002 10.863 1.041
9.9239998 10.871 1.023
9.9359999 10.866 1.01
9.9420004 10.863 0.99699998
9.9209995 10.87 0.97799999
9.9359999 10.864 0.96600002
9.9510002 10.858 0.954
9.9359999 10.863 0.93699998
9.9280005 10.865 0.921
9.9440002 10.859 0.90899998
9.9320002 10.863 0.89300001
9.934 10.862 0.87800002
9.9350004 10.861 0.86400002
9.9420004 10.858 0.85000002
9.9379997 10.859 0.83499998
9.9259996 10.863 0.81900001
9.941 10.856 0.80599999
9.9309998 10.86 0.79000002
9.9399996 10.856 0.77700001
9.9370003 10.857 0.76200002
9.9209995 10.862 0.74599999
9.9280005 10.859 0.73199999
9.9230003 10.86 0.71700001
9.9379997 10.854 0.704
9.9429998 10.852 0.69
9.9230003 10.859 0.67299998
9.9429998 10.851 0.66100001
9.934 10.854 0.64600003
9.9370003 10.852 0.63099998
9.9379997 10.851 0.61699998
9.9209995 10.857 0.60100001
9.9219999 10.856 0.58600003
9.9230003 10.855 0.57200003
9.934 10.851 0.55900002
9.9289999 10.852 0.54400003
9.9259996 10.853 0.52899998
9.9329996 10.85 0.51499999
9.9429998 10.845 0.50199997
9.9399996 10.846 0.48699999
9.9320002 10.848 0.472
9.9289999 10.849 0.45699999
9.9329996 10.847 0.44299999
9.9209995 10.851 0.42699999
9.9230003 10.85 0.41299999
9.9289999 10.847 0.39899999
9.9230003 10.849 0.384
9.9239998 10.848 0.37
9.9209995 10.849 0.35499999
9.9119997 10.851 0.34
9.9280005 10.845 0.32699999
9.9239998 10.846 0.31200001
9.9300003 10.843 0.29800001
9.9200001 10.846 0.28299999
9.9180002 10.847 0.26899999
9.9130001 10.848 0.25400001
9.9099998 10.848 0.23899999
9.9280005 10.841 0.226
9.9250002 10.842 0.212
9.9289999 10.84 0.198
9.9259996 10.84 0.183
9.9169998 10.843 0.168
9.9180002 10.843 0.154
9.9239998 10.84 0.14
9.9200001 10.841 0.125
9.9189997 10.84 0.111
9.9200001 10.84 0.097000003
9.9219999 10.838 0.082000002
9.9169998 10.84 0.068000004
9.9130001 10.841 0.052999999
9.9130001 10.841 0.039000001
9.9130001 10.84 0.025
9.9189997 10.837 0.0099999998
10.12 10.88 2.9920001
10.106 10.884 2.97
10.107 10.883 2.954
10.117 10.879 2.941
10.113 10.88 2.9230001
10.089 10.888 2.8959999
10.101 10.883 2.885
10.093 10.886 2.865
10.092 10.886 2.848
10.081 10.889 2.8269999
10.08 10.889 2.8099999
10.095 10.883 2.8
10.085 10.886 2.779
10.083 10.886 2.7620001
10.079 10.887 2.744
10.075 10.888 2.7260001
10.058 10.893 2.7030001
9.9569998 10.931 2.648
9.9130001 10.946 2.615
9.9180002 10.944 2.6010001
9.8970003 10.951 2.5769999
9.9049997 10.948 2.5639999
9.8959999 10.95 2.5450001
9.9049997 10.947 2.533
9.9130001 10.943 2.52
9.9060001 10.945 2.5009999
9.8970003 10.948 2.4820001
9.9090004 10.943 2.471
10.039 10.882 2.1530001
10.047 10.878 2.1389999
10.033 10.883 2.119
10.032 10.883 2.1040001
10.038 10.88 2.0899999
10.048 10.876 2.0769999
10.039 10.879 2.059
10.038 10.879 2.043
10.028 10.882 2.0239999
10.04 10.876 2.013
10.035 10.878 1.995
10.043 10.874 1.982
10.037 10.876 1.965
10.031 10.878 1.948
10.03 10.878 1.932
10.033 10.876 1.9170001
10.019 10.881 1.898
10.018 10.881 1.882
10.026 10.877 1.869
10.02 10.879 1.852
10.028 10.875 1.839
10.026 10.875 1.823
10.025 10.875 1.807
10.015 10.878 1.789
10.018 10.877 1.775
10.017 10.877 1.7589999
10.015 10.877 1.743
10.015 10.876 1.728
10.018 10.875 1.714
10.021 10.873 1.699
10.024 10.871 1.6849999
10.022 10.871 1.669
10.016 10.873 1.652
10.006 10.876 1.6339999
10 10.878 1.618
9.9980001 10.878 1.602
10.005 10.875 1.589
10.004 10.875 1.573
10.007 10.873 1.559
9.9960003 10.877 1.541
9.9940004 10.877 1.526
10.006 10.872 1.513
9.9949999 10.876 1.4960001
9.993 10.876 1.48
9.9870005 10.878 1.464
9.9940004 10.874 1.45
9.9829998 10.878 1.433
9.9860001 10.877 1.419
10.002 10.87 1.4069999
9.9770002 10.879 1.387
9.9890003 10.874 1.374
9.9870005 10.874 1.359
9.9940004 10.871 1.346
9.9870005 10.873 1.329
9.9849997 10.873 1.314
9.9829998 10.874 1.298
9.9849997 10.872 1.284
9.9879999 10.871 1.27
9.9750004 10.875 1.252
9.9820004 10.872 1.239
9.9709997 10.876 1.222
9.9680004 10.876 1.206
9.9659996 10.876 1.191
9.9680004 10.875 1.177
9.9619999 10.877 1.161
9.9639997 10.875 1.146
9.9709997 10.872 1.133
9.9729996 10.871 1.119
9.9709997 10.871 1.103
9.9680004 10.872 1.0880001
9.9700003 10.87 1.074
9.9630003 10.873 1.058
9.9750004 10.868 1.045
9.9630003 10.872 1.028
9.9689999 10.869 1.015
9.9619999 10.871 0.99900001
9.9589996 10.872 0.98400003
9.9659996 10.869 0.97000003
9.9580002 10.871 0.954
9.9560003 10.871 0.93900001
9.9619999 10.868 0.92500001
9.9639997 10.867 0.91100001
9.9750004 10.862 0.898
9.9540005 10.87 0.88
9.96 10.867 0.866
9.9619999 10.866 0.852
9.9359999 10.875 0.83399999
9.9420004 10.872 0.81999999
9.9569998 10.866 0.80800003
9.9499998 10.868 0.792
9.9560003 10.866 0.778
9.948 10.868 0.76300001
9.9449997 10.869 0.74800003
9.9370003 10.871 0.73199999
9.948 10.866 0.71899998
9.9399996 10.869 0.70300001
9.9239998 10.874 0.68699998
9.9440002 10.866 0.67500001
9.927 10.872 0.65799999
9.9420004 10.866 0.64499998
9.9230003 10.873 0.62900001
9.9440002 10.864 0.61699998
9.9390001 10.866 0.602
9.9510002 10.861 0.588
9.9399996 10.865 0.57300001
9.9399996 10.864 0.55800003
9.9490004 10.86 0.54500002
9.9420004 10.862 0.52999997
9.9390001 10.863 0.51499999
9.9540005 10.856 0.50199997
9.9309998 10.865 0.48500001
9.9460001 10.859 0.472
9.9519997 10.856 0.458
9.9399996 10.86 0.44299999
9.9449997 10.858 0.42899999
9.9329996 10.862 0.41299999
9.9379997 10.859 0.39899999
9.9519997 10.853 0.38600001
9.934 10.86 0.37
9.9440002 10.856 0.35600001
9.9359999 10.858 0.34099999
9.9460001 10.854 0.32800001
9.9289999 10.859 0.31200001
9.9359999 10.857 0.29800001
9.9359999 10.856 0.28400001
9.9329996 10.857 0.26899999
9.9280005 10.858 0.25400001
9.9379997 10.854 0.241
9.934 10.855 0.226
9.9169998 10.861 0.20999999
9.9350004 10.853 0.197
9.9309998 10.854 0.183
9.941 10.85 0.169
9.9320002 10.853 0.154
9.9239998 10.855 0.139
9.9440002 10.847 0.126
9.9160004 10.857 0.11
9.9119997 10.858 0.094999999
9.9399996 10.847 0.082000002
9.9379997 10.847 0.068000004
9.9259996 10.851 0.052999999
9.927 10.851 0.039000001
9.9230003 10.851 0.024
9.9239998 10.851 0.0099999998
10.135 10.89 2.9960001
10.131 10.891 2.9779999
10.126 10.892 2.9590001
10.133 10.889 2.9449999
10.143 10.885 2.9319999
10.125 10.891 2.908
10.136 10.886 2.8959999
10.146 10.882 2.8829999
10.136 10.885 2.8629999
10.143 10.882 2.849
10.128 10.887 2.826
10.133 10.884 2.812
10.118 10.889 2.79
10.132 10.884 2.7780001
10.128 10.884 2.76
10.009 10.928 2.698
9.9060001 10.966 2.642
9.8999996 10.967 2.6240001
9.9209995 10.959 2.6159999
9.9049997 10.964 2.5940001
9.9139996 10.96 2.582
9.9110003 10.961 2.5639999
9.9099998 10.961 2.5480001
9.8970003 10.965 2.5280001
9.8970003 10.964 2.5120001
9.901 10.962 2.497
9.9099998 10.958 2.4849999
9.9230003 10.953 2.474
10.085 10.88 2.165
10.08 10.882 2.148
10.094 10.876 2.1359999
10.089 10.877 2.119
10.084 10.879 2.102
10.072 10.883 2.082
10.075 10.881 2.0680001
10.088 10.875 2.056
10.078 10.879 2.0369999
10.084 10.876 2.023
10.074 10.879 2.0050001
10.078 10.877 1.99
10.064 10.882 1.971
10.085 10.873 1.961
10.068 10.879 1.941
10.067 10.879 1.925
10.07 10.877 1.91
10.065 10.879 1.893
10.07 10.876 1.8789999
10.067 10.877 1.863
10.064 10.877 1.847
10.061 10.878 1.83
10.053 10.88 1.813
10.056 10.878 1.799
10.06 10.877 1.784
10.061 10.876 1.7690001
10.061 10.875 1.7539999
10.063 10.874 1.739
10.059 10.875 1.722
10.06 10.874 1.707
10.065 10.871 1.693
10.054 10.875 1.675
10.066 10.87 1.663
10.053 10.874 1.6440001
10.043 10.877 1.627
10.054 10.873 1.614
10.041 10.877 1.596
10.044 10.876 1.581
10.053 10.872 1.568
10.051 10.872 1.553
10.028 10.88 1.5319999
10.029 10.879 1.517
10.055 10.869 1.508
10.049 10.87 1.4910001
10.056 10.867 1.478
10.031 10.876 1.457
10.028 10.877 1.441
10.039 10.872 1.429
10.03 10.875 1.4119999
10.037 10.872 1.398
10.04 10.87 1.3839999
10.033 10.872 1.367
10.04 10.869 1.354
10.015 10.878 1.334
10.032 10.871 1.322
10.029 10.872 1.306
10.018 10.875 1.289
10.02 10.874 1.275
10.023 10.873 1.26
10.025 10.871 1.2460001
10.032 10.868 1.232
10.03 10.868 1.217
10.023 10.87 1.201
10.034 10.866 1.188
10.032 10.866 1.173
10.016 10.872 1.155
10.023 10.868 1.141
10.015 10.871 1.125
10.018 10.869 1.11
10.01 10.872 1.094
10.017 10.868 1.081
10.024 10.865 1.067
10.016 10.868 1.051
10.028 10.863 1.038
10.03 10.861 1.023
10.012 10.867 1.006
10.005 10.87 0.99000001
10.021 10.863 0.97799999
10.018 10.864 0.96200001
10.015 10.864 0.94700003
10.008 10.867 0.93099999
10.002 10.868 0.91600001
10.008 10.865 0.90200001
10.018 10.861 0.889
10.007 10.865 0.87199998
9.9989996 10.867 0.85600001
10.001 10.866 0.84200001
10.012 10.861 0.829
10.004 10.864 0.81300002
10.001 10.864 0.79799998
10.012 10.86 0.78500003
9.9949999 10.866 0.76800001
10.011 10.859 0.755
10.003 10.862 0.74000001
10 10.862 0.72399998
9.9969997 10.863 0.70899999
9.993 10.864 0.69400001
9.9989996 10.861 0.68099999
9.9960003 10.862 0.66600001
9.9879999 10.864 0.64999998
9.974 10.869 0.634
9.9910002 10.862 0.62099999
9.9919996 10.861 0.60699999
9.9980001 10.859 0.59299999
9.9879999 10.861 0.57700002
9.9779997 10.865 0.56099999
9.9899998 10.86 0.54799998
9.9849997 10.862 0.53299999
9.9630003 10.869 0.51599997
9.9820004 10.861 0.50400001
9.9650002 10.868 0.48699999
9.9750004 10.863 0.47400001
9.9720001 10.864 0.45899999
9.9540005 10.87 0.44299999
9.96 10.867 0.42899999
9.9650002 10.865 0.41499999
9.9619999 10.866 0.40000001
9.9630003 10.865 0.38600001
9.9540005 10.867 0.37099999
9.9549999 10.867 0.35600001
9.9510002 10.867 0.34200001
9.9390001 10.872 0.32600001
9.9630003 10.862 0.31400001
9.941 10.87 0.29800001
9.9460001 10.867 0.28400001
9.9510002 10.865 0.26899999
9.9610004 10.861 0.25600001
9.9390001 10.869 0.23999999
9.9440002 10.866 0.226
9.9440002 10.866 0.211
9.927 10.872 0.19599999
9.9370003 10.867 0.182
9.9420004 10.865 0.168
9.9329996 10.868 0.153
9.9469995 10.862 0.14
9.9569998 10.858 0.126
9.9619999 10.855 0.112
9.9490004 10.86 0.097000003
9.9589996 10.855 0.082999997
9.9399996 10.862 0.067000002
9.941 10.861 0.052999999
9.9320002 10.864 0.037999999
9.9250002 10.866 0.024
9.9289999 10.864 0.0099999998
9.9250002 10.976 2.6949999
9.9309998 10.973 2.6819999
9.9139996 10.978 2.6589999
9.901 10.983 2.638
9.9219999 10.974 2.6300001
9.915 10.976 2.6110001
9.9189997 10.974 2.5969999
9.9099998 10.977 2.5780001
9.915 10.975 2.5639999
9.915 10.974 2.5480001
9.9029999 10.978 2.527
9.9029999 10.978 2.5109999
9.9029999 10.977 2.4960001
9.8959999 10.979 2.4779999
9.8920002 10.98 2.46
10.136 10.878 2.1949999
10.126 10.881 2.1760001
10.117 10.884 2.1570001
10.128 10.879 2.145
10.125 10.88 2.128
10.133 10.876 2.115
10.105 10.886 2.0899999
10.109 10.884 2.076
10.117 10.88 2.062
10.123 10.878 2.049
10.122 10.877 2.033
10.138 10.871 2.0220001
10.119 10.878 2
10.124 10.875 1.9859999
10.11 10.88 1.967
10.114 10.878 1.952
10.122 10.874 1.939
10.107 10.879 1.919
10.113 10.876 1.905
10.109 10.877 1.888
10.104 10.879 1.8710001
10.107 10.877 1.857
10.106 10.877 1.841
10.118 10.872 1.829
10.103 10.877 1.809
10.102 10.877 1.793
10.11 10.873 1.78
10.093 10.879 1.76
10.098 10.876 1.7460001
10.101 10.875 1.7309999
10.094 10.877 1.714
10.107 10.871 1.702
10.11 10.87 1.688
10.094 10.875 1.668
10.097 10.873 1.654
10.096 10.873 1.638
10.082 10.878 1.619
10.104 10.869 1.609
10.089 10.874 1.59
10.083 10.876 1.574
10.085 10.875 1.559
10.089 10.873 1.545
10.082 10.875 1.528
10.075 10.877 1.511
10.092 10.87 1.5
10.077 10.875 1.4809999
10.076 10.875 1.466
10.074 10.875 1.45
10.085 10.871 1.437
10.083 10.871 1.4220001
10.072 10.875 1.404
10.084 10.87 1.392
10.061 10.877 1.372
10.058 10.878 1.3559999
10.048 10.881 1.339
10.051 10.88 1.324
10.035 10.885 1.306
10.046 10.88 1.293
10.035 10.884 1.276
10.019 10.89 1.258
10.026 10.886 1.244
10.024 10.887 1.229
10.06 10.873 1.221
10.07 10.869 1.2079999
10.065 10.87 1.192
10.081 10.863 1.1799999
10.072 10.866 1.164
10.055 10.872 1.146
10.062 10.869 1.132
10.06 10.869 1.117
10.053 10.871 1.1
10.064 10.866 1.087
10.061 10.867 1.072
10.063 10.865 1.058
10.061 10.866 1.0420001
10.063 10.865 1.028
10.065 10.863 1.013
10.058 10.866 0.99699998
10.046 10.87 0.98000002
10.066 10.861 0.96899998
10.063 10.862 0.95300001
10.06 10.862 0.93800002
10.034 10.872 0.91900003
10.05 10.865 0.90700001
10.052 10.864 0.89200002
10.054 10.863 0.87800002
10.055 10.862 0.86299998
10.047 10.864 0.847
10.059 10.859 0.83399999
10.046 10.864 0.81800002
10.047 10.863 0.80299997
10.054 10.86 0.78899997
10.037 10.866 0.77200001
10.043 10.863 0.75800002
10.04 10.864 0.74299997
10.049 10.86 0.73000002
10.03 10.866 0.713
10.044 10.86 0.69999999
10.041 10.861 0.685
10.039 10.861 0.67000002
10.04 10.86 0.65499997
10.045 10.858 0.64099997
10.027 10.864 0.62400001
10.016 10.868 0.60799998
10.045 10.856 0.597
10.033 10.861 0.58099997
10.018 10.866 0.565
10.026 10.862 0.551
10.023 10.863 0.53600001
10.019 10.864 0.52100003
10.025 10.861 0.50700003
10.017 10.863 0.49200001
10.022 10.861 0.47799999
10.023 10.86 0.463
10.025 10.859 0.449
10.021 10.86 0.43399999
10.013 10.862 0.41800001
10.004 10.865 0.403
10.019 10.859 0.38999999
10.009 10.862 0.37400001
10.018 10.858 0.361
10.001 10.864 0.345
10.007 10.861 0.331
10 10.863 0.31600001
10.008 10.86 0.30199999
10.002 10.862 0.287
9.993 10.864 0.27200001
9.9940004 10.864 0.257
9.9899998 10.865 0.243
9.9910002 10.864 0.228
9.9870005 10.865 0.213
9.9809999 10.867 0.199
9.9969997 10.86 0.185
9.9980001 10.859 0.171
9.9849997 10.864 0.155
9.9619999 10.872 0.14
9.9890003 10.861 0.127
9.9840002 10.862 0.112
9.9820004 10.863 0.097999997
9.9779997 10.864 0.082999997
9.9689999 10.866 0.068000004
9.9510002 10.873 0.052999999
9.9449997 10.875 0.037999999
9.9399996 10.876 0.024
9.9250002 10.881 0.0089999996
9.9119997 10.997 2.72
9.9200001 10.993 2.707
9.9139996 10.995 2.6889999
9.915 10.994 2.6730001
9.9099998 10.995 2.655
9.9230003 10.99 2.6440001
9.9099998 10.994 2.6229999
9.9119997 10.993 2.608
9.9160004 10.991 2.5929999
9.9069996 10.994 2.5739999
9.9020004 10.995 2.5569999
9.9029999 10.994 2.5409999
9.9069996 10.992 2.526
9.9119997 10.99 2.513
9.8970003 10.995 2.4909999
9.9099998 10.989 2.48
10.15 10.878 1.913
10.14 10.881 1.895
10.152 10.877 1.883
10.147 10.878 1.8660001
10.146 10.878 1.85
10.149 10.876 1.835
10.149 10.876 1.819
10.139 10.879 1.801
10.137 10.879 1.785
10.138 10.878 1.77
10.139 10.877 1.755
10.134 10.879 1.738
10.144 10.874 1.725
10.139 10.876 1.709
10.145 10.873 1.6950001
10.135 10.876 1.677
10.149 10.87 1.665
10.139 10.874 1.647
10.151 10.869 1.6339999
10.134 10.874 1.615
10.138 10.872 1.6
10.127 10.876 1.582
10.125 10.876 1.567
10.136 10.871 1.554
10.129 10.873 1.5369999
10.129 10.873 1.522
10.127 10.873 1.506
10.13 10.871 1.4910001
10.137 10.868 1.478
10.131 10.87 1.461
10.127 10.871 1.4450001
10.127 10.87 1.4299999
10.132 10.868 1.416
10.126 10.87 1.399
10.074 10.888 1.373
10.051 10.896 1.353
10.044 10.898 1.336
10.037 10.9 1.3200001
10.035 10.901 1.3049999
10.043 10.897 1.291
10.026 10.903 1.273
10.029 10.902 1.258
10.023 10.903 1.242
10.043 10.895 1.2309999
10.082 10.88 1.224
10.116 10.867 1.216
10.105 10.871 1.198
10.102 10.871 1.183
10.118 10.864 1.171
10.107 10.868 1.154
10.109 10.867 1.1390001
10.107 10.867 1.124
10.104 10.868 1.108
10.106 10.866 1.094
10.104 10.867 1.0779999
10.101 10.867 1.063
10.103 10.866 1.048
10.1 10.866 1.033
10.093 10.868 1.017
10.1 10.865 1.003
10.092 10.868 0.98699999
10.104 10.863 0.97399998
10.101 10.863 0.958
10.093 10.866 0.94199997
10.1 10.863 0.92799997
10.092 10.865 0.912
10.094 10.864 0.898
10.101 10.861 0.884
10.089 10.865 0.86699998
10.095 10.862 0.85299999
10.087 10.865 0.83700001
10.084 10.865 0.82200003
10.086 10.864 0.80699998
10.111 10.854 0.796
10.089 10.862 0.778
10.091 10.861 0.764
10.078 10.865 0.74699998
10.087 10.861 0.73400003
10.091 10.859 0.71899998
10.092 10.858 0.70499998
10.084 10.86 0.68900001
10.081 10.861 0.67400002
10.087 10.858 0.66000003
10.089 10.857 0.64499998
10.07 10.864 0.62800002
10.087 10.857 0.61500001
10.076 10.86 0.60000002
10.07 10.862 0.58399999
10.066 10.863 0.56900001
10.075 10.859 0.55500001
10.064 10.863 0.53899997
10.07 10.86 0.52499998
10.066 10.861 0.50999999
10.063 10.862 0.495
10.051 10.866 0.479
10.07 10.858 0.46700001
10.039 10.869 0.449
10.045 10.866 0.435
10.041 10.867 0.41999999
10.061 10.859 0.40700001
10.062 10.858 0.39300001
10.069 10.855 0.37900001
10.059 10.858 0.36300001
10.069 10.854 0.34900001
10.042 10.864 0.333
10.061 10.856 0.31999999
10.051 10.859 0.30399999
10.063 10.854 0.29100001
10.064 10.853 0.27599999
10.046 10.86 0.25999999
10.033 10.864 0.245
10.043 10.86 0.23100001
10.062 10.852 0.21699999
10.053 10.855 0.20200001
10.035 10.861 0.18700001
10.036 10.86 0.17200001
10.044 10.857 0.15800001
10.032 10.861 0.14300001
10.03 10.861 0.12800001
10.022 10.863 0.113
10.029 10.86 0.098999999
10.034 10.858 0.085000001
10.033 10.858 0.07
10.043 10.854 0.056000002
10.022 10.861 0.041000001
9.9540005 10.886 0.024
9.9370003 10.892 0.0089999996
9.9659996 10.993 2.7709999
9.9289999 11.007 2.74
9.9219999 11.008 2.721
9.9110003 11.012 2.701
9.9099998 11.011 2.6849999
9.9060001 11.012 2.6670001
9.9200001 11.007 2.6559999
9.9119997 11.009 2.6370001
9.9110003 11.009 2.6210001
9.9119997 11.008 2.605
9.9119997 11.008 2.589
9.9160004 11.005 2.575
9.9130001 11.006 2.5580001
9.8990002 11.011 2.5369999
9.8940001 11.012 2.5190001
9.9060001 11.007 2.5079999
9.9069996 11.006 2.4920001
9.901 11.008 2.4749999
9.8970003 11.008 2.4579999
10.082 10.902 1.388
10.06 10.909 1.368
10.042 10.915 1.35
10.045 10.914 1.335
10.038 10.916 1.319
10.04 10.914 1.304
10.038 10.915 1.289
10.036 10.915 1.273
10.029 10.917 1.257
10.032 10.915 1.243
10.043 10.911 1.23
10.07 10.9 1.22
10.115 10.883 1.214
10.149 10.87 1.205
10.145 10.871 1.189
10.143 10.871 1.174
10.14 10.872 1.158
10.155 10.865 1.146
10.138 10.871 1.128
10.142 10.869 1.113
10.146 10.867 1.099
10.146 10.867 1.084
10.15 10.865 1.0700001
10.147 10.865 1.054
10.141 10.867 1.038
10.138 10.867 1.023
10.149 10.863 1.01
10.135 10.868 0.99199998
10.137 10.866 0.97799999
10.139 10.865 0.963
10.131 10.867 0.94700003
10.124 10.87 0.93099999
10.11 10.874 0.91399997
10.132 10.865 0.90200001
10.129 10.866 0.88700002
10.126 10.867 0.87099999
10.128 10.865 0.85699999
10.125 10.866 0.84100002
10.136 10.861 0.82800001
10.138 10.86 0.81300002
10.13 10.862 0.79799998
10.104 10.872 0.77899998
10.124 10.864 0.76700002
10.126 10.862 0.75199997
10.127 10.861 0.73799998
10.128 10.86 0.72299999
10.135 10.857 0.70899999
10.123 10.861 0.69300002
10.123 10.861 0.67799997
10.135 10.856 0.66399997
10.131 10.857 0.64899999
10.128 10.857 0.634
10.121 10.86 0.61799997
10.121 10.859 0.60399997
10.109 10.863 0.58700001
10.11 10.862 0.57300001
10.13 10.855 0.56
10.117 10.859 0.54400003
10.109 10.861 0.528
10.114 10.859 0.514
10.102 10.863 0.498
10.088 10.867 0.48199999
10.099 10.863 0.46900001
10.095 10.864 0.45300001
10.096 10.863 0.43900001
10.099 10.861 0.42399999
10.099 10.86 0.41
10.081 10.867 0.39300001
10.1 10.859 0.38
10.096 10.86 0.36500001
10.101 10.858 0.35100001
10.088 10.862 0.33500001
10.103 10.856 0.322
10.114 10.851 0.308
10.1 10.856 0.292
10.101 10.855 0.278
10.088 10.86 0.26199999
10.084 10.861 0.24699999
10.094 10.856 0.233
10.081 10.86 0.21799999
10.09 10.856 0.204
10.091 10.856 0.189
10.083 10.858 0.17399999
10.079 10.859 0.15899999
10.075 10.86 0.14399999
10.075 10.859 0.13
10.085 10.855 0.116
10.076 10.858 0.101
10.09 10.852 0.086999997
10.082 10.855 0.071999997
10.078 10.856 0.057
10.074 10.857 0.041999999
9.9870005 10.889 0.024
9.9650002 10.897 0.0089999996
9.9680004 11.009 2.802
9.9680004 11.009 2.7850001
9.9180002 11.027 2.7490001
9.9099998 11.029 2.73
9.9020004 11.031 2.711
9.8940001 11.034 2.6919999
9.9069996 11.028 2.681
9.8990002 11.031 2.6619999
9.9160004 11.024 2.6530001
9.9119997 11.025 2.635
9.8990002 11.029 2.6140001
9.9119997 11.024 2.6029999
9.8950005 11.029 2.5810001
9.9130001 11.022 2.5710001
9.9169998 11.02 2.5569999
9.9040003 11.025 2.536
9.9040003 11.024 2.5209999
9.9029999 11.024 2.5050001
9.9040003 11.023 2.4890001
9.8970003 11.025 2.471
9.9069996 11.021 2.4590001
10.085 10.916 1.387
10.065 10.923 1.368
10.047 10.929 1.349
10.041 10.931 1.3329999
10.048 10.928 1.319
10.036 10.931 1.302
10.03 10.933 1.286
10.037 10.93 1.272
10.025 10.934 1.255
10.028 10.933 1.24
10.021 10.935 1.224
10.08 10.912 1.221
10.134 10.892 1.216
10.153 10.884 1.205
10.127 10.884 0.91500002
10.111 10.889 0.898
10.155 10.872 0.85900003
10.169 10.865 0.83200002
10.146 10.873 0.81300002
10.14 10.875 0.79799998
10.151 10.87 0.78399998
10.159 10.867 0.76999998
10.373 10.787 0.78399998
10.359 10.791 0.76700002
10.37 10.787 0.75300002
10.358 10.791 0.736
10.369 10.786 0.722
10.361 10.789 0.70599997
10.368 10.786 0.69099998
10.341 10.795 0.67299998
10.347 10.792 0.65899998
10.336 10.796 0.64200002
10.28 10.816 0.62099999
10.22 10.838 0.59899998
10.202 10.844 0.58200002
10.2 10.844 0.56699997
10.172 10.854 0.54900002
10.17 10.854 0.53399998
10.161 10.857 0.51800001
10.149 10.861 0.50199997
10.163 10.855 0.48899999
10.16 10.856 0.47299999
10.152 10.858 0.458
10.159 10.855 0.44400001
10.154 10.857 0.42899999
10.147 10.859 0.41299999
10.143 10.86 0.398
10.148 10.857 0.384
10.139 10.86 0.368
10.146 10.857 0.354
10.142 10.858 0.33899999
10.138 10.859 0.324
10.134 10.86 0.30899999
10.144 10.856 0.29499999
10.126 10.862 0.27900001
10.131 10.859 0.264
10.127 10.86 0.249
10.137 10.856 0.235
10.133 10.857 0.22
10.134 10.856 0.206
10.135 10.855 0.191
10.131 10.856 0.176
10.126 10.857 0.161
10.122 10.858 0.146
10.128 10.856 0.132
10.123 10.857 0.117
10.124 10.856 0.102
10.129 10.854 0.088
10.125 10.855 0.072999999
10.125 10.854 0.057999998
10.12 10.856 0.044
10.093 10.865 0.028000001
10.025 10.89 0.011
9.9490004 11.033 2.8080001
9.927 11.04 2.783
9.915 11.044 2.7620001
9.915 11.043 2.7460001
9.9020004 11.047 2.7249999
9.908 11.045 2.711
9.8990002 11.047 2.6919999
9.908 11.043 2.6789999
9.8940001 11.048 2.658
9.9090004 11.042 2.6470001
9.8999996 11.044 2.628
9.8950005 11.046 2.6099999
9.9169998 11.037 2.6029999
9.9090004 11.039 2.5840001
9.8959999 11.044 2.563
9.9099998 11.038 2.552
9.8950005 11.043 2.5309999
9.8940001 11.043 2.5150001
9.9040003 11.038 2.503
9.8979998 11.04 2.4849999
9.9160004 11.033 2.4749999
9.9040003 11.037 2.4549999
10.078 10.934 1.3839999
10.052 10.943 1.363
10.048 10.944 1.348
10.036 10.948 1.33
10.044 10.945 1.317
10.032 10.948 1.299
10.031 10.949 1.284
10.046 10.942 1.272
10.026 10.95 1.253
10.033 10.946 1.24
10.03 10.947 1.225
10.087 10.925 1.221
10.135 10.907 1.215
10.428 10.781 0.74400002
10.434 10.778 0.72899997
10.428 10.78 0.713
10.439 10.775 0.699
10.408 10.786 0.68000001
10.414 10.784 0.66500002
10.414 10.783 0.64999998
10.42 10.78 0.63499999
10.43 10.776 0.62099999
10.41 10.783 0.60399997
10.422 10.778 0.58999997
10.43 10.775 0.57499999
10.412 10.78 0.55800003
10.399 10.785 0.54100001
10.405 10.782 0.52700001
10.425 10.774 0.51300001
10.439 10.768 0.49900001
10.423 10.774 0.48300001
10.452 10.763 0.47
10.453 10.762 0.45500001
10.477 10.752 0.442
10.484 10.749 0.42699999
10.499 10.743 0.41299999
10.515 10.736 0.39899999
10.524 10.732 0.384
10.534 10.728 0.36899999
10.544 10.724 0.354
10.564 10.716 0.34099999
10.56 10.717 0.32499999
10.583 10.708 0.31099999
10.593 10.704 0.296
10.608 10.698 0.28099999
10.632 10.688 0.26699999
10.637 10.686 0.252
10.653 10.68 0.23800001
10.196 10.848 0.19400001
10.215 10.841 0.18000001
10.207 10.843 0.16500001
10.192 10.848 0.149
10.204 10.843 0.13500001
10.174 10.854 0.119
10.161 10.858 0.104
10.151 10.861 0.088
10.16 10.858 0.074000001
10.16 10.857 0.059
10.162 10.856 0.045000002
10.155 10.858 0.029999999
10.122 10.869 0.014
9.9689999 11.042 2.846
9.9180002 11.06 2.809
9.9049997 11.063 2.7880001
9.9060001 11.063 2.7720001
9.9060001 11.062 2.756
9.8990002 11.064 2.737
9.9029999 11.062 2.7219999
9.8950005 11.064 2.7030001
9.9169998 11.056 2.6960001
9.8990002 11.062 2.6730001
9.9169998 11.055 2.664
9.9049997 11.059 2.6429999
9.9049997 11.058 2.628
9.9090004 11.056 2.6129999
9.9049997 11.057 2.596
9.9099998 11.055 2.582
9.9130001 11.053 2.5669999
9.9099998 11.054 2.55
9.9090004 11.053 2.5339999
9.9189997 11.049 2.5220001
9.9029999 11.054 2.5
9.908 11.052 2.4860001
9.908 11.052 2.47
10.083 10.948 1.3839999
10.062 10.956 1.364
10.048 10.96 1.346
10.037 10.964 1.329
10.035 10.964 1.313
10.033 10.964 1.298
10.041 10.961 1.285
10.043 10.959 1.27
10.016 10.969 1.25
10.028 10.963 1.238
10.045 10.957 1.226
10.078 10.945 1.217
10.134 10.923 1.2130001
10.449 10.788 0.68400002
10.469 10.78 0.671
10.458 10.783 0.65399998
10.467 10.78 0.63999999
10.471 10.778 0.625
10.463 10.78 0.60799998
10.462 10.78 0.59299999
10.477 10.774 0.579
10.448 10.784 0.56099999
10.456 10.78 0.546
10.457 10.779 0.53100002
10.463 10.777 0.51599997
10.483 10.769 0.50300002
10.465 10.775 0.486
10.458 10.777 0.46900001
10.459 10.776 0.454
10.486 10.765 0.44100001
10.485 10.766 0.426
10.489 10.763 0.41100001
10.511 10.755 0.39700001
10.525 10.749 0.38299999
10.531 10.746 0.368
10.537 10.743 0.35299999
10.537 10.743 0.338
10.58 10.727 0.32499999
10.58 10.726 0.31
10.59 10.722 0.29499999
10.6 10.717 0.28
10.61 10.713 0.26499999
10.624 10.707 0.25
10.658 10.695 0.237
10.659 10.693 0.221
10.664 10.691 0.206
10.674 10.687 0.191
10.696 10.678 0.176
10.708 10.673 0.161
10.746 10.658 0.148
10.758 10.653 0.132
10.778 10.646 0.117
10.8 10.637 0.103
10.781 10.643 0.086000003
10.803 10.634 0.071000002
9.96 11.062 2.8729999
9.934 11.07 2.846
9.9189997 11.075 2.823
9.9099998 11.078 2.803
9.915 11.075 2.789
9.8979998 11.081 2.767
9.9110003 11.076 2.756
9.9040003 11.078 2.737
9.9209995 11.071 2.727
9.8990002 11.078 2.7030001
9.9040003 11.076 2.6889999
9.9130001 11.072 2.6760001
9.9099998 11.073 2.6589999
9.9090004 11.072 2.6429999
9.9060001 11.073 2.625
9.9060001 11.072 2.6099999
9.9139996 11.069 2.5969999
9.9040003 11.072 2.5769999
9.8950005 11.075 2.5580001
9.9049997 11.071 2.546
9.8920002 11.074 2.5250001
9.8870001 11.076 2.5079999
9.8990002 11.071 2.4960001
9.908 11.067 2.484
9.9169998 11.063 2.471
10.076 10.967 1.381
10.056 10.973 1.3609999
10.04 10.979 1.3430001
10.038 10.979 1.327
10.045 10.976 1.314
10.042 10.976 1.299
10.031 10.98 1.281
10.033 10.978 1.267
10.013 10.985 1.248
10.038 10.975 1.238
10.026 10.979 1.221
10.098 10.953 1.22
10.157 10.931 1.216
10.487 10.789 0.64099997
10.513 10.779 0.62800002
10.502 10.782 0.611
10.503 10.781 0.59600002
10.516 10.776 0.58200002
10.492 10.784 0.56400001
10.507 10.778 0.55000001
10.494 10.782 0.53399998
10.516 10.774 0.51999998
10.508 10.776 0.50400001
10.509 10.775 0.48899999
10.52 10.771 0.47400001
10.502 10.777 0.45699999
10.517 10.771 0.44299999
10.504 10.775 0.42699999
10.514 10.77 0.412
10.525 10.766 0.39700001
10.517 10.768 0.38100001
10.549 10.756 0.36899999
10.555 10.753 0.35299999
10.551 10.754 0.338
10.576 10.745 0.324
10.577 10.744 0.30899999
10.581 10.741 0.29300001
10.606 10.732 0.28
10.62 10.726 0.26499999
10.644 10.717 0.25099999
10.626 10.723 0.234
10.645 10.715 0.22
10.67 10.706 0.206
10.695 10.696 0.191
10.701 10.693 0.176
10.713 10.688 0.161
10.725 10.683 0.146
10.738 10.678 0.131
10.753 10.672 0.116
10.77 10.665 0.101
10.799 10.654 0.086000003
10.827 10.643 0.071000002
10.836 10.639 0.056000002
10.825 10.642 0.039000001
10.835 10.638 0.024
9.9589996 11.078 2.902
9.96 11.078 2.8859999
9.9230003 11.09 2.855
9.9130001 11.093 2.8340001
9.8920002 11.1 2.8099999
9.8940001 11.099 2.7939999
9.8979998 11.097 2.78
9.9029999 11.095 2.766
9.9029999 11.094 2.75
9.9029999 11.093 2.734
9.908 11.091 2.72
9.9040003 11.092 2.7019999
9.9189997 11.086 2.6919999
9.9090004 11.089 2.6719999
9.9090004 11.088 2.6559999
9.9099998 11.088 2.6400001
9.9049997 11.089 2.6229999
9.9099998 11.086 2.609
9.9049997 11.088 2.5910001
9.901 11.089 2.573
9.9099998 11.085 2.5610001
9.8999996 11.088 2.5420001
9.9130001 11.083 2.5309999
9.901 11.086 2.51
9.8950005 11.088 2.493
9.9219999 11.078 2.487
9.9239998 11.077 2.471
10.09 10.977 1.382
10.058 10.988 1.36
10.031 10.997 1.339
10.052 10.989 1.329
10.04 10.993 1.312
10.034 10.995 1.295
10.045 10.99 1.283
10.038 10.992 1.266
10.026 10.996 1.249
10.034 10.992 1.2359999
10.046 10.988 1.223
10.106 10.965 1.22
10.159 10.946 1.215
10.526 10.789 0.597
10.542 10.783 0.58399999
10.538 10.784 0.56800002
10.553 10.778 0.55400002
10.546 10.78 0.53799999
10.544 10.78 0.52200001
10.534 10.783 0.505
10.554 10.775 0.49200001
10.539 10.78 0.47499999
10.548 10.776 0.46000001
10.53 10.782 0.44299999
10.542 10.777 0.42899999
10.534 10.78 0.41299999
10.557 10.771 0.39899999
10.55 10.773 0.38299999
10.555 10.77 0.368
10.569 10.765 0.354
10.57 10.764 0.338
10.58 10.759 0.324
10.577 10.76 0.308
10.583 10.757 0.29300001
10.612 10.747 0.27900001
10.631 10.739 0.26499999
10.641 10.735 0.25
10.642 10.734 0.234
10.656 10.728 0.22
10.671 10.722 0.205
10.694 10.713 0.19
10.691 10.714 0.175
10.711 10.706 0.16
10.729 10.699 0.145
10.74 10.694 0.13
10.749 10.69 0.115
10.773 10.681 0.1
10.792 10.673 0.085000001
10.807 10.668 0.07
10.807 10.667 0.054000001
10.833 10.657 0.039000001
10.865 10.644 0.024
10.893 10.634 0.0089999996
9.941 11.101 2.908
9.927 11.105 2.8859999
9.9169998 11.108 2.8659999
9.901 11.113 2.8429999
9.9060001 11.111 2.829
9.9020004 11.112 2.8110001
9.9119997 11.108 2.799
9.9119997 11.107 2.783
9.8979998 11.112 2.7609999
9.9130001 11.106 2.7509999
9.8950005 11.112 2.7279999
9.9040003 11.108 2.7160001
9.8959999 11.11 2.697
9.8970003 11.109 2.681
9.901 11.107 2.6670001
9.9110003 11.103 2.655
9.9060001 11.105 2.6370001
9.9099998 11.103 2.622
9.9020004 11.105 2.6029999
9.9200001 11.098 2.5940001
9.9060001 11.102 2.573
9.901 11.103 2.556
9.9090004 11.1 2.543
9.9060001 11.101 2.526
9.9180002 11.096 2.5139999
9.9099998 11.098 2.4960001
9.9429998 11.086 2.4920001
9.9650002 11.077 2.484
10.086 10.994 1.38
10.055 11.005 1.358
10.054 11.005 1.3430001
10.048 11.007 1.326
10.046 11.007 1.311
10.043 11.007 1.296
10.028 11.012 1.278
10.034 11.009 1.2640001
10.027 11.011 1.248
10.033 11.008 1.234
10.046 11.003 1.222
10.104 10.982 1.2180001
10.148 10.966 1.211
10.593 10.78 0.54100001
10.59 10.78 0.52499998
10.585 10.781 0.509
10.586 10.78 0.49399999
10.576 10.783 0.477
10.589 10.778 0.463
10.572 10.784 0.44600001
10.595 10.775 0.433
10.58 10.78 0.41600001
10.591 10.775 0.40099999
10.601 10.771 0.38600001
10.593 10.774 0.37
10.584 10.776 0.354
10.59 10.774 0.33899999
10.591 10.773 0.32300001
10.591 10.772 0.308
10.607 10.765 0.29300001
10.616 10.762 0.27900001
10.628 10.757 0.264
10.642 10.751 0.249
10.648 10.749 0.234
10.648 10.748 0.21799999
10.681 10.736 0.205
10.678 10.736 0.189
10.696 10.729 0.17399999
10.716 10.721 0.15899999
10.736 10.714 0.145
10.74 10.711 0.12899999
10.756 10.705 0.114
10.766 10.701 0.098999999
10.775 10.697 0.082999997
10.794 10.69 0.068000004
10.817 10.681 0.052999999
10.818 10.68 0.037999999
10.842 10.67 0.022
10.829 10.675 0.0060000001
9.96 11.112 2.9460001
9.948 11.115 2.925
9.9119997 11.127 2.8940001
9.908 11.128 2.8759999
9.901 11.13 2.8570001
9.9060001 11.128 2.8429999
9.915 11.124 2.8299999
9.8990002 11.129 2.8080001
9.8940001 11.13 2.79
9.9130001 11.123 2.7809999
9.9090004 11.124 2.763
9.8999996 11.126 2.744
9.9060001 11.124 2.73
9.9230003 11.117 2.721
9.901 11.124 2.6960001
9.8979998 11.125 2.6789999
9.9020004 11.123 2.664
9.9060001 11.121 2.6500001
9.9110003 11.118 2.6359999
9.9160004 11.116 2.622
9.8929996 11.124 2.5969999
9.9060001 11.118 2.5869999
9.9110003 11.116 2.573
9.9029999 11.118 2.5539999
9.9110003 11.115 2.5409999
9.9099998 11.115 2.5250001
9.9440002 11.102 2.5209999
9.9569998 11.097 2.5109999
9.9879999 11.086 2.506
10.004 11.079 2.4960001
10.084 11.011 1.378
10.057 11.02 1.357
10.05 11.022 1.34
10.053 11.021 1.326
10.046 11.023 1.3099999
10.035 11.026 1.2920001
10.042 11.023 1.279
10.044 11.022 1.265
10.036 11.024 1.248
10.02 11.029 1.23
10.061 11.014 1.223
10.114 10.995 1.2180001
10.175 10.972 1.215
10.634 10.78 0.49700001
10.632 10.781 0.48199999
10.65 10.773 0.46799999
10.647 10.774 0.45199999
10.632 10.779 0.435
10.639 10.776 0.41999999
10.641 10.774 0.40400001
10.633 10.777 0.38800001
10.634 10.776 0.37200001
10.637 10.774 0.35699999
10.647 10.77 0.34200001
10.634 10.774 0.32600001
10.634 10.774 0.31
10.645 10.769 0.29499999
10.645 10.768 0.28
10.642 10.769 0.264
10.633 10.772 0.248
10.657 10.763 0.234
10.672 10.757 0.219
10.682 10.753 0.204
10.678 10.753 0.18799999
10.707 10.742 0.17399999
10.721 10.737 0.15899999
10.73 10.733 0.14399999
10.746 10.727 0.12899999
10.76 10.721 0.114
10.756 10.722 0.097999997
10.799 10.706 0.083999999
10.799 10.705 0.068000004
10.804 10.703 0.052000001
10.828 10.693 0.037
10.833 10.691 0.021
10.853 10.683 0.0060000001
9.9940004 11.116 2.9909999
9.9560003 11.129 2.9590001
9.9209995 11.14 2.928
9.9069996 11.145 2.9059999
9.9029999 11.145 2.888
9.9219999 11.138 2.8789999
9.9180002 11.139 2.8610001
9.9099998 11.141 2.842
9.8979998 11.145 2.8210001
9.9029999 11.143 2.8069999
9.8990002 11.143 2.789
9.9049997 11.141 2.7750001
9.9049997 11.14 2.7590001
9.915 11.136 2.747
9.915 11.136 2.7309999
9.9099998 11.137 2.7130001
9.9160004 11.134 2.6989999
9.915 11.134 2.6830001
9.9020004 11.138 2.6619999
9.8920002 11.141 2.6429999
9.9020004 11.137 2.631
9.9020004 11.136 2.6140001
9.8970003 11.137 2.5969999
9.9200001 11.129 2.5899999
9.9099998 11.132 2.5699999
9.9250002 11.126 2.5599999
9.9440002 11.119 2.5510001
9.9390001 11.12 2.533
9.9790001 11.105 2.5320001
9.9919996 11.1 2.5209999
10.027 11.087 2.5179999
10.075 11.03 1.374
10.05 11.038 1.354
10.046 11.039 1.3380001
10.049 11.038 1.324
10.051 11.036 1.309
10.04 11.04 1.2920001
10.032 11.042 1.276
10.039 11.039 1.262
10.021 11.045 1.244
10.042 11.037 1.233
10.061 11.03 1.222
10.122 11.008 1.2180001
10.172 10.989 1.2130001
10.678 10.779 0.43799999
10.69 10.774 0.42300001
10.655 10.786 0.40400001
10.687 10.774 0.391
10.677 10.777 0.375
10.67 10.779 0.359
10.68 10.775 0.34400001
10.681 10.774 0.32800001
10.682 10.773 0.31299999
10.667 10.778 0.296
10.674 10.775 0.28099999
10.7 10.765 0.26699999
10.69 10.768 0.25
10.674 10.773 0.234
10.672 10.773 0.21799999
10.673 10.772 0.20200001
10.693 10.764 0.18799999
10.708 10.759 0.17299999
10.723 10.753 0.15800001
10.723 10.752 0.142
10.751 10.741 0.12800001
10.752 10.741 0.112
10.777 10.731 0.097999997
10.776 10.731 0.082000002
10.795 10.723 0.067000002
10.796 10.723 0.050999999
10.835 10.708 0.037
10.844 10.704 0.021
10.853 10.7 0.0060000001
9.9449997 11.148 2.9679999
9.9020004 11.163 2.9330001
9.8979998 11.163 2.9159999
9.9029999 11.161 2.901
9.9130001 11.157 2.8889999
9.9139996 11.156 2.8740001
9.9060001 11.158 2.8540001
9.9160004 11.154 2.842
9.9029999 11.158 2.8199999
9.9029999 11.158 2.8039999
9.8959999 11.16 2.7850001
9.8959999 11.159 2.7690001
9.9139996 11.152 2.76
9.9090004 11.153 2.7420001
9.9099998 11.152 2.727
9.9060001 11.153 2.7090001
9.9069996 11.152 2.694
9.915 11.149 2.681
9.8839998 11.159 2.6530001
9.8970003 11.154 2.642
9.9029999 11.151 2.628
9.8929996 11.154 2.609
9.9099998 11.148 2.5999999
9.8929996 11.153 2.5769999
9.9259996 11.141 2.5739999
9.9440002 11.135 2.5639999
9.9700003 11.125 2.5580001
9.9879999 11.118 2.549
10.018 11.108 2.5439999
10.026 11.104 2.5309999
10.071 11.047 1.372
10.048 11.054 1.352
10.032 11.06 1.334
10.049 11.053 1.322
10.05 11.052 1.307
10.049 11.052 1.2920001
10.037 11.056 1.275
10.03 11.058 1.2589999
10.023 11.06 1.243
10.035 11.055 1.23
10.051 11.049 1.2180001
10.11 11.027 1.215
10.177 11.003 1.2130001
10.723 10.777 0.37799999
10.719 10.778 0.361
10.742 10.769 0.34799999
10.734 10.772 0.331
10.733 10.772 0.315
10.726 10.774 0.29899999
10.727 10.773 0.28299999
10.727 10.772 0.26800001
10.724 10.772 0.252
10.729 10.77 0.236
10.739 10.766 0.221
10.726 10.77 0.205
10.745 10.763 0.19
10.745 10.762 0.17399999
10.746 10.761 0.15899999
10.732 10.765 0.142
10.748 10.759 0.127
10.762 10.754 0.112
10.772 10.75 0.097000003
10.763 10.752 0.081
10.802 10.738 0.066
10.816 10.732 0.050999999
10.826 10.728 0.035999998
10.836 10.724 0.02
10.849 10.719 0.0049999999
9.9090004 11.176 2.967
9.9060001 11.177 2.9489999
9.9110003 11.175 2.9349999
9.8990002 11.178 2.914
9.9119997 11.173 2.9030001
9.901 11.176 2.882
9.9060001 11.174 2.868
9.9069996 11.173 2.852
9.8940001 11.177 2.8299999
9.8990002 11.175 2.816
9.9040003 11.173 2.802
9.9130001 11.169 2.79
9.8920002 11.175 2.766
9.901 11.172 2.753
9.9139996 11.167 2.7420001
9.9020004 11.17 2.7219999
9.9110003 11.167 2.7090001
9.9020004 11.169 2.6900001
9.908 11.167 2.6760001
9.9119997 11.165 2.661
9.9020004 11.167 2.642
9.9200001 11.161 2.6329999
9.927 11.158 2.6199999
9.9209995 11.159 2.6010001
9.9490004 11.149 2.596
9.9799995 11.138 2.592
9.9940004 11.132 2.5810001
10.009 11.127 2.5710001
10.012 11.125 2.556
