ply
format ascii 1.0
comment PCL generated
element vertex 1874
property float x
property float y
property float z
element camera 0
property float view_px
property float view_py
property float view_pz
property float x_axisx
property float x_axisy
property float x_axisz
property float y_axisx
property float y_axisy
property float y_axisz
property float z_axisx
property float z_axisy
property float z_axisz
property float focal
property float scalex
property float scaley
property float centerx
property float centery
property int viewportx
property int viewporty
property float k1
property float k2
end_header
-26.969999 10.308 1.202
-26.983 10.308 1.187
-26.974001 10.307 1.169
-26.966999 10.307 1.151
-26.962 10.307 1.1339999
-26.979 10.307 1.12
-26.974001 10.307 1.102
-26.976999 10.306 1.086
-26.986 10.307 1.071
-26.976999 10.306 1.053
-26.959999 10.305 1.034
-26.955999 10.305 1.017
-26.969 10.305 1.002
-26.969999 10.305 0.986
-26.978001 10.305 0.97000003
-26.982 10.305 0.954
-26.979 10.305 0.93699998
-26.979 10.305 0.921
-26.99 10.305 0.90499997
-26.973 10.302 0.68900001
-26.969 10.301 0.67199999
-26.981001 10.302 0.65700001
-26.986 10.302 0.64099997
-26.983999 10.301 0.62400001
-27 10.302 0.60900003
-27.002001 10.301 0.59299999
-27.007999 10.302 0.57700002
-27 10.301 0.56
-27.021 10.302 0.54500002
-27.018 10.301 0.528
-27.004 10.301 0.51099998
-27.031 10.301 0.49700001
-27.038 10.301 0.48100001
-27.038 10.301 0.46399999
-27.039 10.301 0.44800001
-27.055 10.301 0.433
-27.052 10.301 0.41600001
-27.068001 10.301 0.40000001
-27.069 10.301 0.384
-27.076 10.301 0.368
-27.066 10.301 0.35100001
-27.077 10.301 0.33500001
-27.079 10.301 0.31799999
-27.08 10.301 0.30199999
-27.096001 10.301 0.28600001
-27.091 10.301 0.27000001
-27.113001 10.301 0.25400001
-27.098 10.301 0.237
-27.124001 10.301 0.222
-27.115999 10.301 0.205
-27.129999 10.301 0.189
-27.136 10.301 0.17200001
-27.132 10.301 0.156
-27.124001 10.3 0.139
-27.143 10.301 0.123
-27.143999 10.301 0.106
-27.139999 10.3 0.090000004
-27.159 10.301 0.074000001
-27.150999 10.3 0.057
-27.166 10.301 0.041000001
-27.167 10.3 0.024
-26.534 10.299 2.9760001
-26.540001 10.299 2.961
-26.535999 10.298 2.9419999
-26.546 10.299 2.928
-26.556 10.299 2.914
-26.552 10.298 2.895
-26.563 10.298 2.882
-26.568001 10.298 2.8659999
-26.577 10.299 2.8510001
-26.589001 10.299 2.8380001
-26.59 10.299 2.8210001
-26.586 10.298 2.802
-26.605 10.299 2.7909999
-26.601999 10.298 2.773
-26.611 10.298 2.7579999
-26.606001 10.298 2.74
-26.617001 10.298 2.7260001
-26.617001 10.298 2.7079999
-26.631001 10.298 2.6960001
-26.646 10.299 2.6830001
-26.642 10.298 2.664
-26.646999 10.298 2.6489999
-26.642 10.298 2.6300001
-26.632 10.297 2.609
-26.649 10.298 2.5969999
-26.662001 10.298 2.5840001
-26.662001 10.298 2.5669999
-26.677 10.298 2.5539999
-26.683001 10.298 2.539
-26.687 10.298 2.523
-26.687 10.298 2.506
-26.691 10.298 2.49
-26.695999 10.298 2.474
-26.694 10.297 2.4560001
-26.714001 10.298 2.4449999
-26.726 10.298 2.431
-26.714001 10.298 2.4100001
-26.725 10.298 2.3959999
-26.719 10.297 2.3770001
-26.739 10.298 2.3659999
-26.719 10.297 2.3429999
-26.738001 10.297 2.3310001
-26.743 10.297 2.316
-26.752001 10.297 2.3010001
-26.756001 10.297 2.2850001
-26.761 10.297 2.2690001
-26.781 10.298 2.2579999
-26.764999 10.297 2.2360001
-26.775 10.297 2.2219999
-26.788 10.297 2.2079999
-26.797001 10.298 2.194
-26.806 10.298 2.1789999
-26.815001 10.298 2.164
-26.813 10.297 2.1459999
-26.809 10.297 2.128
-26.818001 10.297 2.1140001
-26.844 10.297 2.1029999
-26.837 10.297 2.0840001
-26.841 10.297 2.0680001
-26.839001 10.297 2.0510001
-26.829 10.296 2.0309999
-26.865 10.297 2.023
-26.851 10.297 2.003
-26.849001 10.296 1.985
-26.868 10.297 1.973
-26.868 10.297 1.956
-26.886 10.297 1.943
-26.881001 10.297 1.925
-26.882999 10.296 1.908
-26.898001 10.297 1.895
-26.891001 10.296 1.876
-26.895 10.296 1.86
-26.898001 10.296 1.844
-26.907 10.296 1.829
-26.916 10.296 1.814
-26.919001 10.296 1.7970001
-26.917999 10.296 1.78
-26.931 10.296 1.766
-26.944 10.297 1.752
-26.943001 10.296 1.735
-26.957001 10.297 1.721
-26.945 10.296 1.701
-26.948 10.296 1.6849999
-26.952 10.296 1.669
-26.965 10.296 1.654
-26.962999 10.296 1.637
-26.972 10.296 1.622
-26.965 10.295 1.604
-26.962999 10.295 1.586
-26.973 10.295 1.571
-26.957001 10.295 1.551
-26.993 10.296 1.541
-26.976999 10.295 1.522
-26.972 10.295 1.5039999
-26.959 10.294 1.484
-26.950001 10.294 1.466
-26.948 10.293 1.449
-26.962 10.294 1.4349999
-26.955 10.293 1.4170001
-26.948999 10.293 1.399
-26.940001 10.292 1.38
-26.969999 10.293 1.369
-26.947001 10.292 1.348
-26.934999 10.292 1.329
-26.957001 10.292 1.317
-26.950001 10.292 1.299
-26.948 10.291 1.2819999
-26.950001 10.291 1.265
-26.954 10.291 1.249
-26.945999 10.291 1.2309999
-26.958 10.291 1.216
-26.945 10.29 1.198
-26.952 10.29 1.182
-26.952 10.29 1.166
-26.948999 10.29 1.149
-26.945 10.29 1.131
-26.938999 10.289 1.114
-26.945999 10.289 1.098
-26.948999 10.289 1.082
-26.941 10.289 1.0650001
-26.943001 10.289 1.048
-26.934 10.288 1.03
-26.962 10.289 1.018
-26.962 10.289 1.001
-26.955999 10.288 0.98400003
-26.940001 10.287 0.96499997
-26.941999 10.287 0.949
-26.941999 10.287 0.93300003
-26.934999 10.287 0.91500002
-26.948 10.287 0.89999998
-26.933001 10.286 0.88200003
-26.514999 10.271 0.64300001
-26.979 10.285 0.67299998
-26.995001 10.286 0.65799999
-26.983 10.285 0.64099997
-26.993999 10.285 0.625
-27.017 10.286 0.611
-26.987 10.285 0.59200001
-27.004 10.285 0.57700002
-27.021 10.285 0.56199998
-27.028 10.285 0.546
-27.024 10.285 0.52899998
-27.025999 10.285 0.51300001
-27.035999 10.285 0.49700001
-27.042 10.285 0.48100001
-27.042999 10.285 0.465
-27.049999 10.285 0.449
-27.052 10.285 0.43200001
-27.052999 10.285 0.41600001
-27.054001 10.285 0.40000001
-27.065001 10.285 0.384
-27.082001 10.285 0.368
-27.083 10.285 0.352
-27.104 10.285 0.33700001
-27.08 10.284 0.31900001
-27.1 10.285 0.303
-27.086 10.284 0.28600001
-27.108 10.285 0.271
-27.118999 10.285 0.255
-27.128 10.285 0.23899999
-27.132999 10.285 0.222
-27.121 10.284 0.205
-27.135 10.285 0.189
-27.127001 10.284 0.17200001
-27.142 10.284 0.156
-27.136999 10.284 0.14
-27.153 10.284 0.124
-27.149 10.284 0.107
-27.17 10.285 0.090999998
-27.166 10.284 0.074000001
-27.171 10.284 0.057999998
-27.172001 10.284 0.041000001
-27.181999 10.284 0.025
-26.544001 10.283 2.98
-26.541 10.283 2.961
-26.542 10.283 2.944
-26.556999 10.283 2.9319999
-26.570999 10.283 2.9200001
-26.577 10.283 2.904
-26.576 10.283 2.8859999
-26.577999 10.283 2.869
-26.589001 10.283 2.8559999
-26.58 10.283 2.835
-26.599001 10.283 2.8239999
-26.594999 10.283 2.8050001
-26.617001 10.283 2.796
-26.610001 10.283 2.776
-26.611 10.283 2.7590001
-26.631001 10.283 2.7479999
-26.617001 10.283 2.7260001
-26.641001 10.283 2.7160001
-26.636999 10.283 2.697
-26.642 10.283 2.6819999
-26.642 10.282 2.665
-26.662001 10.283 2.6530001
-26.663 10.282 2.6370001
-26.667 10.282 2.6199999
-26.666 10.282 2.6029999
-26.667 10.282 2.586
-26.667999 10.282 2.569
-26.695999 10.282 2.5599999
-26.676001 10.282 2.5369999
-26.691999 10.282 2.5239999
-26.701 10.282 2.51
-26.697001 10.282 2.4909999
-26.705999 10.282 2.477
-26.716 10.282 2.4630001
-26.715 10.282 2.4449999
-26.721001 10.282 2.4300001
-26.725 10.282 2.414
-26.735001 10.282 2.3989999
-26.747999 10.282 2.3859999
-26.75 10.282 2.369
-26.752001 10.282 2.3529999
-26.757999 10.282 2.3369999
-26.757999 10.281 2.3199999
-26.771999 10.282 2.3069999
-26.757 10.281 2.2850001
-26.781 10.282 2.2750001
-26.775 10.281 2.256
-26.785 10.281 2.2420001
-26.789 10.281 2.2260001
-26.792999 10.281 2.21
-26.806999 10.281 2.1960001
-26.806999 10.281 2.1789999
-26.796 10.281 2.1589999
-26.833 10.282 2.152
-26.827 10.281 2.1329999
-26.827999 10.281 2.1159999
-26.846001 10.281 2.1040001
-26.844999 10.281 2.0869999
-26.841999 10.281 2.0680001
-26.844999 10.281 2.052
-26.862 10.281 2.04
-26.865999 10.281 2.023
-26.870001 10.281 2.007
-26.865999 10.281 1.989
-26.879 10.281 1.975
-26.864 10.28 1.955
-26.882 10.281 1.942
-26.9 10.281 1.929
-26.899 10.281 1.9119999
-26.907 10.281 1.897
-26.900999 10.28 1.878
-26.92 10.281 1.8660001
-26.903999 10.28 1.845
-26.917 10.28 1.831
-26.931 10.281 1.817
-26.924 10.28 1.799
-26.933001 10.28 1.784
-26.936001 10.28 1.767
-26.945 10.28 1.752
-26.962999 10.281 1.739
-26.947001 10.28 1.719
-26.962999 10.28 1.705
-26.964001 10.28 1.688
-26.947001 10.279 1.668
-26.941 10.279 1.65
-26.941999 10.279 1.633
-26.929001 10.278 1.613
-26.927 10.278 1.596
-26.934999 10.278 1.581
-26.927999 10.277 1.563
-26.934 10.277 1.5470001
-26.927999 10.277 1.529
-26.934999 10.277 1.5140001
-26.931 10.277 1.4960001
-26.923 10.276 1.478
-26.917999 10.276 1.46
-26.941 10.276 1.448
-26.915001 10.275 1.426
-26.924999 10.276 1.411
-26.93 10.275 1.395
-26.931999 10.275 1.3789999
-26.931 10.275 1.362
-26.931 10.275 1.345
-26.938 10.275 1.33
-26.921 10.274 1.311
-26.941999 10.275 1.2970001
-26.933001 10.274 1.279
-26.916 10.274 1.26
-26.917999 10.274 1.244
-26.924999 10.274 1.228
-26.931 10.274 1.212
-26.931999 10.273 1.196
-26.924999 10.273 1.178
-26.922001 10.273 1.161
-26.924 10.273 1.145
-26.921 10.272 1.128
-26.93 10.272 1.113
-26.924 10.272 1.095
-26.937 10.272 1.081
-26.931 10.272 1.063
-26.919001 10.271 1.045
-26.908001 10.271 1.027
-26.919001 10.271 1.012
-26.921 10.271 0.99599999
-26.926001 10.271 0.98000002
-26.924999 10.271 0.963
-26.927 10.271 0.94700003
-26.915001 10.27 0.92900002
-26.917 10.27 0.91299999
-26.915001 10.27 0.89600003
-26.922001 10.27 0.88099998
-26.929001 10.27 0.86500001
-27.007 10.27 0.66000003
-27.007999 10.269 0.64300001
-27.01 10.269 0.62699997
-27.027 10.269 0.61199999
-27.018999 10.269 0.59500003
-27.018999 10.269 0.57800001
-27.031 10.269 0.56300002
-27.033001 10.269 0.54699999
-27.034 10.269 0.52999997
-27.035999 10.268 0.514
-27.046 10.269 0.498
-27.044001 10.268 0.48100001
-27.055 10.268 0.46599999
-27.066 10.269 0.44999999
-27.062 10.268 0.433
-27.077999 10.268 0.41800001
-27.09 10.269 0.40200001
-27.094999 10.269 0.38600001
-27.091999 10.268 0.36899999
-27.107 10.269 0.354
-27.108999 10.268 0.33700001
-27.09 10.268 0.31999999
-27.096001 10.268 0.303
-27.111 10.268 0.28799999
-27.118 10.268 0.271
-27.114 10.268 0.255
-27.115 10.268 0.23800001
-27.129999 10.268 0.222
-27.131001 10.268 0.206
-27.136 10.268 0.189
-27.146999 10.268 0.17299999
-27.153 10.268 0.15700001
-27.149 10.267 0.14
-27.153999 10.267 0.124
-27.15 10.267 0.107
-27.160999 10.267 0.090999998
-27.171 10.267 0.075000003
-27.177 10.267 0.057999998
-27.172001 10.267 0.041000001
-27.191999 10.267 0.025
-26.559 10.268 2.9679999
-26.556 10.268 2.9489999
-26.572001 10.268 2.937
-26.566999 10.268 2.918
-26.591999 10.268 2.9089999
-26.591999 10.268 2.892
-26.597 10.268 2.8759999
-26.598 10.268 2.859
-26.622 10.268 2.8499999
-26.604 10.268 2.826
-26.628 10.268 2.8169999
-26.618 10.268 2.796
-26.625 10.268 2.7809999
-26.625999 10.267 2.7639999
-26.643 10.268 2.7520001
-26.639999 10.268 2.733
-26.627001 10.267 2.7119999
-26.642 10.267 2.6989999
-26.660999 10.268 2.688
-26.662001 10.267 2.671
-26.667 10.267 2.655
-26.673 10.267 2.6400001
-26.684999 10.267 2.6259999
-26.672001 10.267 2.605
-26.684999 10.267 2.592
-26.684 10.266 2.5739999
-26.695999 10.267 2.5599999
-26.702 10.267 2.5450001
-26.697001 10.266 2.526
-26.702999 10.266 2.5109999
-26.702 10.266 2.493
-26.716 10.266 2.48
-26.722 10.266 2.4649999
-26.735001 10.266 2.451
-26.743999 10.266 2.437
-26.735001 10.266 2.4170001
-26.750999 10.266 2.404
-26.754 10.266 2.388
-26.761 10.266 2.372
-26.763 10.266 2.3559999
-26.767 10.266 2.3399999
-26.768 10.266 2.323
-26.788 10.266 2.312
-26.790001 10.266 2.2950001
-26.781 10.266 2.2750001
-26.794001 10.266 2.2609999
-26.790001 10.265 2.243
-26.794001 10.265 2.227
-26.799 10.265 2.211
-26.798 10.265 2.194
-26.802 10.265 2.178
-26.812 10.265 2.164
-26.853001 10.266 2.1570001
-26.848 10.266 2.1389999
-26.846001 10.266 2.1210001
-26.841 10.265 2.1029999
-26.846001 10.265 2.0869999
-26.853001 10.265 2.0710001
-26.849001 10.265 2.053
-26.862 10.265 2.039
-26.872 10.265 2.0250001
-26.864 10.265 2.006
-26.871 10.265 1.9910001
-26.879999 10.265 1.976
-26.886999 10.265 1.96
-26.886 10.265 1.943
-26.905001 10.265 1.9299999
-26.889999 10.264 1.91
-26.889 10.264 1.893
-26.906 10.264 1.88
-26.910999 10.264 1.864
-26.924 10.264 1.85
-26.924999 10.264 1.8329999
-26.917999 10.264 1.814
-26.93 10.264 1.8
-26.924 10.263 1.7819999
-26.922001 10.263 1.7640001
-26.93 10.263 1.749
-26.91 10.262 1.728
-26.899 10.262 1.709
-26.902 10.262 1.692
-26.913 10.262 1.678
-26.91 10.262 1.66
-26.903 10.261 1.642
-26.908001 10.261 1.626
-26.905001 10.261 1.609
-26.906 10.261 1.592
-26.92 10.261 1.5779999
-26.909 10.261 1.559
-26.903999 10.26 1.541
-26.916 10.26 1.527
-26.907 10.26 1.5089999
-26.908001 10.26 1.492
-26.903999 10.259 1.474
-26.903999 10.259 1.4579999
-26.910999 10.259 1.442
-26.893999 10.259 1.423
-26.893999 10.258 1.406
-26.902 10.258 1.391
-26.907 10.258 1.375
-26.916 10.259 1.36
-26.907 10.258 1.342
-26.906 10.258 1.325
-26.903999 10.258 1.308
-26.896999 10.257 1.29
-26.905001 10.257 1.275
-26.902 10.257 1.258
-26.9 10.257 1.2410001
-26.900999 10.257 1.224
-26.900999 10.256 1.2079999
-26.893 10.256 1.1900001
-26.9 10.256 1.175
-26.9 10.256 1.158
-26.905001 10.256 1.142
-26.893 10.255 1.124
-26.895 10.255 1.108
-26.899 10.255 1.092
-26.900999 10.255 1.076
-26.893999 10.255 1.058
-26.915001 10.255 1.045
-26.898001 10.254 1.026
-26.9 10.254 1.01
-26.893 10.254 0.99199998
-26.899 10.254 0.977
-26.910999 10.254 0.96200001
-26.909 10.254 0.94499999
-26.926001 10.254 0.93099999
-26.927999 10.254 0.91500002
-26.92 10.254 0.89700001
-26.937 10.254 0.88300002
-26.938999 10.254 0.86699998
-26.945999 10.253 0.85100001
-27.002001 10.253 0.65899998
-27.014 10.253 0.64399999
-27.014999 10.253 0.62800002
-27.021999 10.253 0.61199999
-27.034 10.253 0.59600002
-27.031 10.253 0.57999998
-27.042 10.253 0.56400001
-27.033001 10.252 0.54699999
-27.045 10.252 0.53100002
-27.056 10.253 0.51599997
-27.058001 10.252 0.49900001
-27.059 10.252 0.48300001
-27.059999 10.252 0.46599999
-27.061001 10.252 0.44999999
-27.083 10.252 0.435
-27.084 10.252 0.419
-27.09 10.252 0.40200001
-27.076 10.252 0.38499999
-27.101999 10.252 0.37
-27.103001 10.252 0.354
-27.1 10.252 0.33700001
-27.120001 10.252 0.32100001
-27.112 10.252 0.30399999
-27.113001 10.251 0.28799999
-27.128 10.252 0.27200001
-27.132999 10.252 0.25600001
-27.124001 10.251 0.23899999
-27.139999 10.251 0.223
-27.141001 10.251 0.206
-27.162001 10.252 0.191
-27.163 10.252 0.17399999
-27.148001 10.251 0.15700001
-27.164 10.251 0.141
-27.16 10.251 0.124
-27.165001 10.251 0.108
-27.186001 10.251 0.092
-27.181999 10.251 0.075000003
-27.197001 10.251 0.059
-27.188 10.251 0.041999999
-27.208 10.251 0.026000001
-26.558001 10.252 2.9679999
-26.583 10.253 2.9590001
-26.579 10.252 2.9400001
-26.594999 10.252 2.928
-26.6 10.252 2.9119999
-26.587999 10.252 2.8900001
-26.598 10.252 2.8759999
-26.599001 10.252 2.859
-26.612 10.252 2.846
-26.614 10.252 2.8299999
-26.622999 10.252 2.8150001
-26.624001 10.252 2.7980001
-26.628 10.252 2.7820001
-26.643999 10.252 2.77
-26.665001 10.252 2.7590001
-26.65 10.252 2.737
-26.655001 10.252 2.721
-26.652 10.251 2.7030001
-26.662001 10.251 2.688
-26.671 10.251 2.674
-26.672001 10.251 2.6570001
-26.690001 10.252 2.645
-26.672001 10.251 2.622
-26.700001 10.251 2.6140001
-26.705 10.251 2.598
-26.691999 10.251 2.5769999
-26.695 10.251 2.5599999
-26.698 10.251 2.5439999
-26.702 10.251 2.5280001
-26.73 10.251 2.5190001
-26.726 10.251 2.5009999
-26.733 10.251 2.4849999
-26.735001 10.251 2.4690001
-26.747 10.251 2.4549999
-26.740999 10.25 2.4360001
-26.750999 10.25 2.421
-26.745001 10.25 2.4030001
-26.749001 10.25 2.3859999
-26.767 10.25 2.3740001
-26.794001 10.251 2.365
-26.771999 10.25 2.3410001
-26.785999 10.25 2.3280001
-26.787001 10.25 2.3110001
-26.785999 10.25 2.2939999
-26.805 10.25 2.2820001
-26.813999 10.25 2.267
-26.799 10.249 2.2460001
-26.813 10.249 2.2320001
-26.809 10.249 2.214
-26.816999 10.249 2.1989999
-26.836 10.249 2.187
-26.84 10.249 2.171
-26.862 10.25 2.1600001
-26.846001 10.249 2.138
-26.865 10.25 2.1259999
-26.861 10.249 2.108
-26.858999 10.249 2.0899999
-26.872 10.249 2.076
-26.874001 10.249 2.0599999
-26.868 10.249 2.0409999
-26.877001 10.249 2.026
-26.889999 10.249 2.0120001
-26.895 10.249 1.9960001
-26.893999 10.249 1.979
-26.902 10.249 1.964
-26.900999 10.248 1.947
-26.908001 10.248 1.931
-26.903999 10.248 1.913
-26.898001 10.248 1.895
-26.893 10.247 1.877
-26.896 10.247 1.86
-26.879999 10.247 1.84
-26.895 10.247 1.826
-26.889999 10.247 1.808
-26.888 10.246 1.791
-26.877001 10.246 1.772
-26.884001 10.246 1.756
-26.871 10.245 1.737
-26.882 10.245 1.722
-26.892 10.246 1.707
-26.878 10.245 1.687
-26.885 10.245 1.6720001
-26.879 10.245 1.654
-26.879999 10.244 1.637
-26.889999 10.245 1.623
-26.879999 10.244 1.604
-26.886999 10.244 1.589
-26.879999 10.244 1.5700001
-26.872999 10.243 1.552
-26.882999 10.243 1.5369999
-26.868 10.243 1.518
-26.881001 10.243 1.5039999
-26.872999 10.243 1.485
-26.884001 10.243 1.471
-26.881001 10.242 1.454
-26.882 10.242 1.437
-26.879 10.242 1.42
-26.882999 10.242 1.404
-26.875 10.242 1.386
-26.881001 10.242 1.37
-26.878 10.241 1.353
-26.884001 10.241 1.3380001
-26.882 10.241 1.321
-26.889 10.241 1.3049999
-26.881001 10.241 1.2869999
-26.875 10.24 1.27
-26.877001 10.24 1.2539999
-26.858 10.24 1.234
-26.888 10.24 1.222
-26.867001 10.239 1.2029999
-26.878 10.239 1.188
-26.877001 10.239 1.171
-26.875 10.239 1.154
-26.875999 10.239 1.138
-26.874001 10.239 1.1210001
-26.886 10.239 1.107
-26.889 10.239 1.091
-26.892 10.239 1.074
-26.879999 10.238 1.056
-26.891001 10.238 1.041
-26.903 10.238 1.027
-26.900999 10.238 1.01
-26.898001 10.237 0.99299997
-26.92 10.238 0.98000002
-26.912001 10.237 0.96200001
-26.929001 10.238 0.94800001
-26.916 10.237 0.93000001
-26.933001 10.237 0.91500002
-26.93 10.237 0.89899999
-26.937 10.237 0.88300002
-26.938999 10.237 0.86699998
-26.945999 10.237 0.85100001
-26.973 10.238 0.838
-27.025 10.237 0.64499998
-27.032 10.237 0.62900001
-27.028 10.236 0.61299998
-27.068001 10.237 0.60000002
-27.035999 10.236 0.57999998
-27.048 10.236 0.565
-27.044001 10.236 0.54799998
-27.055 10.236 0.53200001
-27.056999 10.236 0.51599997
-27.058001 10.236 0.5
-27.063999 10.236 0.48300001
-27.065001 10.236 0.46700001
-27.077 10.236 0.45100001
-27.093 10.236 0.43599999
-27.104 10.236 0.41999999
-27.094999 10.236 0.403
-27.106001 10.236 0.38699999
-27.103001 10.236 0.37
-27.128 10.236 0.35499999
-27.115 10.236 0.338
-27.111 10.235 0.32100001
-27.129999 10.236 0.30599999
-27.122 10.235 0.289
-27.128 10.235 0.27200001
-27.139 10.235 0.25600001
-27.145 10.235 0.23999999
-27.146 10.235 0.22400001
-27.156 10.235 0.207
-27.167 10.235 0.191
-27.167999 10.235 0.175
-27.164 10.235 0.15800001
-27.16 10.234 0.141
-27.18 10.235 0.125
-27.195 10.235 0.109
-27.202 10.235 0.093000002
-27.247 10.236 0.078000002
-27.549 10.243 0.071000002
-27.544001 10.243 0.052999999
-27.562 10.243 0.037
-27.568001 10.243 0.018999999
-26.591999 10.237 2.98
-26.584999 10.237 2.96
-26.594 10.237 2.9449999
-26.591 10.236 2.927
-26.6 10.236 2.9130001
-26.611 10.236 2.8989999
-26.615999 10.236 2.8829999
-26.607 10.236 2.862
-26.622 10.236 2.8499999
-26.631001 10.236 2.835
-26.642 10.236 2.822
-26.638 10.236 2.803
-26.632999 10.236 2.7839999
-26.648001 10.236 2.7709999
-26.659 10.236 2.757
-26.646 10.235 2.7360001
-26.665001 10.236 2.724
-26.684 10.236 2.7130001
-26.681 10.236 2.6949999
-26.68 10.235 2.677
-26.690001 10.236 2.6630001
-26.695 10.235 2.6470001
-26.695999 10.235 2.6300001
-26.698999 10.235 2.6129999
-26.701 10.235 2.5969999
-26.711 10.235 2.582
-26.719999 10.235 2.5680001
-26.716 10.235 2.549
-26.721001 10.235 2.5339999
-26.726 10.235 2.5179999
-26.725 10.234 2.5
-26.73 10.234 2.4849999
-26.743 10.235 2.471
-26.74 10.234 2.4530001
-26.754 10.234 2.4400001
-26.754999 10.234 2.4230001
-26.764 10.234 2.408
-26.764 10.234 2.391
-26.773001 10.234 2.3759999
-26.802 10.235 2.3670001
-26.773001 10.234 2.342
-26.787001 10.234 2.3280001
-26.783001 10.234 2.3099999
-26.785999 10.233 2.2939999
-26.799 10.234 2.28
-26.799999 10.233 2.263
-26.804001 10.233 2.247
-26.819 10.234 2.234
-26.827 10.234 2.2190001
-26.822001 10.233 2.201
-26.830999 10.233 2.1860001
-26.83 10.233 2.168
-26.867001 10.234 2.161
-26.853001 10.233 2.1400001
-26.867001 10.233 2.1270001
-26.867001 10.233 2.109
-26.868999 10.233 2.0929999
-26.865 10.233 2.075
-26.872999 10.233 2.0599999
-26.870001 10.233 2.0420001
-26.877001 10.233 2.026
-26.881001 10.232 2.01
-26.879999 10.232 1.993
-26.865999 10.231 1.972
-26.858 10.231 1.954
-26.864 10.231 1.938
-26.851999 10.23 1.918
-26.860001 10.23 1.903
-26.858999 10.23 1.886
-26.861 10.23 1.87
-26.865 10.23 1.853
-26.858999 10.23 1.835
-26.851999 10.229 1.817
-26.864 10.229 1.803
-26.846001 10.229 1.765
-26.865999 10.229 1.752
-26.844 10.228 1.7309999
-26.865 10.228 1.7180001
-26.854 10.228 1.699
-26.853001 10.228 1.682
-26.877001 10.228 1.67
-26.868999 10.228 1.635
-26.84 10.227 1.613
-26.848 10.227 1.598
-26.854 10.227 1.582
-26.862 10.227 1.567
-26.844 10.226 1.53
-26.867001 10.226 1.518
-26.858 10.226 1.499
-26.861 10.226 1.483
-26.85 10.225 1.465
-26.854 10.225 1.449
-26.85 10.225 1.431
-26.839001 10.225 1.413
-26.856001 10.225 1.399
-26.849001 10.224 1.382
-26.841 10.224 1.364
-26.855 10.224 1.349
-26.851999 10.224 1.332
-26.856001 10.224 1.316
-26.846001 10.223 1.298
-26.849001 10.223 1.2819999
-26.843 10.223 1.265
-26.851 10.222 1.184
-26.858999 10.222 1.168
-26.868999 10.222 1.154
-26.872999 10.222 1.138
-26.885 10.222 1.123
-26.882 10.222 1.1059999
-26.893999 10.222 1.091
-26.892 10.222 1.075
-26.909 10.222 1.061
-26.910999 10.222 1.044
-26.909 10.221 1.028
-26.921 10.222 1.013
-26.923 10.221 0.99699998
-26.933001 10.221 0.98100001
-26.937 10.221 0.96600002
-26.940001 10.221 0.949
-26.941999 10.221 0.93300003
-26.938999 10.221 0.91600001
-26.941 10.221 0.89999998
-26.962999 10.221 0.88599998
-26.959999 10.221 0.86900002
-26.971001 10.221 0.85399997
-26.958 10.22 0.83600003
-26.98 10.221 0.82200003
-26.627001 10.22 2.852
-26.638 10.22 2.8380001
-26.584 10.032 2.9790001
-26.580999 10.032 2.96
-26.601 10.032 2.95
-26.596001 10.032 2.9300001
-26.584999 10.032 2.9089999
-26.583 10.031 2.891
-26.586 10.031 2.8740001
-26.591999 10.031 2.859
-26.591999 10.031 2.842
-26.594999 10.031 2.825
-26.582001 10.03 2.803
-26.599001 10.03 2.7909999
-26.594999 10.03 2.773
-26.605 10.03 2.7590001
-26.587999 10.03 2.7360001
-26.603001 10.03 2.723
-26.605 10.029 2.707
-26.593 10.029 2.6849999
-26.607 10.029 2.6730001
-26.606001 10.029 2.655
-26.613001 10.028 2.6400001
-26.608 10.028 2.6210001
-26.613001 10.028 2.605
-26.593 10.028 2.582
-26.593 10.027 2.5650001
-26.597 10.027 2.549
-26.587999 10.027 2.529
-26.603001 10.027 2.517
-26.601999 10.027 2.4990001
-26.594 10.026 2.4790001
-26.613001 10.026 2.4679999
-26.599001 10.026 2.447
-26.614 10.026 2.434
-26.604 10.026 2.414
-26.614 10.026 2.4000001
-26.622999 10.025 2.3859999
-26.636999 10.025 2.3729999
-26.627001 10.025 2.3529999
-26.632 10.025 2.3380001
-26.632 10.025 2.3199999
-26.646 10.024 2.3080001
-26.636 10.024 2.2880001
-26.648001 10.024 2.2739999
-26.664 10.024 2.2620001
-26.672001 10.024 2.247
-26.677 10.024 2.2309999
-26.663 10.023 2.211
-26.681 10.023 2.1989999
-26.686001 10.023 2.1830001
-26.68 10.023 2.165
-26.704 10.023 2.154
-26.698 10.023 2.1359999
-26.698 10.022 2.119
-26.707001 10.022 2.1040001
-26.719999 10.022 2.0910001
-26.714001 10.022 2.072
-26.733 10.022 2.0599999
-26.742001 10.022 2.046
-26.737 10.021 2.027
-26.736 10.021 2.01
-26.73 10.021 1.992
-26.743999 10.021 1.979
-26.752001 10.021 1.964
-26.761 10.02 1.949
-26.780001 10.02 1.937
-26.768999 10.02 1.9170001
-26.782 10.02 1.904
-26.781 10.02 1.887
-26.775 10.02 1.869
-26.802999 10.019 1.858
-26.799999 10.019 1.807
-26.813 10.018 1.793
-26.826 10.018 1.779
-26.834999 10.018 1.765
-26.833 10.018 1.747
-26.837 10.018 1.7309999
-26.844999 10.017 1.716
-26.839001 10.017 1.698
-26.851999 10.017 1.684
-26.851 10.017 1.6670001
-26.865 10.017 1.653
-26.868 10.017 1.637
-26.875999 10.016 1.622
-26.875 10.016 1.605
-26.9 10.016 1.594
-26.927999 10.016 1.582
-27.105 10.016 1.6
-27.190001 10.016 1.6
-27.191 10.016 1.5829999
-27.201 10.016 1.567
-27.212999 10.015 1.552
-27.202999 10.015 1.533
-27.223 10.015 1.52
-27.214001 10.015 1.5
-27.236 10.015 1.487
-27.23 10.014 1.469
-27.232 10.014 1.452
-27.239 10.014 1.436
-27.239 10.014 1.419
-27.247 10.014 1.403
-27.253 10.014 1.387
-27.268999 10.013 1.372
-27.271999 10.013 1.355
-27.281 10.013 1.34
-27.273001 10.013 1.321
-27.281 10.013 1.3049999
-27.275 10.012 1.2869999
-27.298 10.012 1.273
-27.291 10.012 1.255
-27.304001 10.012 1.24
-27.315001 10.012 1.224
-27.304001 10.012 1.205
-27.316 10.011 1.1900001
-27.323999 10.011 1.174
-27.327 10.011 1.1569999
-27.334 10.011 1.141
-27.346001 10.011 1.125
-27.364 10.01 1.1109999
-27.365999 10.01 1.0930001
-27.357 10.01 1.075
-27.364 10.01 1.059
-27.378 10.01 1.043
-27.378 10.01 1.026
-27.382 10.009 1.0089999
-27.379 10.009 0.99199998
-27.393 10.009 0.97600001
-27.42 10.009 0.96200001
-27.398001 10.009 0.94199997
-27.412001 10.008 0.92699999
-27.413 10.008 0.90899998
-27.431 10.008 0.89399999
-27.433001 10.008 0.87699997
-27.427 10.008 0.85900003
-27.450001 10.008 0.84399998
-27.444 10.007 0.82700002
-27.452999 10.007 0.81
-27.468 10.007 0.79500002
-27.465 10.007 0.77700001
-27.469 10.007 0.75999999
-27.492001 10.006 0.745
-27.478001 10.006 0.72600001
-27.489 10.006 0.70999998
-27.497 10.005 0.69300002
-27.509001 10.005 0.67699999
-26.516001 10.005 0.56800002
-26.504999 10.003 0.38
-27.593 10.003 0.44100001
-27.589001 10.003 0.42300001
-27.608 10.002 0.40700001
-27.606001 10.002 0.389
-27.608 10.002 0.37200001
-27.608999 10.002 0.354
-27.618 10.002 0.338
-27.617001 10.001 0.31999999
-27.636999 10.001 0.30399999
-27.639 10.001 0.28600001
-26.575001 10.017 2.9760001
-26.568001 10.017 2.9560001
-26.569 10.016 2.9389999
-26.57 10.016 2.921
-26.589001 10.016 2.911
-26.580999 10.016 2.8900001
-26.579 10.016 2.872
-26.584999 10.015 2.8570001
-26.580999 10.015 2.8380001
-26.582001 10.015 2.8210001
-26.584 10.015 2.8039999
-26.584999 10.015 2.7869999
-26.576 10.014 2.766
-26.570999 10.014 2.747
-26.582001 10.014 2.734
-26.584 10.014 2.717
-26.583 10.014 2.6989999
-26.591 10.013 2.6849999
-26.587 10.013 2.6659999
-26.591 10.013 2.6500001
-26.582001 10.013 2.6300001
-26.573 10.013 2.6099999
-26.582001 10.012 2.596
-26.577999 10.012 2.5769999
-26.580999 10.012 2.5610001
-26.584 10.012 2.5450001
-26.579 10.012 2.526
-26.584999 10.012 2.5109999
-26.59 10.011 2.4960001
-26.604 10.011 2.483
-26.6 10.011 2.464
-26.59 10.011 2.444
-26.608999 10.011 2.4330001
-26.608999 10.01 2.4159999
-26.622999 10.01 2.4030001
-26.636999 10.01 2.3900001
-26.632 10.009 2.372
-26.627001 10.009 2.3529999
-26.660999 10.009 2.346
-26.660999 10.009 2.329
-26.659 10.009 2.312
-26.655001 10.009 2.293
-26.663 10.008 2.279
-26.672001 10.008 2.2639999
-26.667 10.008 2.2460001
-26.673 10.008 2.2309999
-26.687 10.008 2.217
-26.695999 10.007 2.2030001
-26.695 10.007 2.1860001
-26.700001 10.007 2.1700001
-26.709 10.007 2.1559999
-26.708 10.007 2.138
-26.711 10.007 2.122
-26.721001 10.006 2.108
-26.711 10.006 2.089
-26.719 10.006 2.0739999
-26.733 10.006 2.0610001
-26.747 10.006 2.0469999
-26.742001 10.005 2.029
-26.754 10.005 2.0150001
-26.754 10.005 1.998
-26.771999 10.005 1.9859999
-26.771999 10.005 1.969
-26.780001 10.005 1.954
-26.784 10.004 1.938
-26.783001 10.004 1.921
-26.792 10.004 1.906
-26.799999 10.004 1.891
-26.795 10.004 1.873
-26.819 10.003 1.862
-26.822001 10.003 1.846
-26.816 10.003 1.8279999
-26.823999 10.003 1.813
-26.823 10.003 1.796
-26.830999 10.002 1.781
-26.846001 10.002 1.767
-26.849001 10.002 1.751
-26.841999 10.002 1.733
-26.856001 10.002 1.719
-26.868999 10.002 1.705
-26.863001 10.001 1.687
-26.889999 10.001 1.676
-26.941 10.001 1.669
-27.17 10.001 1.7
-27.167999 10.001 1.682
-27.179001 10 1.6670001
-27.17 10 1.648
-27.181 10 1.633
-27.187 10 1.6160001
-27.200001 10 1.602
-27.208 9.9989996 1.586
-27.205 9.9989996 1.568
-27.214001 9.9989996 1.553
-27.216999 9.9989996 1.536
-27.216 9.9989996 1.518
-27.228001 9.9980001 1.503
-27.246 9.9980001 1.489
-27.246 9.9980001 1.472
-27.247 9.9980001 1.455
-27.249001 9.9980001 1.438
-27.261999 9.9980001 1.423
-27.266001 9.9969997 1.406
-27.257999 9.9969997 1.388
-27.27 9.9969997 1.373
-27.283001 9.9969997 1.357
-27.294001 9.9960003 1.342
-27.289 9.9960003 1.324
-27.312 9.9960003 1.3099999
-27.301001 9.9960003 1.291
-27.298 9.9949999 1.274
-27.301001 9.9949999 1.257
-27.318001 9.9949999 1.242
-27.316 9.9949999 1.225
-27.334 9.9949999 1.21
-27.312 9.9940004 1.1900001
-27.323999 9.9940004 1.174
-27.337 9.9940004 1.159
-27.344 9.9940004 1.142
-27.346001 9.9940004 1.125
-27.367001 9.993 1.1109999
-27.370001 9.993 1.094
-27.365999 9.993 1.076
-27.389999 9.993 1.062
-27.388 9.993 1.045
-27.379 9.993 1.026
-27.382 9.9919996 1.0089999
-27.389 9.9919996 0.99299997
-27.406 9.9919996 0.97799999
-27.426001 9.9919996 0.963
-27.423 9.9919996 0.94499999
-27.43 9.9910002 0.92900002
-27.422001 9.9910002 0.91100001
-27.441999 9.9910002 0.89600003
-27.447001 9.9910002 0.87900001
-27.445999 9.9910002 0.86199999
-27.455 9.9899998 0.84500003
-27.440001 9.9899998 0.82599998
-27.455999 9.9899998 0.81099999
-27.482 9.9899998 0.796
-27.472 9.9899998 0.778
-27.475 9.9890003 0.76099998
-27.496 9.9890003 0.74599999
-27.502001 9.9890003 0.72899997
-27.506001 9.9890003 0.71200001
-27.521999 9.9890003 0.69599998
-27.521999 9.9879999 0.67900002
-27.521999 9.9879999 0.66100001
-26.497999 9.9899998 0.551
-26.504999 9.9879999 0.36500001
-27.6 9.9860001 0.42399999
-27.608 9.9849997 0.40700001
-27.608 9.9849997 0.38999999
-27.618999 9.9849997 0.373
-27.620001 9.9849997 0.35499999
-27.629999 9.9849997 0.33899999
-27.632 9.9840002 0.32100001
-27.643 9.9840002 0.30399999
-27.653 9.9840002 0.287
-27.67 9.9829998 0.271
-27.677 9.9829998 0.25400001
-27.671 9.9829998 0.236
-27.686001 9.9829998 0.219
-27.695999 9.9829998 0.20200001
-27.700001 9.9820004 0.184
-27.711 9.9820004 0.167
-27.724001 9.9820004 0.15000001
-27.726 9.9820004 0.133
-27.738001 9.9809999 0.116
-27.724001 9.9809999 0.097000003
-27.731001 9.9809999 0.079999998
-27.738001 9.9809999 0.063000001
-27.764 9.9809999 0.046
-27.757999 9.9809999 0.028000001
-26.542 10.002 2.9820001
-26.558001 10.001 2.97
-26.554001 10.001 2.951
-26.566999 10.001 2.938
-26.568001 10.001 2.921
-26.555 10.001 2.8989999
-26.554001 10.001 2.881
-26.546 10 2.8610001
-26.547001 10 2.8440001
-26.556999 10 2.8299999
-26.554001 9.9989996 2.8110001
-26.565001 9.9989996 2.7980001
-26.551001 9.9989996 2.7750001
-26.556 9.9989996 2.76
-26.556 9.9989996 2.7420001
-26.562 9.9980001 2.727
-26.559999 9.9980001 2.7090001
-26.546 9.9980001 2.688
-26.568001 9.9980001 2.677
-26.562 9.9980001 2.658
-26.562 9.9969997 2.641
-26.559 9.9969997 2.6229999
-26.556 9.9969997 2.605
-26.575001 9.9969997 2.5940001
-26.575001 9.9969997 2.5769999
-26.59 9.9960003 2.5639999
-26.58 9.9960003 2.5439999
-26.59 9.9960003 2.53
-26.594999 9.9960003 2.5139999
-26.608999 9.9960003 2.5020001
-26.608999 9.9949999 2.484
-26.608999 9.9949999 2.467
-26.618999 9.9949999 2.4530001
-26.622999 9.9949999 2.438
-26.636999 9.9949999 2.424
-26.641001 9.9949999 2.4089999
-26.632999 9.9940004 2.3889999
-26.642 9.9940004 2.375
-26.656 9.9940004 2.362
-26.656 9.9940004 2.345
-26.650999 9.9940004 2.326
-26.67 9.993 2.3150001
-26.677999 9.993 2.3
-26.669001 9.993 2.2809999
-26.677999 9.993 2.266
-26.691999 9.993 2.253
-26.681999 9.9919996 2.233
-26.698999 9.9919996 2.221
-26.701 9.9919996 2.204
-26.715 9.9919996 2.191
-26.700001 9.9919996 2.1700001
-26.716999 9.9910002 2.158
-26.726999 9.9910002 2.1440001
-26.726999 9.9910002 2.1270001
-26.74 9.9910002 2.1129999
-26.753 9.9910002 2.0999999
-26.749001 9.9899998 2.082
-26.738001 9.9899998 2.062
-26.752001 9.9899998 2.049
-26.750999 9.9899998 2.0320001
-26.754999 9.9899998 2.016
-26.764 9.9899998 2.0009999
-26.778 9.9890003 1.987
-26.781 9.9890003 1.971
-26.796 9.9890003 1.9579999
-26.789 9.9890003 1.9400001
-26.792999 9.9890003 1.924
-26.797001 9.9879999 1.908
-26.799999 9.9879999 1.892
-26.809 9.9879999 1.877
-26.818001 9.9870005 1.862
-26.816999 9.9870005 1.845
-26.82 9.9870005 1.829
-26.834999 9.9870005 1.8150001
-26.843 9.9870005 1.8
-26.851999 9.9860001 1.785
-26.855 9.9860001 1.7690001
-26.896999 9.9860001 1.762
-27.139999 9.9849997 1.7970001
-27.152 9.9849997 1.783
-27.141001 9.9849997 1.763
-27.159 9.9849997 1.75
-27.163 9.9840002 1.733
-27.160999 9.9840002 1.715
-27.174999 9.9840002 1.701
-27.188 9.9840002 1.686
-27.201 9.9840002 1.671
-27.190001 9.9829998 1.652
-27.195999 9.9829998 1.636
-27.202999 9.9829998 1.62
-27.205 9.9829998 1.603
-27.202999 9.9829998 1.585
-27.226 9.9820004 1.572
-27.219 9.9820004 1.554
-27.225 9.9820004 1.538
-27.233999 9.9820004 1.522
-27.219 9.9820004 1.502
-27.256001 9.9809999 1.4910001
-27.253 9.9809999 1.474
-27.252001 9.9809999 1.456
-27.254999 9.9809999 1.439
-27.257999 9.9809999 1.423
-27.274 9.9799995 1.408
-27.284 9.9799995 1.392
-27.281 9.9799995 1.375
-27.280001 9.9799995 1.357
-27.294001 9.9799995 1.342
-27.299 9.9790001 1.326
-27.308001 9.9790001 1.3099999
-27.304001 9.9790001 1.2920001
-27.308001 9.9790001 1.275
-27.330999 9.9790001 1.262
-27.327999 9.9779997 1.244
-27.326 9.9779997 1.226
-27.33 9.9779997 1.21
-27.330999 9.9779997 1.193
-27.344 9.9779997 1.177
-27.337 9.9779997 1.159
-27.358 9.9770002 1.145
-27.381001 9.9770002 1.131
-27.378 9.9770002 1.113
-27.384001 9.9770002 1.096
-27.391001 9.9759998 1.08
-27.385 9.9759998 1.062
-27.392 9.9759998 1.046
-27.41 9.9750004 1.031
-27.412001 9.9750004 1.0140001
-27.403 9.9750004 0.995
-27.431 9.9750004 0.98100001
-27.423 9.9750004 0.963
-27.438 9.974 0.94800001
-27.424999 9.974 0.92900002
-27.455999 9.974 0.91500002
-27.438999 9.974 0.89600003
-27.457001 9.974 0.88
-27.459999 9.9729996 0.86299998
-27.472 9.9729996 0.847
-27.462 9.9729996 0.829
-27.485001 9.9729996 0.81400001
-27.485001 9.9729996 0.79699999
-27.489 9.9720001 0.77999997
-27.497 9.9720001 0.76300001
-27.507999 9.9720001 0.74699998
-27.509001 9.9720001 0.73000002
-27.514999 9.9720001 0.713
-27.51 9.9709997 0.69499999
-27.549 9.9709997 0.68099999
-27.532 9.9709997 0.662
-27.542999 9.9709997 0.64600003
-26.514 9.974 0.537
-27.646999 9.9680004 0.41
-27.618 9.9680004 0.38999999
-27.639 9.967 0.37400001
-27.632999 9.967 0.35600001
-27.639999 9.967 0.33899999
-27.653999 9.967 0.32300001
-27.669001 9.967 0.30599999
-27.667999 9.9659996 0.28799999
-27.68 9.9659996 0.271
-27.691999 9.9659996 0.255
-27.695999 9.9659996 0.237
-27.698 9.9659996 0.22
-27.712999 9.9650002 0.20299999
-27.715 9.9650002 0.185
-27.716 9.9650002 0.168
-27.729 9.9650002 0.15099999
-27.742001 9.9639997 0.134
-27.747999 9.9639997 0.116
-27.736 9.9639997 0.097999997
-27.756001 9.9639997 0.081
-27.768 9.9639997 0.064000003
-27.768 9.9630003 0.046
-27.773001 9.9630003 0.028999999
-26.525999 9.9860001 2.9760001
-26.539 9.9860001 2.9630001
-26.544001 9.9860001 2.948
-26.544001 9.9860001 2.9300001
-26.540001 9.9849997 2.911
-26.537001 9.9849997 2.8929999
-26.541 9.9849997 2.8770001
-26.552999 9.9849997 2.8629999
-26.542 9.9849997 2.842
-26.556999 9.9840002 2.8299999
-26.538 9.9840002 2.806
-26.541 9.9840002 2.789
-26.535999 9.9840002 2.7709999
-26.551001 9.9840002 2.7579999
-26.537001 9.9829998 2.737
-26.547001 9.9829998 2.723
-26.541 9.9829998 2.7030001
-26.544001 9.9829998 2.687
-26.554001 9.9829998 2.6730001
-26.555 9.9820004 2.6559999
-26.559999 9.9820004 2.641
-26.573999 9.9820004 2.628
-26.57 9.9820004 2.609
-26.575001 9.9820004 2.5940001
-26.58 9.9809999 2.5780001
-26.59 9.9809999 2.5639999
-26.599001 9.9809999 2.55
-26.594999 9.9799995 2.5320001
-26.608999 9.9799995 2.5190001
-26.614 9.9799995 2.503
-26.628 9.9799995 2.4909999
-26.622999 9.9799995 2.4719999
-26.628 9.9790001 2.4560001
-26.642 9.9790001 2.444
-26.645 9.9790001 2.427
-26.639999 9.9790001 2.4089999
-26.646999 9.9790001 2.3940001
-26.642 9.9779997 2.375
-26.650999 9.9779997 2.3610001
-26.67 9.9779997 2.349
-26.67 9.9779997 2.332
-26.67 9.9779997 2.3150001
-26.683001 9.9770002 2.302
-26.687 9.9770002 2.286
-26.712 9.9770002 2.276
-26.702 9.9770002 2.256
-26.697001 9.9770002 2.2379999
-26.716 9.9759998 2.2260001
-26.715 9.9759998 2.2090001
-26.719 9.9759998 2.1930001
-26.728001 9.9759998 2.178
-26.712999 9.9759998 2.1570001
-26.732 9.9750004 2.145
-26.736 9.9750004 2.1289999
-26.74 9.9750004 2.1140001
-26.749001 9.9750004 2.099
-26.753 9.9750004 2.0829999
-26.768 9.974 2.0699999
-26.761999 9.974 2.0510001
-26.775999 9.974 2.0380001
-26.780001 9.974 2.0220001
-26.774 9.974 2.0039999
-26.778 9.9729996 1.988
-26.785 9.9729996 1.973
-26.796 9.9729996 1.9579999
-26.805 9.9729996 1.944
-26.792999 9.9729996 1.924
-26.822001 9.9720001 1.914
-26.826 9.9720001 1.898
-26.825001 9.9720001 1.881
-26.848 9.9720001 1.869
-26.868999 9.9709997 1.857
-26.910999 9.9709997 1.85
-27.129999 9.9700003 1.882
-27.138 9.9700003 1.867
-27.132999 9.9700003 1.848
-27.139 9.9689999 1.832
-27.15 9.9689999 1.817
-27.158001 9.9689999 1.802
-27.167 9.9689999 1.786
-27.174999 9.9689999 1.77
-27.179001 9.9680004 1.7539999
-27.181999 9.9680004 1.737
-27.166 9.9680004 1.717
-27.194 9.9680004 1.705
-27.191 9.967 1.687
-27.201 9.967 1.6720001
-27.193001 9.967 1.653
-27.212999 9.967 1.6390001
-27.235001 9.9659996 1.626
-27.221001 9.9659996 1.6059999
-27.222 9.9659996 1.589
-27.228001 9.9659996 1.573
-27.247999 9.9650002 1.559
-27.242001 9.9650002 1.541
-27.24 9.9650002 1.523
-27.24 9.9650002 1.506
-27.264999 9.9650002 1.493
-27.278999 9.9639997 1.478
-27.267 9.9639997 1.459
-27.27 9.9639997 1.442
-27.268 9.9639997 1.424
-27.285999 9.9639997 1.41
-27.291 9.9630003 1.3940001
-27.280001 9.9630003 1.375
-27.309 9.9630003 1.362
-27.306999 9.9630003 1.345
-27.299 9.9630003 1.326
-27.322001 9.9619999 1.312
-27.320999 9.9619999 1.295
-27.329 9.9619999 1.279
-27.33 9.9619999 1.262
-27.333 9.9619999 1.245
-27.346001 9.9610004 1.23
-27.34 9.9610004 1.211
-27.361 9.9610004 1.197
-27.343 9.9610004 1.177
-27.371 9.96 1.164
-27.365999 9.96 1.146
-27.371 9.96 1.1289999
-27.386 9.96 1.114
-27.396999 9.96 1.098
-27.392 9.9589996 1.08
-27.41 9.9589996 1.066
-27.402 9.9589996 1.0470001
-27.419001 9.9589996 1.0319999
-27.416 9.9589996 1.0140001
-27.427 9.9580002 0.99800003
-27.417999 9.9580002 0.98000002
-27.441 9.9580002 0.96499997
-27.448 9.9580002 0.949
-27.459 9.9569998 0.93300003
-27.451 9.9569998 0.91500002
-27.459999 9.9569998 0.898
-27.459999 9.9569998 0.88099998
-27.468 9.9569998 0.86500001
-27.482 9.9560003 0.84899998
-27.474001 9.9560003 0.83099997
-27.493 9.9560003 0.815
-27.500999 9.9560003 0.79900002
-27.504 9.9560003 0.78200001
-27.485001 9.9549999 0.76200002
-27.538 9.9549999 0.75
-27.5 9.9549999 0.72899997
-27.527 9.9549999 0.71399999
-27.542999 9.9540005 0.699
-27.563999 9.9540005 0.68300003
-27.547001 9.9540005 0.66399997
-27.562 9.9540005 0.648
-27.555 9.9540005 0.63
-26.500999 9.9589996 0.51999998
-26.495001 9.9560003 0.333
-27.643 9.9499998 0.39199999
-27.636999 9.9499998 0.37400001
-27.650999 9.9499998 0.35800001
-27.653 9.9499998 0.34
-27.653999 9.9490004 0.32300001
-27.679001 9.9490004 0.30700001
-27.681999 9.9490004 0.289
-27.688999 9.9490004 0.27200001
-27.691999 9.948 0.255
-27.705 9.948 0.23800001
-27.716 9.948 0.221
-27.716 9.948 0.20299999
-27.719 9.9469995 0.186
-27.74 9.9469995 0.169
-27.738001 9.9469995 0.15099999
-27.747 9.9469995 0.134
-27.754999 9.9469995 0.117
-27.756001 9.9460001 0.098999999
-27.763 9.9460001 0.082000002
-27.771 9.9460001 0.064000003
-27.768999 9.9460001 0.046
-27.782 9.9449997 0.028999999
-26.509001 9.9709997 2.97
-26.521 9.9700003 2.957
-26.521 9.9700003 2.9389999
-26.521 9.9700003 2.9219999
-26.521999 9.9700003 2.905
-26.527 9.9700003 2.8889999
-26.523001 9.9689999 2.8699999
-26.533001 9.9689999 2.8570001
-26.521999 9.9689999 2.835
-26.534 9.9689999 2.822
-26.530001 9.9689999 2.8039999
-26.532 9.9680004 2.7869999
-26.537001 9.9680004 2.7709999
-26.542 9.9680004 2.7550001
-26.534 9.9680004 2.7349999
-26.546 9.9680004 2.7219999
-26.549 9.967 2.7060001
-26.554001 9.967 2.6900001
-26.573 9.967 2.6800001
-26.563999 9.967 2.6589999
-26.583 9.967 2.648
-26.573999 9.9659996 2.628
-26.598 9.9659996 2.619
-26.593 9.9659996 2.5999999
-26.589001 9.9659996 2.582
-26.599001 9.9650002 2.5669999
-26.608999 9.9650002 2.553
-26.618 9.9650002 2.539
-26.617001 9.9650002 2.5209999
-26.627001 9.9650002 2.5079999
-26.614 9.9639997 2.4860001
-26.632999 9.9639997 2.4749999
-26.636999 9.9639997 2.4590001
-26.646999 9.9639997 2.4449999
-26.656 9.9639997 2.431
-26.656 9.9630003 2.4130001
-26.660999 9.9630003 2.398
-26.666 9.9630003 2.382
-26.68 9.9630003 2.369
-26.68 9.9619999 2.352
-26.684 9.9619999 2.336
-26.684 9.9619999 2.319
-26.691999 9.9619999 2.3050001
-26.681999 9.9619999 2.2850001
-26.705999 9.9610004 2.2739999
-26.712 9.9610004 2.2590001
-26.705999 9.9610004 2.24
-26.731001 9.96 2.23
-26.725 9.96 2.211
-26.709 9.96 2.1900001
-26.726999 9.96 2.178
-26.743 9.96 2.165
-26.742001 9.9589996 2.148
-26.761 9.9589996 2.1359999
-26.756001 9.9589996 2.118
-26.76 9.9589996 2.102
-26.774 9.9580002 2.089
-26.778 9.9580002 2.073
-26.782 9.9580002 2.0569999
-26.775999 9.9580002 2.0380001
-26.789 9.9580002 2.0250001
-26.804001 9.9569998 2.0109999
-26.802999 9.9569998 1.994
-26.806999 9.9569998 1.978
-26.809999 9.9569998 1.962
-26.839001 9.9560003 1.952
-26.872 9.9560003 1.943
-26.933001 9.9560003 1.9400001
-27.107 9.9549999 1.964
-27.115 9.9540005 1.949
-27.128 9.9540005 1.934
-27.142 9.9540005 1.92
-27.141001 9.9540005 1.902
-27.135 9.9530001 1.8839999
-27.158001 9.9530001 1.8710001
-27.152 9.9530001 1.853
-27.155001 9.9530001 1.836
-27.152 9.9530001 1.818
-27.153 9.9519997 1.801
-27.17 9.9519997 1.7869999
-27.16 9.9519997 1.768
-27.179001 9.9519997 1.7539999
-27.187 9.9510002 1.738
-27.198999 9.9510002 1.724
-27.209 9.9510002 1.7079999
-27.201 9.9510002 1.689
-27.219999 9.9510002 1.676
-27.229 9.9499998 1.66
-27.225 9.9499998 1.642
-27.221001 9.9499998 1.624
-27.239 9.9499998 1.61
-27.242001 9.9490004 1.5930001
-27.245001 9.9490004 1.576
-27.267 9.9490004 1.563
-27.266001 9.9490004 1.546
-27.254999 9.9490004 1.526
-27.257999 9.948 1.5089999
-27.263 9.948 1.493
-27.284 9.948 1.479
-27.271999 9.948 1.46
-27.280001 9.948 1.444
-27.287001 9.9469995 1.428
-27.285999 9.9469995 1.41
-27.299 9.9469995 1.395
-27.309999 9.9469995 1.38
-27.313 9.9460001 1.363
-27.302 9.9460001 1.344
-27.320999 9.9460001 1.33
-27.337 9.9460001 1.3150001
-27.329 9.9460001 1.296
-27.337999 9.9449997 1.281
-27.326 9.9449997 1.261
-27.348 9.9440002 1.247
-27.35 9.9440002 1.2309999
-27.357 9.9440002 1.214
-27.365999 9.9440002 1.198
-27.357 9.9440002 1.1799999
-27.375999 9.9429998 1.165
-27.382999 9.9429998 1.149
-27.395 9.9429998 1.133
-27.400999 9.9429998 1.117
-27.4 9.9420004 1.099
-27.396999 9.9420004 1.081
-27.415001 9.9420004 1.066
-27.417 9.9420004 1.049
-27.427 9.9420004 1.033
-27.431 9.941 1.017
-27.448 9.941 1.001
-27.448999 9.941 0.98400003
-27.452999 9.941 0.96700001
-27.450001 9.9399996 0.949
-27.457001 9.9399996 0.93300003
-27.464001 9.9399996 0.91600001
-27.462999 9.9399996 0.89899999
-27.466 9.9399996 0.88200003
-27.492001 9.9390001 0.86799997
-27.497 9.9390001 0.85100001
-27.486 9.9390001 0.83200002
-27.499001 9.9390001 0.81599998
-27.5 9.9390001 0.79900002
-27.525999 9.9379997 0.78399998
-27.514 9.9379997 0.76599997
-27.538 9.9379997 0.75099999
-27.544001 9.9370003 0.73400003
-27.545 9.9370003 0.71600002
-27.556 9.9370003 0.69999999
-27.558001 9.9370003 0.68300003
-27.552999 9.9370003 0.66500002
-27.568001 9.9359999 0.64899999
-27.568001 9.9359999 0.63099998
-27.570999 9.9359999 0.61400002
-26.493999 9.9429998 0.50400001
-26.504999 9.941 0.31900001
-27.643999 9.9329996 0.375
-27.664 9.9329996 0.359
-27.677 9.9320002 0.34200001
-27.669001 9.9320002 0.324
-27.679001 9.9309998 0.30700001
-27.693001 9.9309998 0.28999999
-27.712999 9.9309998 0.27399999
-27.700001 9.9309998 0.255
-27.716999 9.9300003 0.23899999
-27.723 9.9300003 0.221
-27.739 9.9300003 0.204
-27.733999 9.9300003 0.18700001
-27.74 9.9300003 0.169
-27.739 9.9289999 0.152
-27.761 9.9289999 0.13500001
-27.753 9.9289999 0.117
-27.761 9.9289999 0.098999999
-27.771999 9.9280005 0.082000002
-27.785 9.9280005 0.064999998
-27.789 9.9280005 0.046999998
-27.802 9.9280005 0.029999999
-26.5 9.9549999 2.967
-26.509001 9.9549999 2.9530001
-26.516001 9.9549999 2.938
-26.502001 9.9540005 2.898
-26.524 9.9540005 2.888
-26.514 9.9540005 2.868
-26.51 9.9540005 2.849
-26.525 9.9530001 2.8369999
-26.516001 9.9530001 2.816
-26.525999 9.9530001 2.802
-26.541 9.9530001 2.79
-26.547001 9.9530001 2.7750001
-26.556999 9.9519997 2.7609999
-26.556999 9.9519997 2.744
-26.562 9.9519997 2.7279999
-26.563 9.9519997 2.711
-26.577 9.9510002 2.6989999
-26.583 9.9510002 2.6830001
-26.573999 9.9510002 2.6630001
-26.587999 9.9510002 2.6500001
-26.598 9.9510002 2.6359999
-26.584 9.9499998 2.6140001
-26.608 9.9499998 2.605
-26.627001 9.9499998 2.5940001
-26.618 9.9499998 2.5739999
-26.622 9.9490004 2.5580001
-26.622999 9.9490004 2.5409999
-26.628 9.9490004 2.5250001
-26.636999 9.9490004 2.5109999
-26.638 9.9490004 2.494
-26.641001 9.948 2.4779999
-26.646999 9.948 2.4619999
-26.646999 9.948 2.4449999
-26.667 9.948 2.434
-26.672001 9.9469995 2.418
-26.674999 9.9469995 2.402
-26.674999 9.9469995 2.385
-26.695 9.9469995 2.3740001
-26.68 9.9469995 2.352
-26.695 9.9460001 2.3399999
-26.709 9.9460001 2.3269999
-26.709 9.9460001 2.309
-26.708 9.9460001 2.2920001
-26.722 9.9449997 2.279
-26.716999 9.9449997 2.2609999
-26.731001 9.9449997 2.2479999
-26.731001 9.9449997 2.23
-26.724001 9.9449997 2.2119999
-26.754 9.9440002 2.2030001
-26.757999 9.9440002 2.187
-26.761999 9.9440002 2.171
-26.757 9.9440002 2.152
-26.756001 9.9440002 2.135
-26.790001 9.9429998 2.1270001
-26.784 9.9429998 2.108
-26.783001 9.9420004 2.0910001
-26.778 9.9420004 2.073
-26.811001 9.9420004 2.0639999
-26.815001 9.9420004 2.0480001
-26.823999 9.941 2.033
-27.039 9.9399996 2.0699999
-27.1 9.9390001 2.0669999
-27.094 9.9390001 2.0480001
-27.110001 9.9390001 2.0350001
-27.094 9.9390001 2.0139999
-27.111 9.9379997 2
-27.111 9.9379997 1.983
-27.124001 9.9379997 1.9680001
-27.124001 9.9379997 1.951
-27.128 9.9370003 1.9349999
-27.132 9.9370003 1.918
-27.131001 9.9370003 1.9
-27.153999 9.9370003 1.888
-27.167999 9.9359999 1.874
-27.146999 9.9359999 1.852
-27.18 9.9359999 1.842
-27.194 9.9359999 1.827
-27.173 9.9359999 1.8049999
-27.181 9.9350004 1.79
-27.177999 9.9350004 1.772
-27.198 9.9350004 1.758
-27.187 9.9350004 1.739
-27.205 9.934 1.725
-27.209 9.934 1.7079999
-27.216999 9.934 1.693
-27.23 9.934 1.678
-27.228001 9.934 1.66
-27.232 9.9329996 1.6440001
-27.233 9.9329996 1.626
-27.253 9.9329996 1.613
-27.246 9.9329996 1.594
-27.264999 9.9320002 1.58
-27.261 9.9320002 1.562
-27.256001 9.9320002 1.544
-27.261999 9.9320002 1.528
-27.287001 9.9309998 1.515
-27.275 9.9309998 1.4960001
-27.299999 9.9309998 1.483
-27.291 9.9309998 1.464
-27.302999 9.9309998 1.448
-27.302999 9.9300003 1.431
-27.285 9.9300003 1.411
-27.308001 9.9300003 1.397
-27.320999 9.9289999 1.382
-27.318001 9.9289999 1.364
-27.316999 9.9289999 1.347
-27.326 9.9289999 1.331
-27.349001 9.9280005 1.317
-27.334999 9.9280005 1.298
-27.351999 9.9280005 1.283
-27.355 9.9280005 1.266
-27.367001 9.927 1.251
-27.364 9.927 1.233
-27.363001 9.927 1.215
-27.389999 9.927 1.202
-27.382999 9.9259996 1.184
-27.379999 9.9259996 1.166
-27.388 9.9259996 1.15
-27.405001 9.9259996 1.135
-27.427 9.9250002 1.12
-27.417 9.9250002 1.102
-27.427 9.9250002 1.086
-27.424 9.9250002 1.068
-27.441999 9.9250002 1.053
-27.438 9.9239998 1.035
-27.445999 9.9239998 1.0190001
-27.457001 9.9239998 1.003
-27.448 9.9239998 0.98400003
-27.458 9.9230003 0.96799999
-27.455 9.9230003 0.94999999
-27.483999 9.9230003 0.93599999
-27.471001 9.9230003 0.917
-27.495001 9.9219999 0.903
-27.497999 9.9219999 0.88599998
-27.504 9.9219999 0.86900002
-27.511999 9.9219999 0.85299999
-27.523001 9.9209995 0.83600003
-27.518 9.9209995 0.81800002
-27.514 9.9209995 0.801
-27.525999 9.9209995 0.78399998
-27.546 9.9209995 0.76899999
-27.535 9.9200001 0.75
-27.545 9.9200001 0.73400003
-27.549 9.9200001 0.71700001
