ply
format ascii 1.0
comment PCL generated
element vertex 1696
property float x
property float y
property float z
element camera 0
property float view_px
property float view_py
property float view_pz
property float x_axisx
property float x_axisy
property float x_axisz
property float y_axisx
property float y_axisy
property float y_axisz
property float z_axisx
property float z_axisy
property float z_axisz
property float focal
property float scalex
property float scaley
property float centerx
property float centery
property int viewportx
property int viewporty
property float k1
property float k2
end_header
-4.5019999 -4.0310001 0.66900003
-4.0890002 -3.223 2.9749999
-4.0939999 -3.2320001 2.9549999
-4.1069999 -3.2579999 2.9400001
-4.118 -3.2809999 2.924
-4.1269999 -3.2980001 2.9070001
-4.1329999 -3.309 2.8870001
-4.1430001 -3.329 2.8710001
-4.1469998 -3.3380001 2.8510001
-4.165 -3.3729999 2.8380001
-4.1739998 -3.3900001 2.8199999
-4.1830001 -3.4070001 2.802
-4.1859999 -3.414 2.7809999
-4.1999998 -3.441 2.766
-4.2129998 -3.4649999 2.75
-4.217 -3.4749999 2.73
-4.2309999 -3.5009999 2.714
-4.2360001 -3.5120001 2.694
-4.4169998 -3.9100001 0.99599999
-4.4229999 -3.921 0.97500002
-4.421 -3.918 0.95200002
-4.427 -3.9289999 0.93099999
-4.4130001 -3.904 0.90600002
-4.0700002 -3.2309999 2.9749999
-4.0689998 -3.2309999 2.9519999
-4.0770001 -3.247 2.9349999
-4.0929999 -3.277 2.921
-4.1040001 -3.299 2.905
-4.1110001 -3.313 2.8859999
-4.1240001 -3.339 2.8710001
-4.1240001 -3.339 2.849
-4.1350002 -3.3610001 2.832
-4.145 -3.381 2.8150001
-4.158 -3.404 2.799
-4.1669998 -3.4230001 2.7820001
-4.1830001 -3.4549999 2.7679999
-4.1799998 -3.4489999 2.744
-4.1869998 -3.464 2.7249999
-4.198 -3.484 2.7079999
-4.2189999 -3.5239999 2.6949999
-4.2150002 -3.5179999 2.671
-4.2259998 -3.54 2.654
-4.23 -3.5480001 2.6340001
-4.3940001 -3.9130001 1.018
-4.3959999 -3.9159999 0.99599999
-4.3940001 -3.914 0.97299999
-4.3959999 -3.9170001 0.95099998
-4.3979998 -3.9219999 0.92900002
-4.3979998 -3.9230001 0.90700001
-4.3940001 -3.9170001 0.83999997
-4.4000001 -3.9300001 0.81800002
-4.3959999 -3.9219999 0.796
-4.3940001 -3.9189999 0.773
-4.4060001 -3.9430001 0.75199997
-4.427 -3.984 0.73299998
-4.467 -4.0609999 0.71600002
-4.0689998 -3.2739999 2.984
-4.0760002 -3.289 2.9660001
-4.0739999 -3.2869999 2.9430001
-4.0739999 -3.2869999 2.921
-4.0840001 -3.3069999 2.904
-4.085 -3.309 2.8829999
-4.099 -3.336 2.868
-4.1100001 -3.358 2.8510001
-4.1170001 -3.3710001 2.8329999
-4.1149998 -3.368 2.8099999
-4.1300001 -3.398 2.7950001
-4.1350002 -3.408 2.7750001
-4.1490002 -3.4349999 2.76
-4.1669998 -3.4690001 2.747
-4.1729999 -3.4820001 2.727
-4.1799998 -3.4949999 2.7079999
-4.191 -3.517 2.691
-4.2020001 -3.539 2.674
-4.2030001 -3.5409999 2.652
-4.2160001 -3.5680001 2.6370001
-4.2210002 -3.5780001 2.6159999
-4.2350001 -3.605 2.5999999
-4.2360001 -3.608 2.5780001
-4.3660002 -3.905 1.061
-4.3699999 -3.9130001 1.04
-4.3730001 -3.921 1.018
-4.369 -3.914 0.995
-4.375 -3.925 0.97399998
-4.3800001 -3.9349999 0.95200002
-4.3709998 -3.9189999 0.92900002
-4.3730001 -3.9230001 0.90700001
-4.375 -3.9300001 0.83999997
-4.3709998 -3.9219999 0.81699997
-4.3759999 -3.9330001 0.796
-4.381 -3.9430001 0.77399999
-4.4200001 -4.0180001 0.75700003
-4.4310002 -4.04 0.73699999
-4.0640001 -3.309 2.9920001
-4.0739999 -3.3280001 2.9749999
-4.0700002 -3.322 2.951
-4.073 -3.3280001 2.9300001
-4.0689998 -3.3210001 2.9059999
-4.079 -3.342 2.8900001
-4.0749998 -3.3340001 2.865
-4.0840001 -3.352 2.848
-4.098 -3.3800001 2.8329999
-4.099 -3.382 2.8110001
-4.1110001 -3.4070001 2.7950001
-4.1199999 -3.424 2.777
-4.1269999 -3.437 2.7590001
-4.1399999 -3.4619999 2.743
-4.1479998 -3.4790001 2.7249999
-4.152 -3.4879999 2.704
-4.1680002 -3.5179999 2.6900001
-4.1729999 -3.529 2.6700001
-4.1830001 -3.5480001 2.652
-4.1939998 -3.5699999 2.635
-4.197 -3.5769999 2.6140001
-4.2080002 -3.5999999 2.5969999
-4.2160001 -3.615 2.5780001
-4.2290001 -3.641 2.562
-4.2360001 -3.6559999 2.543
-4.2449999 -3.6730001 2.5239999
-4.3449998 -3.911 1.084
-4.3530002 -3.928 1.063
-4.3530002 -3.9289999 1.041
-4.348 -3.9189999 1.017
-4.3499999 -3.924 0.995
-4.3499999 -3.9260001 0.97299999
-4.3579998 -3.941 0.95200002
-4.3660002 -3.957 0.93099999
-4.3540001 -3.9349999 0.90700001
-4.3610001 -3.95 0.88599998
-4.3530002 -3.9349999 0.83999997
-4.3579998 -3.9460001 0.81900001
-4.369 -3.9679999 0.79799998
-4.3969998 -4.0209999 0.77999997
-4.0669999 -3.3610001 2.9820001
-4.0780001 -3.3829999 2.9660001
-4.0700002 -3.368 2.9389999
-4.0689998 -3.3659999 2.9159999
-4.0679998 -3.3659999 2.8940001
-4.0749998 -3.381 2.875
-4.079 -3.388 2.855
-4.0780001 -3.3870001 2.8329999
-4.0879998 -3.4070001 2.8150001
-4.0949998 -3.421 2.7969999
-4.0970001 -3.425 2.776
-4.1009998 -3.434 2.756
-4.1160002 -3.464 2.7409999
-4.1269999 -3.484 2.724
-4.131 -3.494 2.704
-4.1420002 -3.5150001 2.687
-4.1490002 -3.53 2.668
-4.1570001 -3.5450001 2.6489999
-4.1680002 -3.5669999 2.632
-4.1789999 -3.589 2.615
-4.184 -3.5999999 2.595
-4.2020001 -3.6329999 2.5810001
-4.2020001 -3.6359999 2.559
-4.2150002 -3.661 2.5420001
-4.2189999 -3.6689999 2.5209999
-4.2249999 -3.6800001 2.5009999
-4.2389998 -3.71 2.4849999
-4.3330002 -3.9360001 1.108
-4.323 -3.9159999 1.0829999
-4.3299999 -3.931 1.063
-4.336 -3.9430001 1.041
-4.3319998 -3.9360001 1.018
-4.3260002 -3.925 0.995
-4.3309999 -3.9360001 0.97399998
-4.3299999 -3.934 0.95099998
-4.3280001 -3.9300001 0.92900002
-4.3210001 -3.9189999 0.90499997
-4.3309999 -3.938 0.88499999
-4.3400002 -3.9590001 0.81900001
-4.381 -4.0380001 0.80299997
-4.0710001 -3.414 2.9719999
-4.0700002 -3.414 2.95
-4.0809999 -3.4360001 2.9330001
-4.072 -3.4189999 2.9059999
-4.0739999 -3.4230001 2.885
-4.0780001 -3.431 2.8640001
-4.0799999 -3.4360001 2.8429999
-4.0809999 -3.4389999 2.822
-4.0780001 -3.4349999 2.7980001
-4.0809999 -3.441 2.7780001
-4.0879998 -3.454 2.7590001
-4.085 -3.4489999 2.7349999
-4.0929999 -3.4660001 2.717
-4.1100001 -3.4990001 2.7030001
-4.125 -3.529 2.688
-4.1220002 -3.523 2.664
-4.131 -3.5420001 2.6459999
-4.1440001 -3.5680001 2.6300001
-4.1599998 -3.598 2.615
-4.1659999 -3.6110001 2.596
-4.177 -3.6329999 2.5780001
-4.1789999 -3.6370001 2.5569999
-4.191 -3.6619999 2.54
-4.1989999 -3.677 2.5209999
-4.2069998 -3.694 2.5020001
-4.2979999 -3.915 1.127
-4.302 -3.9230001 1.1059999
-4.3080001 -3.9349999 1.085
-4.3140001 -3.947 1.063
-4.3039999 -3.9300001 1.039
-4.3130002 -3.947 1.0190001
-4.3109999 -3.944 0.99599999
-4.3119998 -3.947 0.97399998
-4.3049998 -3.934 0.95099998
-4.3119998 -3.9489999 0.93000001
-4.3010001 -3.9289999 0.90600002
-4.3080001 -3.944 0.88499999
-4.3660002 -4.0570002 0.82700002
-4.2020001 -3.766 0.017999999
-4.0890002 -3.4949999 2.9920001
-4.0809999 -3.4809999 2.9660001
-4.0760002 -3.4719999 2.941
-4.0809999 -3.4820001 2.921
-4.072 -3.4660001 2.8940001
-4.0770001 -3.4760001 2.8740001
-4.0739999 -3.4719999 2.8510001
-4.0780001 -3.48 2.8299999
-4.0819998 -3.4879999 2.8099999
-4.0799999 -3.4849999 2.7869999
-4.0799999 -3.4849999 2.7639999
-4.0830002 -3.4920001 2.744
-4.0879998 -3.5020001 2.724
-4.0879998 -3.5020001 2.7019999
-4.0910001 -3.5090001 2.681
-4.1079998 -3.543 2.6670001
-4.119 -3.5650001 2.6500001
-4.1220002 -3.572 2.6289999
-4.1240001 -3.576 2.608
-4.1420002 -3.6110001 2.5940001
-4.1490002 -3.625 2.575
-4.1620002 -3.651 2.5580001
-4.165 -3.6570001 2.5369999
-4.2800002 -3.9289999 1.15
-4.2810001 -3.9300001 1.128
-4.2740002 -3.9189999 1.105
-4.2779999 -3.928 1.0829999
-4.2839999 -3.9400001 1.062
-4.2870002 -3.9460001 1.04
-4.2800002 -3.9330001 1.017
-4.2859998 -3.9460001 0.99599999
-4.2839999 -3.9430001 0.97299999
-4.276 -3.927 0.94999999
-4.2810001 -3.937 0.92799997
-4.29 -3.957 0.90799999
-4.2859998 -3.95 0.88499999
-4.2160001 -3.8380001 0.107
-4.2069998 -3.8199999 0.083999999
-4.2030001 -3.813 0.063000001
-4.1890001 -3.786 0.039999999
-4.1900001 -3.789 0.018999999
-4.0809999 -3.529 2.9089999
-4.085 -3.539 2.8889999
-4.0799999 -3.529 2.8640001
-4.0809999 -3.5309999 2.842
-4.086 -3.5420001 2.822
-4.0840001 -3.539 2.799
-4.0780001 -3.5280001 2.773
-4.0840001 -3.5420001 2.7539999
-4.0910001 -3.556 2.7360001
-4.0910001 -3.5569999 2.7130001
-4.0819998 -3.539 2.6860001
-4.0929999 -3.562 2.6700001
-4.0900002 -3.5569999 2.6459999
-4.0949998 -3.566 2.6259999
-4.1079998 -3.592 2.6099999
-4.1100001 -3.598 2.589
-4.125 -3.6270001 2.573
-4.257 -3.9319999 1.1720001
-4.2680001 -3.954 1.152
-4.263 -3.944 1.1289999
-4.2610002 -3.9419999 1.1059999
-4.2620001 -3.944 1.084
-4.2610002 -3.9430001 1.062
-4.2610002 -3.9430001 1.04
-4.2600002 -3.9430001 1.017
-4.2600002 -3.9419999 0.995
-4.2620001 -3.9489999 0.97299999
-4.2610002 -3.9460001 0.95099998
-4.2610002 -3.947 0.92900002
-4.2680001 -3.9619999 0.90799999
-4.3000002 -4.0250001 0.88999999
-4.2329998 -3.9159999 0.19599999
-4.217 -3.8859999 0.17299999
-4.2140002 -3.881 0.15099999
-4.2129998 -3.8789999 0.12899999
-4.1960001 -3.846 0.107
-4.191 -3.8369999 0.085000001
-4.1799998 -3.816 0.063000001
-4.1810002 -3.819 0.041000001
-4.164 -3.786 0.018999999
-4.2589998 -3.9230001 2.99
-4.2680001 -3.9419999 2.9719999
-4.0809999 -3.579 2.852
-4.0910001 -3.599 2.835
-4.0869999 -3.5910001 2.8099999
-4.0840001 -3.585 2.786
-4.086 -3.592 2.7650001
-4.086 -3.5910001 2.7420001
-4.079 -3.579 2.717
-4.086 -3.5940001 2.698
-4.0869999 -3.5969999 2.6760001
-4.0879998 -3.599 2.654
-4.092 -3.6059999 2.6340001
-4.0960002 -3.615 2.6129999
-4.0929999 -3.6099999 2.5899999
-4.0970001 -3.618 2.569
-4.243 -3.9419999 1.4630001
-4.2459998 -3.9489999 1.442
-4.2519999 -3.961 1.421
-4.2470002 -3.9530001 1.397
-4.2589998 -3.977 1.378
-4.2379999 -3.9349999 1.35
-4.2410002 -3.9419999 1.329
-4.2459998 -3.9530001 1.308
-4.2350001 -3.934 1.216
-4.2319999 -3.9289999 1.193
-4.2420001 -3.95 1.173
-4.244 -3.9549999 1.152
-4.237 -3.941 1.128
-4.2389998 -3.9449999 1.1059999
-4.237 -3.9419999 1.0829999
-4.237 -3.9430001 1.061
-4.244 -3.957 1.04
-4.2399998 -3.95 1.017
-4.2340002 -3.9389999 0.99400002
-4.2379999 -3.95 0.97299999
-4.237 -3.947 0.94999999
-4.25 -3.9749999 0.93000001
-4.2810001 -4.0359998 0.91299999
-4.2820001 -4.0380001 0.89099997
-4.2459998 -3.9820001 0.46399999
-4.2529998 -3.997 0.41999999
-4.256 -4.0040002 0.398
-4.2449999 -3.983 0.375
-4.2410002 -3.977 0.308
-4.2290001 -3.9549999 0.26300001
-4.2249999 -3.947 0.241
-4.2119999 -3.9230001 0.21799999
-4.2119999 -3.9230001 0.19599999
-4.1999998 -3.901 0.17399999
-4.1869998 -3.8770001 0.15099999
-4.1859999 -3.8729999 0.12899999
-4.1739998 -3.8510001 0.107
-4.1630001 -3.8299999 0.085000001
-4.158 -3.822 0.063000001
-4.1500001 -3.806 0.041000001
-4.1420002 -3.7920001 0.018999999
-4.244 -3.9419999 2.993
-4.244 -3.944 2.97
-4.2420001 -3.9400001 2.9460001
-4.237 -3.9330001 2.921
-4.2420001 -3.9419999 2.9000001
-4.0939999 -3.654 2.802
-4.0890002 -3.645 2.777
-4.0890002 -3.6459999 2.7539999
-4.0879998 -3.6440001 2.7309999
-4.0939999 -3.658 2.7119999
-4.0819998 -3.6329999 2.6830001
-4.086 -3.642 2.6630001
-4.085 -3.642 2.6400001
-4.0900002 -3.6530001 2.6199999
-4.2360001 -3.977 1.512
-4.2270002 -3.96 1.487
-4.223 -3.9530001 1.464
-4.224 -3.9549999 1.442
-4.2290001 -3.967 1.421
-4.23 -3.9690001 1.399
-4.2259998 -3.9630001 1.375
-4.2319999 -3.974 1.354
-4.2329998 -3.9760001 1.332
-4.2290001 -3.97 1.309
-4.223 -3.9590001 1.285
-4.223 -3.9590001 1.263
-4.2249999 -3.9649999 1.2410001
-4.2069998 -3.931 1.215
-4.217 -3.9489999 1.1950001
-4.217 -3.9519999 1.173
-4.217 -3.9519999 1.151
-4.1929998 -3.905 1.123
-4.2090001 -3.9360001 1.104
-4.2140002 -3.948 1.0829999
-4.2160001 -3.9519999 1.061
-4.2140002 -3.95 1.039
-4.217 -3.9560001 1.017
-4.2249999 -3.971 0.99599999
-4.2179999 -3.96 0.97299999
-4.2220001 -3.9690001 0.95200002
-4.2329998 -3.99 0.93099999
-4.2280002 -3.98 0.90799999
-4.2199998 -3.9660001 0.88499999
-4.224 -3.9760001 0.81900001
-4.224 -3.9760001 0.796
-4.2220001 -3.974 0.77399999
-4.2199998 -3.971 0.75199997
-4.2280002 -3.9860001 0.73000002
-4.2309999 -3.9920001 0.70899999
-4.2189999 -3.97 0.685
-4.2210002 -3.9749999 0.66299999
-4.2249999 -3.984 0.64099997
-4.224 -3.9809999 0.61900002
-4.2249999 -3.9849999 0.597
-4.223 -3.9809999 0.57499999
-4.2249999 -3.9879999 0.55299997
-4.2270002 -3.9920001 0.53100002
-4.23 -3.9979999 0.509
-4.23 -3.9990001 0.48699999
-4.2220001 -3.984 0.46399999
-4.2210002 -3.983 0.442
-4.223 -3.9879999 0.41999999
-4.223 -3.9890001 0.398
-4.2259998 -3.994 0.37599999
-4.2189999 -3.983 0.35299999
-4.2249999 -3.994 0.331
-4.217 -3.98 0.30899999
-4.2150002 -3.977 0.28600001
-4.2030001 -3.9530001 0.26300001
-4.1939998 -3.9360001 0.241
-4.1989999 -3.948 0.219
-4.1859999 -3.921 0.197
-4.178 -3.908 0.17399999
-4.1719999 -3.8959999 0.152
-4.1620002 -3.8770001 0.13
-4.1479998 -3.8499999 0.107
-4.1469998 -3.848 0.086000003
-4.1339998 -3.823 0.063000001
-4.131 -3.819 0.041999999
-4.1230001 -3.803 0.02
-4.2030001 -3.9119999 2.983
-4.2059999 -3.918 2.961
-4.2150002 -3.937 2.9430001
-4.2199998 -3.947 2.9219999
-4.2179999 -3.9430001 2.898
-4.2129998 -3.9349999 2.872
-4.2160001 -3.9419999 2.8510001
-4.2160001 -3.9430001 2.8280001
-4.1069999 -3.7290001 2.7509999
-4.0929999 -3.7030001 2.721
-4.0960002 -3.7079999 2.7
-4.0960002 -3.71 2.678
-4.0970001 -3.7119999 2.655
-4.2069998 -3.9679999 1.5319999
-4.1999998 -3.9530001 1.508
-4.2020001 -3.96 1.4859999
-4.1989999 -3.954 1.4630001
-4.204 -3.9649999 1.442
-4.2069998 -3.9719999 1.42
-4.2080002 -3.9749999 1.398
-4.2020001 -3.964 1.375
-4.2030001 -3.9660001 1.352
-4.1989999 -3.96 1.329
-4.2140002 -3.9879999 1.3099999
-4.2090001 -3.9790001 1.2869999
-4.2010002 -3.9649999 1.263
-4.191 -3.9460001 1.238
-4.1900001 -3.944 1.216
-4.1929998 -3.951 1.194
-4.1960001 -3.9590001 1.173
-4.1880002 -3.9419999 1.149
-4.1789999 -3.9260001 1.125
-4.1929998 -3.9549999 1.1059999
-4.1950002 -3.9590001 1.084
-4.1919999 -3.954 1.061
-4.1950002 -3.96 1.039
-4.204 -3.98 1.0190001
-4.217 -4.006 0.99900001
-4.2010002 -3.974 0.97399998
-4.1989999 -3.971 0.95099998
-4.197 -3.9690001 0.92900002
-4.1999998 -3.9749999 0.90700001
-4.2030001 -3.9809999 0.88499999
-4.2020001 -3.9809999 0.81900001
-4.191 -3.96 0.79500002
-4.198 -3.9749999 0.77399999
-4.1939998 -3.9679999 0.75099999
-4.2010002 -3.9820001 0.73000002
-4.197 -3.9749999 0.70700002
-4.1989999 -3.9809999 0.685
-4.2010002 -3.984 0.66299999
-4.1919999 -3.967 0.63999999
-4.198 -3.98 0.61900002
-4.1999998 -3.9849999 0.597
-4.1939998 -3.973 0.574
-4.1960001 -3.9790001 0.55199999
-4.1960001 -3.9779999 0.52999997
-4.197 -3.9809999 0.50800002
-4.1950002 -3.977 0.486
-4.1989999 -3.987 0.46399999
-4.2020001 -3.993 0.442
-4.1929998 -3.9760001 0.419
-4.1950002 -3.9809999 0.39700001
-4.1929998 -3.977 0.375
-4.1950002 -3.983 0.35299999
-4.1929998 -3.9790001 0.331
-4.1950002 -3.984 0.30899999
-4.1919999 -3.98 0.28600001
-4.1869998 -3.97 0.264
-4.1810002 -3.9579999 0.242
-4.1719999 -3.9400001 0.219
-4.165 -3.928 0.197
-4.1539998 -3.9070001 0.17399999
-4.1500001 -3.9000001 0.152
-4.1420002 -3.8840001 0.13
-4.1350002 -3.872 0.108
-4.1269999 -3.8570001 0.086000003
-4.112 -3.8280001 0.064000003
-4.105 -3.816 0.041999999
-4.0970001 -3.8010001 0.02
-4.1810002 -3.918 2.9820001
-4.1859999 -3.928 2.961
-4.1869998 -3.9300001 2.9389999
-4.1880002 -3.9330001 2.9159999
-4.1900001 -3.938 2.8940001
-4.1929998 -3.9449999 2.8729999
-4.191 -3.9419999 2.849
-4.197 -3.9549999 2.829
-4.184 -3.9300001 2.799
-4.1810002 -3.925 2.7750001
-4.1810002 -3.9260001 2.7520001
-4.1869998 -3.9760001 1.577
-4.177 -3.9579999 1.552
-4.1760001 -3.9560001 1.529
-4.177 -3.9590001 1.507
-4.1830001 -3.97 1.487
-4.1859999 -3.977 1.465
-4.178 -3.9619999 1.441
-4.1739998 -3.9560001 1.4170001
-4.1719999 -3.954 1.395
-4.1799998 -3.97 1.374
-4.1869998 -3.9849999 1.354
-4.1750002 -3.961 1.329
-4.1799998 -3.9719999 1.308
-4.1760001 -3.9649999 1.284
-4.1739998 -3.961 1.262
-4.1820002 -3.9790001 1.2410001
-4.1659999 -3.947 1.215
-4.1719999 -3.961 1.1950001
-4.1729999 -3.9630001 1.173
-4.165 -3.948 1.149
-4.1739998 -3.9660001 1.128
-4.1669998 -3.954 1.105
-4.1729999 -3.9660001 1.084
-4.1669998 -3.9549999 1.0599999
-4.177 -3.9749999 1.04
-4.171 -3.9630001 1.017
-4.1760001 -3.974 0.99599999
-4.178 -3.98 0.97399998
-4.177 -3.977 0.95099998
-4.1700001 -3.9660001 0.92799997
-4.164 -3.954 0.90499997
-4.1799998 -3.987 0.88499999
-4.1700001 -3.9690001 0.81699997
-4.1750002 -3.9790001 0.796
-4.171 -3.9719999 0.773
-4.1760001 -3.9820001 0.75199997
-4.1739998 -3.9779999 0.72899997
-4.1719999 -3.9760001 0.70700002
-4.177 -3.9860001 0.685
-4.1760001 -3.9860001 0.66299999
-4.1799998 -3.993 0.64200002
-4.1739998 -3.983 0.61900002
-4.1729999 -3.9809999 0.59600002
-4.1739998 -3.983 0.574
-4.1690001 -3.9760001 0.55199999
-4.1729999 -3.983 0.52999997
-4.1729999 -3.9849999 0.50800002
-4.1680002 -3.974 0.48500001
-4.171 -3.9820001 0.46399999
-4.1719999 -3.9849999 0.442
-4.1659999 -3.973 0.419
-4.1750002 -3.9909999 0.398
-4.1729999 -3.9879999 0.375
-4.1680002 -3.98 0.35299999
-4.1700001 -3.9849999 0.331
-4.1750002 -3.994 0.30899999
-4.178 -4.0019999 0.287
-4.165 -3.977 0.264
-4.1459999 -3.9400001 0.241
-4.1440001 -3.937 0.219
-4.1339998 -3.9170001 0.197
-4.1220002 -3.895 0.17399999
-4.1220002 -3.8959999 0.152
-4.1240001 -3.8989999 0.131
-4.1079998 -3.869 0.108
-4.092 -3.8380001 0.086000003
-4.0910001 -3.8369999 0.064000003
-4.0830002 -3.822 0.041999999
-4.0739999 -3.8039999 0.02
-4.1630001 -3.931 2.983
-4.1609998 -3.9289999 2.9590001
-4.1630001 -3.9330001 2.937
-4.165 -3.937 2.915
-4.1669998 -3.9419999 2.8929999
-4.164 -3.937 2.868
-4.1680002 -3.9449999 2.8469999
-4.1680002 -3.9460001 2.8239999
-4.1659999 -3.9430001 2.8
-4.1599998 -3.9719999 1.598
-4.1589999 -3.97 1.575
-4.164 -3.9820001 1.554
-4.1490002 -3.9530001 1.528
-4.1570001 -3.9690001 1.508
-4.1529999 -3.9630001 1.485
-4.1630001 -3.983 1.465
-4.1550002 -3.9679999 1.4400001
-4.158 -3.9749999 1.419
-4.1459999 -3.95 1.393
-4.1550002 -3.971 1.374
-4.158 -3.9760001 1.352
-4.1560001 -3.973 1.329
-4.1490002 -3.9590001 1.3049999
-4.1469998 -3.9579999 1.283
-4.1500001 -3.964 1.261
-4.1490002 -3.9619999 1.239
-4.152 -3.9690001 1.217
-4.1550002 -3.9749999 1.196
-4.1469998 -3.9590001 1.1720001
-4.158 -3.9820001 1.152
-4.152 -3.9719999 1.128
-4.1459999 -3.961 1.105
-4.158 -3.9849999 1.085
-4.1469998 -3.9649999 1.061
-4.1529999 -3.9760001 1.04
-4.1550002 -3.9820001 1.018
-4.1539998 -3.9790001 0.99599999
-4.152 -3.9760001 0.97299999
-4.1479998 -3.9690001 0.94999999
-4.1479998 -3.971 0.92799997
-4.1529999 -3.9820001 0.90700001
-4.1490002 -3.974 0.884
-4.1479998 -3.974 0.81699997
-4.1469998 -3.9719999 0.79500002
-4.1469998 -3.973 0.773
-4.1490002 -3.9790001 0.75099999
-4.1479998 -3.9760001 0.72899997
-4.1500001 -3.9820001 0.70700002
-4.1550002 -3.9920001 0.68599999
-4.1529999 -3.9890001 0.66299999
-4.1529999 -3.99 0.64099997
-4.1459999 -3.9779999 0.61799997
-4.1440001 -3.9749999 0.59600002
-4.1529999 -3.994 0.57499999
-4.1490002 -3.9860001 0.55199999
-4.1469998 -3.9820001 0.52999997
-4.1490002 -3.9879999 0.50800002
-4.1469998 -3.984 0.486
-4.1500001 -3.99 0.46399999
-4.1500001 -3.9909999 0.442
-4.145 -3.983 0.419
-4.1500001 -3.993 0.398
-4.1479998 -3.9890001 0.375
-4.152 -3.9990001 0.354
-4.1500001 -3.9949999 0.331
-4.1430001 -3.9820001 0.30899999
-4.1479998 -3.9920001 0.287
-4.1459999 -3.9890001 0.26499999
-4.125 -3.947 0.242
-4.1300001 -3.9579999 0.22
-4.1149998 -3.9289999 0.197
-4.1170001 -3.9330001 0.175
-4.0949998 -3.891 0.153
-4.086 -3.8729999 0.13
-4.0840001 -3.8699999 0.108
-4.072 -3.8469999 0.086000003
-4.0669999 -3.8380001 0.064000003
-4.0679998 -3.8410001 0.043000001
-4.0500002 -3.8050001 0.021
-4.1479998 -3.95 2.9860001
-4.1469998 -3.95 2.9630001
-4.1420002 -3.9389999 2.937
-4.1469998 -3.951 2.9159999
-4.1500001 -3.9579999 2.895
-4.1469998 -3.9519999 2.8699999
-4.1490002 -3.957 2.848
-4.1399999 -3.9389999 2.8199999
-4.1300001 -3.96 1.64
-4.1420002 -3.9849999 1.6210001
-4.1329999 -3.9679999 1.596
-4.132 -3.967 1.574
-4.1329999 -3.9690001 1.552
-4.1339998 -3.9719999 1.53
-4.1350002 -3.974 1.508
-4.1360002 -3.977 1.485
-4.1409998 -3.9879999 1.465
-4.1290002 -3.964 1.439
-4.125 -3.9579999 1.416
-4.1440001 -3.9960001 1.398
-4.1269999 -3.964 1.372
-4.1350002 -3.9790001 1.352
-4.1259999 -3.9630001 1.327
-4.125 -3.961 1.3049999
-4.1300001 -3.9719999 1.284
-4.1329999 -3.9790001 1.262
-4.1290002 -3.9719999 1.239
-4.125 -3.9649999 1.216
-4.1259999 -3.967 1.194
-4.1259999 -3.967 1.1720001
-4.125 -3.967 1.149
-4.132 -3.98 1.1289999
-4.1290002 -3.9749999 1.1059999
-4.1290002 -3.977 1.084
-4.1259999 -3.97 1.061
-4.1259999 -3.9719999 1.039
-4.1290002 -3.9779999 1.017
-4.1360002 -3.994 0.99599999
-4.1279998 -3.977 0.97299999
-4.1170001 -3.957 0.949
-4.1279998 -3.9809999 0.92799997
-4.1259999 -3.977 0.90600002
-4.1220002 -3.97 0.88300002
-4.1300001 -3.9890001 0.81800002
-4.1259999 -3.9809999 0.79500002
-4.1259999 -3.9820001 0.773
-4.1220002 -3.974 0.75099999
-4.131 -3.993 0.73000002
-4.1279998 -3.987 0.70700002
-4.1279998 -3.9890001 0.685
-4.131 -3.9960001 0.66299999
-4.1199999 -3.974 0.63999999
-4.1279998 -3.9909999 0.61900002
-4.1240001 -3.9849999 0.59600002
-4.125 -3.9860001 0.574
-4.118 -3.9719999 0.551
-4.125 -3.987 0.52999997
-4.1230001 -3.984 0.50800002
-4.125 -3.99 0.486
-4.1230001 -3.9860001 0.46399999
-4.1230001 -3.987 0.442
-4.1230001 -3.9879999 0.419
-4.1290002 -4.0009999 0.398
-4.119 -3.9809999 0.375
-4.119 -3.9820001 0.35299999
-4.119 -3.9820001 0.331
-4.125 -3.9960001 0.30899999
-4.1209998 -3.9879999 0.287
-4.1160002 -3.9779999 0.26499999
-4.1040001 -3.9560001 0.242
-4.1090002 -3.9649999 0.22
-4.098 -3.9430001 0.198
-4.0869999 -3.9230001 0.175
-4.0830002 -3.915 0.153
-4.0689998 -3.888 0.131
-4.053 -3.8570001 0.108
-4.053 -3.8570001 0.086999997
-4.0560002 -3.865 0.064999998
-4.0549998 -3.862 0.043000001
-4.0489998 -3.852 0.021
-4.1240001 -3.951 2.984
-4.1279998 -3.96 2.9630001
-4.1339998 -3.974 2.9430001
-4.1269999 -3.961 2.9170001
-4.1209998 -3.948 2.8900001
-4.1259999 -3.9590001 2.8699999
-4.1170001 -3.9430001 2.842
-4.1129999 -3.9749999 1.664
-4.1129999 -3.9760001 1.641
-4.1020002 -3.9530001 1.6160001
-4.1170001 -3.9849999 1.598
-4.1110001 -3.974 1.574
-4.1090002 -3.971 1.551
-4.1110001 -3.9749999 1.529
-4.1100001 -3.974 1.506
-4.1110001 -3.9760001 1.484
-4.1100001 -3.9760001 1.462
-4.1129999 -3.983 1.441
-4.1059999 -3.9690001 1.416
-4.1030002 -3.964 1.393
-4.1079998 -3.974 1.372
-4.1009998 -3.961 1.348
-4.099 -3.9579999 1.326
-4.0910001 -3.9430001 1.302
-4.098 -3.957 1.281
-4.099 -3.9590001 1.2589999
-4.099 -3.96 1.237
-4.099 -3.9619999 1.215
-4.0970001 -3.957 1.192
-4.0999999 -3.9660001 1.171
-4.1069999 -3.9790001 1.15
-4.1040001 -3.974 1.127
-4.099 -3.9649999 1.104
-4.1110001 -3.9909999 1.084
-4.1129999 -3.9949999 1.063
-4.1059999 -3.9820001 1.039
-4.1040001 -3.98 1.017
-4.0999999 -3.9719999 0.99400002
-4.1069999 -3.9879999 0.97299999
-4.1030002 -3.98 0.94999999
-4.1059999 -3.9860001 0.92799997
-4.1040001 -3.984 0.90600002
-4.0999999 -3.9760001 0.88300002
-4.1009998 -3.9779999 0.861
-4.1040001 -3.9860001 0.81699997
-4.1020002 -3.983 0.79500002
-4.105 -3.9879999 0.773
-4.1030002 -3.9849999 0.75099999
-4.099 -3.9779999 0.72799999
-4.1009998 -3.984 0.70700002
-4.1059999 -3.994 0.685
-4.0970001 -3.977 0.662
-4.1090002 -4.0009999 0.64099997
-4.1020002 -3.9890001 0.61799997
-4.1020002 -3.99 0.59600002
-4.0999999 -3.987 0.574
-4.105 -3.997 0.55199999
-4.1030002 -3.993 0.52999997
-4.0970001 -3.9820001 0.50800002
-4.1009998 -3.9909999 0.486
-4.1079998 -4.0050001 0.46399999
-4.1040001 -3.997 0.442
-4.1040001 -3.9979999 0.41999999
-4.1040001 -3.9990001 0.398
-4.1059999 -4.0040002 0.37599999
-4.1020002 -3.9960001 0.35299999
-4.1079998 -4.0100002 0.33199999
-4.1020002 -3.9979999 0.30899999
-4.1110001 -4.0159998 0.28799999
-4.0900002 -3.9749999 0.26499999
-4.086 -3.9679999 0.242
-4.0739999 -3.9449999 0.22
-4.0669999 -3.9319999 0.198
-4.0640001 -3.927 0.175
-4.0570002 -3.9130001 0.153
-4.0630002 -3.9260001 0.132
-4.0640001 -3.928 0.11
-4.0689998 -3.938 0.088
-4.0609999 -3.924 0.066
-4.0619998 -3.9260001 0.044
-4.0570002 -3.9159999 0.022
-4.0929999 -3.9400001 2.9790001
-4.0970001 -3.947 2.957
-4.1040001 -3.9619999 2.938
-4.1020002 -3.9579999 2.914
-4.0819998 -3.961 1.683
-4.0809999 -3.9590001 1.66
-4.085 -3.9690001 1.6390001
-4.0900002 -3.9790001 1.618
-4.0890002 -3.977 1.596
-4.0900002 -3.9820001 1.574
-4.0900002 -3.983 1.552
-4.0799999 -3.9630001 1.526
-4.0840001 -3.9719999 1.505
-4.0869999 -3.9790001 1.484
-4.0809999 -3.9660001 1.46
-4.0809999 -3.967 1.438
-4.0890002 -3.984 1.4170001
-4.0840001 -3.9749999 1.3940001
-4.0840001 -3.9749999 1.372
-4.0830002 -3.974 1.349
-4.0840001 -3.9760001 1.327
-4.0689998 -3.948 1.302
-4.072 -3.954 1.28
-4.0819998 -3.9760001 1.26
-4.072 -3.9549999 1.2359999
-4.0780001 -3.9690001 1.215
-4.0749998 -3.964 1.192
-4.0739999 -3.964 1.17
-4.0780001 -3.9719999 1.149
-4.0749998 -3.9660001 1.126
-4.0679998 -3.9530001 1.102
-4.0760002 -3.97 1.082
-4.0879998 -3.9949999 1.062
-4.0879998 -3.9960001 1.04
-4.0869999 -3.994 1.017
-4.0809999 -3.9820001 0.99400002
-4.085 -3.993 0.97299999
-4.0840001 -3.99 0.94999999
-4.0799999 -3.983 0.92799997
-4.0890002 -4.0019999 0.90700001
-4.0819998 -3.99 0.884
-4.0890002 -4.0029998 0.86299998
-4.085 -3.9960001 0.81800002
-4.079 -3.9849999 0.79500002
-4.0890002 -4.007 0.77399999
-4.079 -3.9860001 0.75099999
-4.086 -4.0009999 0.73000002
-4.0879998 -4.007 0.708
-4.0830002 -3.997 0.685
-4.0819998 -3.9960001 0.66299999
-4.079 -3.9909999 0.63999999
-4.0780001 -3.99 0.61799997
-4.0799999 -3.9949999 0.59600002
-4.0809999 -3.9960001 0.574
-4.0770001 -3.9890001 0.55199999
-4.073 -3.9820001 0.52899998
-4.0780001 -3.993 0.50800002
-4.0809999 -4.0009999 0.486
-4.0809999 -4.0019999 0.46399999
-4.0819998 -4.0019999 0.442
-4.0840001 -4.0079999 0.41999999
-4.0780001 -3.9960001 0.398
-4.0819998 -4.0050001 0.37599999
-4.0760002 -3.993 0.35299999
-4.0780001 -3.9990001 0.33199999
-4.0819998 -4.007 0.31
-4.0819998 -4.0079999 0.28799999
-4.0710001 -3.9860001 0.26499999
-4.0679998 -3.9820001 0.243
-4.072 -3.99 0.221
-4.0669999 -3.9820001 0.199
-4.072 -3.9920001 0.177
-4.0799999 -4.0100002 0.155
-4.0710001 -3.99 0.133
-4.0749998 -4 0.111
-4.073 -3.9960001 0.089000002
-4.0749998 -4.0009999 0.067000002
-4.0739999 -4.0009999 0.045000002
-4.0770001 -4.006 0.023
-4.0749998 -3.951 2.98
-4.0770001 -3.9560001 2.9579999
-4.0700002 -3.944 2.931
-4.073 -3.95 2.9089999
-4.0689998 -3.983 1.73
-4.0640001 -3.974 1.706
-4.066 -3.9790001 1.684
-4.0640001 -3.9760001 1.6619999
-4.0679998 -3.983 1.64
-4.066 -3.9820001 1.618
-4.0650001 -3.98 1.595
-4.0679998 -3.987 1.574
-4.0669999 -3.9849999 1.551
-4.0619998 -3.9749999 1.527
-4.066 -3.984 1.506
-4.0609999 -3.9749999 1.482
-4.0599999 -3.973 1.46
-4.0570002 -3.9679999 1.437
-4.066 -3.9879999 1.4170001
-4.0689998 -3.994 1.395
-4.0630002 -3.983 1.372
-4.066 -3.99 1.35
-4.0599999 -3.9779999 1.327
-4.0630002 -3.9860001 1.3049999
-4.052 -3.964 1.28
-4.0440001 -3.948 1.256
-4.0500002 -3.96 1.235
-4.046 -3.954 1.2130001
-4.0479999 -3.9590001 1.191
-4.0359998 -3.9349999 1.166
-4.033 -3.9289999 1.143
-4.0549998 -3.9749999 1.126
-4.0510001 -3.967 1.103
-4.0450001 -3.9560001 1.08
-4.0500002 -3.967 1.059
-4.0739999 -4.0170002 1.041
-4.0679998 -4.0040002 1.018
-4.0570002 -3.983 0.99400002
-4.0599999 -3.9890001 0.972
-4.0619998 -3.9949999 0.94999999
-4.0580001 -3.9879999 0.92799997
-4.053 -3.977 0.90499997
-4.0560002 -3.987 0.88300002
-4.053 -3.9809999 0.861
-4.0560002 -3.9890001 0.79500002
-4.0560002 -3.99 0.773
-4.0549998 -3.9879999 0.75099999
-4.0549998 -3.9890001 0.72899997
-4.0549998 -3.9909999 0.70599997
-4.0539999 -3.9879999 0.68400002
-4.0560002 -3.993 0.662
-4.052 -3.9860001 0.63999999
-4.052 -3.987 0.61799997
-4.0539999 -3.9920001 0.59600002
-4.0599999 -4.0029998 0.57499999
-4.0479999 -3.98 0.551
-4.0570002 -3.9990001 0.52999997
-4.053 -3.9920001 0.50800002
-4.0570002 -4.0009999 0.486
-4.0580001 -4.0029998 0.46399999
-4.0599999 -4.0079999 0.442
-4.0539999 -3.9979999 0.41999999
-4.0510001 -3.9920001 0.39700001
-4.0489998 -3.9879999 0.375
-4.0510001 -3.993 0.35299999
-4.0539999 -3.9990001 0.33199999
-4.0580001 -4.0079999 0.31
-4.0539999 -4.0009999 0.28799999
-4.0510001 -3.997 0.26499999
-4.0549998 -4.0050001 0.243
-4.0510001 -3.9979999 0.221
-4.0570002 -4.0110002 0.2
-4.059 -4.0139999 0.178
-4.053 -4.0029998 0.155
-4.0510001 -4 0.133
-4.0549998 -4.0089998 0.111
-4.053 -4.0050001 0.089000002
-4.0570002 -4.0149999 0.067000002
-4.0650001 -4.0320001 0.045000002
-4.0570002 -4.0149999 0.023
-4.0450001 -3.941 2.9749999
-4.0469999 -3.9460001 2.9530001
-4.0440001 -3.9809999 1.751
-4.0500002 -3.9949999 1.7309999
-4.0380001 -3.97 1.704
-4.0419998 -3.9790001 1.683
-4.0419998 -3.9809999 1.661
-4.0409999 -3.98 1.6390001
-4.0440001 -3.987 1.617
-4.0450001 -3.99 1.595
-4.0430002 -3.9849999 1.572
-4.0409999 -3.9820001 1.549
-4.0419998 -3.984 1.527
-4.0380001 -3.9779999 1.5039999
-4.0409999 -3.9849999 1.483
-4.04 -3.983 1.46
-4.0430002 -3.99 1.439
-4.0440001 -3.9920001 1.4170001
-4.0380001 -3.9820001 1.393
-4.0409999 -3.9879999 1.372
-4.0359998 -3.9779999 1.348
-4.0430002 -3.993 1.3279999
-4.0419998 -3.993 1.3049999
-4.0380001 -3.9849999 1.2819999
-4.0300002 -3.9690001 1.258
-4.0219998 -3.9530001 1.234
-4.02 -3.951 1.211
-4.0219998 -3.957 1.1900001
-4.02 -3.9530001 1.1670001
-4.0240002 -3.9619999 1.146
-4.0229998 -3.96 1.124
-4.026 -3.9679999 1.103
-4.02 -3.9560001 1.079
-4.027 -3.97 1.058
-4.0300002 -3.977 1.0369999
-4.0469999 -4.013 1.018
-4.0240002 -3.967 0.99199998
-4.0349998 -3.99 0.972
-4.0380001 -3.9960001 0.94999999
-4.0320001 -3.9849999 0.92699999
-4.0279999 -3.9779999 0.90399998
-4.0349998 -3.9920001 0.88300002
-4.0349998 -3.994 0.861
-4.0380001 -4.0029998 0.796
-4.0300002 -3.987 0.77200001
-4.039 -4.006 0.75099999
-4.0310001 -3.99 0.72799999
-4.04 -4.0079999 0.70700002
-4.0339999 -3.997 0.685
-4.0250001 -3.9809999 0.66100001
-4.0320001 -3.9949999 0.63999999
-4.0320001 -3.9960001 0.61799997
-4.0279999 -3.9890001 0.59600002
-4.0349998 -4.0029998 0.574
-4.0279999 -3.9909999 0.55199999
-4.0310001 -3.997 0.52999997
-4.0310001 -3.9979999 0.50800002
-4.0380001 -4.0120001 0.48699999
-4.0310001 -4 0.46399999
-4.0310001 -4 0.442
-4.0339999 -4.006 0.41999999
-4.0339999 -4.007 0.398
-4.0250001 -3.99 0.375
-4.0310001 -4.0029998 0.354
-4.027 -3.9960001 0.331
-4.0250001 -3.9920001 0.30899999
-4.0289998 -4.0019999 0.28799999
-4.0339999 -4.0110002 0.266
-4.0289998 -4.0029998 0.244
-4.0419998 -4.0289998 0.222
-4.0310001 -4.0079999 0.2
-4.033 -4.013 0.178
-4.0310001 -4.0089998 0.156
-4.0310001 -4.0100002 0.134
-4.033 -4.0149999 0.112
-4.0349998 -4.02 0.090000004
-4.0310001 -4.0110002 0.067000002
-4.0370002 -4.0250001 0.046
-4.0320001 -4.0159998 0.023
-4.0240002 -3.9879999 1.796
-4.0219998 -3.9849999 1.773
-4.0159998 -3.9749999 1.749
-4.0219998 -3.987 1.728
-4.0229998 -3.99 1.706
-4.0229998 -3.9909999 1.684
-4.0180001 -3.9820001 1.66
-4.0190001 -3.9849999 1.638
-4.0180001 -3.983 1.6160001
-4.0209999 -3.9909999 1.594
-4.0170002 -3.9820001 1.571
-4.0229998 -3.9960001 1.55
-4.0190001 -3.99 1.527
-4.0159998 -3.983 1.5039999
-4.0229998 -3.9990001 1.484
-4.02 -3.993 1.461
-4.0180001 -3.9890001 1.438
-4.0240002 -4.0019999 1.4170001
-4.0180001 -3.9909999 1.393
-4.0170002 -3.9890001 1.3710001
-4.0219998 -4.0009999 1.35
-4.02 -3.9990001 1.327
-4.0120001 -3.983 1.303
-4.0170002 -3.994 1.2819999
-4.006 -3.9719999 1.258
-4.007 -3.9749999 1.2359999
-3.9990001 -3.9579999 1.212
-4.006 -3.973 1.191
-4.0019999 -3.9660001 1.168
-3.9949999 -3.9530001 1.145
-3.9949999 -3.9530001 1.122
-4 -3.9649999 1.102
-4 -3.9649999 1.08
-4.007 -3.9809999 1.059
-3.9979999 -3.9630001 1.035
-4 -3.9679999 1.013
-4.0040002 -3.9760001 0.99199998
-4.007 -3.983 0.97000003
-4.02 -4.0100002 0.95099998
-4.0120001 -3.9949999 0.92699999
-4.013 -3.997 0.90499997
-4.0170002 -4.006 0.884
-4.0089998 -3.9909999 0.861
-4.0180001 -4.013 0.796
-4.0079999 -3.9920001 0.77200001
-4.013 -4.0029998 0.75099999
-4.0089998 -3.9949999 0.72799999
-4.0139999 -4.006 0.70700002
-4.0120001 -4.0019999 0.685
-4.0159998 -4.013 0.66299999
-4.0170002 -4.0139999 0.64099997
-4.0079999 -3.997 0.61799997
-4.0110002 -4.0029998 0.59600002
-4.006 -3.9949999 0.574
-4.007 -3.9960001 0.55199999
-4.0040002 -3.993 0.52999997
-4.0110002 -4.006 0.50800002
-4.007 -3.9990001 0.486
-4.0089998 -4.0050001 0.46399999
-4.0120001 -4.0100002 0.442
-4.0050001 -3.9979999 0.41999999
-4.0100002 -4.007 0.398
-4.0120001 -4.013 0.37599999
-4.007 -4.0050001 0.354
-4.0100002 -4.0100002 0.33199999
-4.007 -4.006 0.31
-4.0100002 -4.0110002 0.28799999
-4.0180001 -4.0300002 0.266
-4.0139999 -4.0209999 0.244
-4.0180001 -4.0310001 0.222
-4.0139999 -4.0229998 0.2
-4.0089998 -4.0139999 0.178
-4.0159998 -4.0279999 0.156
-4.013 -4.0240002 0.134
-4.0089998 -4.0159998 0.112
-4.0089998 -4.0159998 0.090000004
-4.006 -4.0120001 0.068000004
-4.0079999 -4.0170002 0.046
-4.0100002 -4.0219998 0.024
-4.007 -4.0029998 1.8200001
-4.006 -4.0029998 1.7970001
-4.0079999 -4.006 1.775
-4.0029998 -3.9979999 1.751
-4.007 -4.007 1.73
-4.006 -4.006 1.7079999
-4.0019999 -4 1.684
-4.0040002 -4.0029998 1.6619999
-4.0009999 -3.9979999 1.6390001
-4.0110002 -4.0209999 1.62
-4.0009999 -3.9990001 1.595
-4.0029998 -4.0050001 1.573
-4.0040002 -4.007 1.551
-4.0139999 -4.0300002 1.5319999
-4.0009999 -4.0040002 1.506
-4.0050001 -4.0120001 1.484
-4.0050001 -4.013 1.462
-4 -4.0019999 1.439
-4.0029998 -4.0100002 1.4170001
-3.9990001 -4.0019999 1.3940001
-4.0009999 -4.007 1.372
-3.9949999 -3.9960001 1.349
-3.997 -4.0009999 1.327
-3.9979999 -4.0029998 1.3049999
-4 -4.0089998 1.283
-3.9979999 -4.006 1.261
-4.0050001 -4.02 1.24
-3.9879999 -3.9860001 1.214
-3.9779999 -3.9660001 1.1900001
-3.9760001 -3.9630001 1.1670001
-3.9760001 -3.964 1.145
-3.98 -3.973 1.124
-3.971 -3.9549999 1.1
-3.983 -3.98 1.08
-3.9790001 -3.9719999 1.057
-3.9719999 -3.96 1.034
-3.9790001 -3.9749999 1.0140001
-3.974 -3.9649999 0.991
-3.977 -3.973 0.96899998
-3.98 -3.9779999 0.94700003
-3.9860001 -3.9909999 0.92699999
-3.997 -4.0139999 0.90600002
-3.9890001 -3.9990001 0.88300002
-3.993 -4.0079999 0.86199999
-3.9949999 -4.0139999 0.796
-3.9949999 -4.0159998 0.77399999
-3.993 -4.013 0.75099999
-3.9849999 -3.9960001 0.72799999
-3.99 -4.007 0.70700002
-3.993 -4.0139999 0.685
-3.997 -4.0229998 0.66399997
-3.994 -4.0170002 0.64099997
-3.994 -4.0190001 0.61900002
-3.9990001 -4.0300002 0.59799999
-3.997 -4.027 0.57499999
-3.9979999 -4.0279999 0.55299997
-4.0040002 -4.0419998 0.53200001
-4.0029998 -4.04 0.50999999
-3.994 -4.0229998 0.48699999
-3.9920001 -4.0190001 0.465
-3.993 -4.0229998 0.44299999
-3.993 -4.0219998 0.421
-3.987 -4.0110002 0.398
-3.99 -4.0190001 0.37599999
-3.9979999 -4.0349998 0.35499999
-3.9920001 -4.0240002 0.333
-3.9920001 -4.026 0.31099999
-3.99 -4.0219998 0.28799999
-4.0009999 -4.0440001 0.26699999
-3.987 -4.0170002 0.244
-3.997 -4.0380001 0.223
-3.993 -4.0300002 0.2
-4 -4.0450001 0.17900001
-4.0009999 -4.0510001 0.15700001
-3.994 -4.0370002 0.134
-3.9960001 -4.0419998 0.112
-3.9890001 -4.0279999 0.090000004
-3.997 -4.0440001 0.068000004
-3.9920001 -4.0349998 0.046
-3.9960001 -4.0430002 0.024
-4.0180001 -4.0749998 1.876
-4.013 -4.0650001 1.851
-4.0110002 -4.0619998 1.8279999
-4.0079999 -4.0570002 1.8049999
-4.0159998 -4.0739999 1.785
-4.0110002 -4.0650001 1.761
-4.013 -4.0700002 1.739
-4.0110002 -4.066 1.716
-4.0050001 -4.0549998 1.692
-4.006 -4.0570002 1.669
-4.0120001 -4.0700002 1.649
-4.0120001 -4.0710001 1.626
-4.0120001 -4.0739999 1.604
-4.0120001 -4.073 1.582
-4.0079999 -4.0669999 1.558
-4.0100002 -4.072 1.5369999
-4.0139999 -4.0809999 1.515
-4.013 -4.0780001 1.493
-4.0040002 -4.0599999 1.4680001
-4.0050001 -4.0650001 1.446
-4.0050001 -4.0650001 1.423
-4.013 -4.0809999 1.403
-4.0079999 -4.072 1.38
-4.0029998 -4.0640001 1.3559999
-4.0050001 -4.0689998 1.334
-4.0019999 -4.0630002 1.311
-4.0040002 -4.0679998 1.289
-4.0009999 -4.0619998 1.266
-4.0019999 -4.0650001 1.244
-3.9879999 -4.0359998 1.219
-3.9690001 -3.9979999 1.192
-3.9549999 -3.97 1.1670001
-3.95 -3.961 1.1440001
-3.9530001 -3.967 1.123
-3.96 -3.9820001 1.102
-3.9560001 -3.9749999 1.079
-3.9519999 -3.9679999 1.056
-3.9619999 -3.9879999 1.036
-3.9530001 -3.971 1.013
-3.9590001 -3.9849999 0.99199998
-3.9489999 -3.964 0.96799999
-3.9579999 -3.984 0.94800001
-3.9489999 -3.9649999 0.92400002
-3.9619999 -3.993 0.90399998
-4 -4.072 0.889
-3.9990001 -4.0710001 0.866
-4.0009999 -4.0780001 0.80000001
-4.007 -4.092 0.77899998
-3.9979999 -4.072 0.755
-4.006 -4.0900002 0.73400003
-3.997 -4.072 0.71100003
-4.0029998 -4.086 0.69
-4.0009999 -4.0809999 0.667
-3.9949999 -4.0710001 0.64399999
-3.9949999 -4.0700002 0.62199998
-4 -4.0819998 0.60000002
-3.9960001 -4.0749998 0.57800001
-4 -4.0840001 0.55599999
-3.99 -4.0640001 0.53299999
-3.9979999 -4.0799999 0.51200002
-3.9979999 -4.0809999 0.49000001
-3.9960001 -4.0780001 0.46700001
-4.0009999 -4.0900002 0.44600001
-3.9909999 -4.0710001 0.42300001
-3.994 -4.0770001 0.40099999
-3.9979999 -4.0869999 0.37900001
-3.9960001 -4.0830002 0.35699999
-3.997 -4.086 0.33500001
-4 -4.0939999 0.31299999
-4.0009999 -4.0960002 0.29100001
-4 -4.0949998 0.26800001
-4.0029998 -4.1020002 0.24600001
-3.9979999 -4.092 0.22400001
-4.0029998 -4.1030002 0.20200001
-3.9960001 -4.0890002 0.18000001
-4.007 -4.112 0.15800001
-3.9990001 -4.098 0.13600001
-4.007 -4.1149998 0.114
-3.997 -4.0949998 0.090999998
-4.0029998 -4.1069999 0.068999998
-3.9990001 -4.099 0.046999998
-3.9979999 -4.099 0.025
-4.0250001 -4.1399999 1.908
-4.0159998 -4.1240001 1.883
-4.0170002 -4.125 1.86
-4.0170002 -4.1259999 1.837
-4.013 -4.1199999 1.814
-4.0190001 -4.132 1.793
-4.0170002 -4.1300001 1.77
-4.0190001 -4.1329999 1.748
-4.0170002 -4.1300001 1.725
-4.0089998 -4.1139998 1.7
-4.0149999 -4.1290002 1.679
-4.0159998 -4.131 1.6569999
-4.0159998 -4.131 1.6339999
-4.013 -4.1269999 1.6109999
-4.0159998 -4.1339998 1.589
-4.0139999 -4.1290002 1.566
-4.0100002 -4.1230001 1.543
-4.0100002 -4.1240001 1.52
-4.0159998 -4.1350002 1.499
-4.0180001 -4.1420002 1.478
-4.02 -4.145 1.455
-4.0190001 -4.1440001 1.433
-4.0089998 -4.1240001 1.408
-4.0159998 -4.1399999 1.387
-4.0079999 -4.1230001 1.363
-4.0079999 -4.1240001 1.34
-4.007 -4.1230001 1.318
-4.0180001 -4.1469998 1.298
-4.0100002 -4.131 1.274
-4.0079999 -4.1290002 1.251
-4.0079999 -4.1290002 1.228
-3.96 -4.0300002 1.1950001
-3.9489999 -4.0089998 1.171
-3.9330001 -3.977 1.145
-3.928 -3.967 1.122
-3.9260001 -3.9630001 1.1
-3.9319999 -3.9749999 1.079
-3.9319999 -3.977 1.057
-3.9260001 -3.9649999 1.034
-3.9289999 -3.9719999 1.012
-3.9319999 -3.9779999 0.991
-3.9300001 -3.9749999 0.96799999
-3.931 -3.977 0.94599998
-3.9300001 -3.9760001 0.92400002
-3.9289999 -3.9760001 0.90200001
-3.9300001 -3.9779999 0.88
-4.0019999 -4.1279998 0.87
-4.0050001 -4.138 0.80400002
-4.0079999 -4.1440001 0.78200001
-4.0029998 -4.1350002 0.759
-3.9979999 -4.125 0.736
-4.0089998 -4.1490002 0.71600002
-4.0009999 -4.1329999 0.69199997
-4.006 -4.1430001 0.671
-3.9990001 -4.1290002 0.64700001
-3.9990001 -4.1300001 0.625
-4.006 -4.1459999 0.60399997
-4.0139999 -4.1620002 0.583
-4.0050001 -4.1459999 0.55900002
-4.0120001 -4.1599998 0.53799999
-4.007 -4.1500001 0.51499999
-4.0040002 -4.1459999 0.493
-4.0040002 -4.1459999 0.47
-4.013 -4.1659999 0.449
-4.0050001 -4.151 0.426
-4.006 -4.1529999 0.40400001
-4.0149999 -4.1739998 0.382
-3.9979999 -4.1389999 0.359
-4.0029998 -4.1500001 0.33700001
-4.0029998 -4.1500001 0.315
-4.0019999 -4.1479998 0.292
-4.0079999 -4.1630001 0.27000001
-4.007 -4.1609998 0.248
-4.0050001 -4.1570001 0.226
-4.0079999 -4.164 0.204
-4.0019999 -4.1529999 0.18099999
-4.006 -4.1630001 0.15899999
-4.0170002 -4.1849999 0.13699999
-4.0120001 -4.1760001 0.115
-4.0110002 -4.1739998 0.092
-4.0100002 -4.1739998 0.07
-4.0019999 -4.158 0.048
-4.0040002 -4.1620002 0.026000001
-4.0190001 -4.1799998 1.936
-4.0229998 -4.1890001 1.915
-4.0219998 -4.1869998 1.892
-4.0190001 -4.1799998 1.868
-4.0149999 -4.1750002 1.844
-4.0079999 -4.1609998 1.819
-4.0180001 -4.1820002 1.8
-4.0190001 -4.184 1.777
-4.0180001 -4.1820002 1.7539999
-4.013 -4.1729999 1.73
-4.0159998 -4.1799998 1.709
-4.0110002 -4.171 1.684
-4.0320001 -4.2150002 1.668
-4.1279998 -4.4159999 1.675
-4.04 -4.237 1.535
-4.0310001 -4.2179999 1.51
-4.0300002 -4.217 1.487
-4.0310001 -4.2210002 1.464
-4.0139999 -4.1859999 1.437
-4.0139999 -4.1869998 1.415
-4.0149999 -4.1900001 1.393
-4.0139999 -4.1890001 1.37
-4.013 -4.1859999 1.347
-4.0180001 -4.1989999 1.326
-4.0149999 -4.1919999 1.302
-4.0180001 -4.1989999 1.281
-4.0159998 -4.1960001 1.258
-4.0139999 -4.191 1.235
-4.007 -4.1789999 1.211
-3.9449999 -4.0510001 1.175
-3.941 -4.0430002 1.151
-3.921 -4.0019999 1.125
-3.9030001 -3.9649999 1.099
-3.908 -3.9760001 1.0779999
-3.904 -3.9690001 1.0549999
-3.9000001 -3.9619999 1.033
-3.9059999 -3.974 1.012
-3.908 -3.9790001 0.99000001
-3.905 -3.973 0.96799999
-3.904 -3.973 0.94599998
-3.904 -3.973 0.92400002
-3.905 -3.977 0.90200001
-3.9100001 -3.987 0.88099998
-3.9119999 -3.993 0.85900003
-4.0120001 -4.204 0.80900002
-4.0110002 -4.2020001 0.78600001
-4.0079999 -4.1960001 0.76300001
-4.0040002 -4.1869998 0.74000001
-4.0089998 -4.2010002 0.71899998
-4.006 -4.1939998 0.69599998
-4.0110002 -4.2049999 0.67400002
-4.0100002 -4.204 0.65200001
-4.006 -4.1960001 0.62900001
-4.0170002 -4.2199998 0.60799998
-4.006 -4.1999998 0.58399999
-4.0159998 -4.2199998 0.56300002
-4.0079999 -4.204 0.54000002
-4.0159998 -4.2210002 0.51800001
-4.0159998 -4.223 0.49599999
-4.006 -4.2030001 0.47299999
-4.0079999 -4.2080002 0.45100001
-4.0100002 -4.2129998 0.428
-4.0029998 -4.198 0.405
-4.0040002 -4.2020001 0.38299999
-4.0040002 -4.204 0.361
-4.0159998 -4.2290001 0.33899999
-4.0079999 -4.2119999 0.317
-4.0079999 -4.2140002 0.294
-4.0110002 -4.2210002 0.27200001
-4.0100002 -4.2189999 0.25
-4.0089998 -4.2179999 0.227
-4.0100002 -4.2199998 0.205
-4.006 -4.2119999 0.182
-4.0100002 -4.2220001 0.16
-4.0029998 -4.2090001 0.138
-4.0089998 -4.2210002 0.116
-4.0149999 -4.2340002 0.093000002
-4.02 -4.2449999 0.071000002
-4.0110002 -4.2280002 0.048999999
-4.0120001 -4.23 0.026000001
-3.9300001 -4.072 1.154
-3.911 -4.0320001 1.128
-3.895 -4 1.102
-3.882 -3.974 1.077
-3.8859999 -3.983 1.056
-3.8829999 -3.9760001 1.034
-3.8829999 -3.9779999 1.012
-3.8789999 -3.97 0.98900002
-3.8770001 -3.9679999 0.96700001
-3.8800001 -3.974 0.94499999
-3.8759999 -3.967 0.92299998
-3.875 -3.9660001 0.90100002
-3.882 -3.9809999 0.88
-3.8829999 -3.983 0.85799998
-3.8729999 -3.9649999 0.79100001
-3.9089999 -4.0799999 1.132
-3.8970001 -4.0539999 1.107
-3.8759999 -4.0120001 1.081
-3.865 -3.9890001 1.056
-3.8559999 -3.971 1.033
-3.8629999 -3.987 1.012
-3.8659999 -3.993 0.991
-3.8559999 -3.9719999 0.96700001
-3.869 -4.0009999 0.94700003
-3.8529999 -3.9690001 0.92199999
-3.859 -3.9820001 0.90200001
-3.855 -3.9749999 0.87900001
-3.8570001 -3.9790001 0.85699999
-3.858 -3.9849999 0.792
-3.855 -3.9779999 0.76899999
-3.8840001 -4.079 1.109
-3.875 -4.0609999 1.085
-3.8629999 -4.0349998 1.0599999
-3.8429999 -3.9949999 1.034
-3.8329999 -3.9749999 1.01
-3.8329999 -3.9749999 0.98799998
-3.8299999 -3.9679999 0.96600002
-3.8299999 -3.97 0.94400001
-3.8299999 -3.9719999 0.92199999
-3.839 -3.9909999 0.90200001
-3.8299999 -3.973 0.87800002
-3.8280001 -3.9690001 0.85600001
-3.8310001 -3.977 0.79100001
-3.835 -3.987 0.76999998
-3.8310001 -3.9790001 0.74699998
-3.8269999 -3.9719999 0.72500002
-3.8180001 -3.9530001 0.70200002
-3.8540001 -4.0679998 1.063
-3.839 -4.0359998 1.038
-3.823 -4.0040002 1.013
-3.809 -3.9760001 0.98799998
-3.812 -3.9820001 0.96700001
-3.809 -3.977 0.94400001
-3.8110001 -3.9809999 0.92299998
-3.8150001 -3.9920001 0.90100002
-3.816 -3.993 0.88
-3.812 -3.9860001 0.85699999
-3.809 -3.9809999 0.79100001
-3.8110001 -3.987 0.76899999
-3.8139999 -3.993 0.74800003
-3.816 -3.9979999 0.72600001
-3.846 -4.1030002 1.044
-3.819 -4.046 1.016
-3.802 -4.0100002 0.991
-3.7850001 -3.9749999 0.96499997
-3.7850001 -3.977 0.94400001
-3.789 -3.9860001 0.92299998
-3.7869999 -3.983 0.89999998
-3.783 -3.9749999 0.87800002
-3.7820001 -3.973 0.85600001
-3.7880001 -3.9879999 0.79100001
-3.783 -3.9790001 0.76800001
-3.7880001 -3.9890001 0.74699998
-3.7880001 -3.99 0.72600001
-3.789 -3.993 0.704
-3.78 -3.9760001 0.68099999
-3.809 -4.0760002 1.018
-3.8099999 -4.079 0.99599999
-3.7920001 -4.0409999 0.97100002
-3.7750001 -4.0050001 0.94599998
-3.7650001 -3.9860001 0.92199999
-3.7650001 -3.9860001 0.89999998
-3.7679999 -3.994 0.87900001
-3.7620001 -3.9820001 0.85600001
-3.7650001 -3.9909999 0.79100001
-3.76 -3.98 0.76800001
-3.7639999 -3.9890001 0.74699998
-3.7639999 -3.99 0.72500002
-3.7620001 -3.987 0.70300001
-3.763 -3.9890001 0.68099999
-3.7650001 -3.994 0.66000003
-3.786 -4.0799999 0.97399998
-3.773 -4.0539999 0.94999999
-3.7490001 -4.0019999 0.92299998
-3.737 -3.977 0.89899999
-3.7460001 -3.9960001 0.87900001
-3.7449999 -3.9949999 0.85699999
-3.7409999 -3.9909999 0.79100001
-3.7420001 -3.9920001 0.76899999
-3.74 -3.99 0.74699998
-3.7409999 -3.9909999 0.72500002
-3.74 -3.9909999 0.70300001
-3.7409999 -3.994 0.68099999
-3.737 -3.9860001 0.65899998
-3.7390001 -3.9909999 0.63800001
-3.7709999 -4.1009998 0.95300001
-3.7460001 -4.0479999 0.92699999
-3.7320001 -4.0180001 0.90200001
-3.71 -3.971 0.87599999
-3.7190001 -3.993 0.85600001
-3.7219999 -4 0.79100001
-3.7219999 -4.0009999 0.76899999
-3.717 -3.9909999 0.74699998
-3.717 -3.9920001 0.72500002
-3.723 -4.006 0.704
-3.723 -4.007 0.68199998
-3.717 -3.9949999 0.66000003
-3.72 -4.0009999 0.63800001
-3.7219999 -4.007 0.616
-3.74 -4.0869999 0.93000001
-3.7290001 -4.0640001 0.90499997
-3.7130001 -4.0289998 0.88099998
-3.694 -3.99 0.85600001
-3.6919999 -3.987 0.79000002
-3.6919999 -3.9890001 0.76800001
-3.697 -3.9990001 0.74699998
-3.6930001 -3.9920001 0.72500002
-3.6930001 -3.993 0.70300001
-3.6930001 -3.9949999 0.68099999
-3.6889999 -3.9879999 0.65899998
-3.6889999 -3.9890001 0.63700002
-3.698 -4.007 0.616
-3.691 -3.994 0.59399998
-3.687 -3.9860001 0.57099998
-3.7219999 -4.1030002 0.90799999
-3.7079999 -4.0739999 0.884
-3.694 -4.0430002 0.85900003
-3.6670001 -3.9860001 0.78899997
-3.6700001 -3.994 0.76800001
-3.668 -3.9909999 0.74599999
-3.671 -3.997 0.72500002
-3.6689999 -3.994 0.70300001
-3.6619999 -3.9790001 0.68000001
-3.6670001 -3.9920001 0.65899998
-3.668 -3.993 0.63700002
-3.664 -3.9860001 0.61500001
-3.6760001 -4.013 0.59500003
-3.668 -3.997 0.57200003
-3.668 -3.997 0.55000001
-3.691 -4.0879998 0.86299998
-3.638 -3.9760001 0.78799999
-3.6440001 -3.99 0.76800001
-3.6470001 -3.9960001 0.74599999
-3.6389999 -3.9790001 0.72299999
-3.6429999 -3.99 0.70200002
-3.645 -3.9949999 0.68099999
-3.6459999 -3.997 0.65899998
-3.652 -4.0120001 0.63800001
-3.645 -3.9990001 0.616
-3.642 -3.9909999 0.59299999
-3.6440001 -3.997 0.57200003
-3.6459999 -4.0029998 0.55000001
-3.6500001 -4.0120001 0.52899998
-3.638 -4.0289998 0.792
-3.619 -3.9879999 0.76700002
-3.619 -3.99 0.745
-3.622 -3.997 0.72399998
-3.6229999 -3.9990001 0.70200002
-3.6270001 -4.0089998 0.68099999
-3.6170001 -3.9879999 0.65799999
-3.625 -4.007 0.63800001
-3.6199999 -3.9960001 0.61500001
-3.618 -3.9909999 0.59299999
-3.618 -3.9920001 0.57099998
-3.6229999 -4.0050001 0.55000001
-3.6199999 -3.9990001 0.528
-3.6270001 -4.0149999 0.50700003
-3.622 -4.0040002 0.48500001
-3.6389999 -4.085 0.796
-3.6210001 -4.046 0.77100003
-3.5999999 -4.0019999 0.74599999
-3.5940001 -3.9879999 0.72299999
-3.5929999 -3.9879999 0.70200002
-3.592 -3.987 0.68000001
-3.6010001 -4.006 0.65899998
-3.5899999 -3.983 0.63599998
-3.592 -3.9879999 0.61500001
-3.5929999 -3.9909999 0.59299999
-3.5940001 -3.994 0.57099998
-3.596 -3.9979999 0.55000001
-3.599 -4.006 0.52899998
-3.602 -4.0139999 0.50700003
-3.598 -4.006 0.48500001
-3.596 -4.0029998 0.463
-3.6170001 -4.0910001 0.77399999
-3.6010001 -4.0560002 0.75
-3.586 -4.0240002 0.72600001
-3.5739999 -3.9990001 0.70200002
-3.5769999 -4.0050001 0.68099999
-3.5769999 -4.006 0.65899998
-3.579 -4.0120001 0.63800001
-3.575 -4.0040002 0.61500001
-3.573 -4 0.59299999
-3.5739999 -4.0009999 0.57200003
-3.572 -3.9979999 0.55000001
-3.5780001 -4.013 0.52899998
-3.575 -4.007 0.50700003
-3.5699999 -3.997 0.48500001
-3.5739999 -4.007 0.463
-3.5739999 -4.0079999 0.442
-3.612 -4.1350002 0.755
-3.579 -4.0619998 0.72799999
-3.5669999 -4.0370002 0.704
-3.5510001 -4.0019999 0.68000001
-3.55 -4.0009999 0.65799999
-3.5510001 -4.0019999 0.63700002
-3.543 -3.9849999 0.61400002
-3.5550001 -4.0139999 0.59399998
-3.549 -4.0009999 0.57200003
-3.553 -4.0120001 0.55000001
-3.5510001 -4.0079999 0.528
-3.5480001 -4 0.50599998
-3.556 -4.0190001 0.486
-3.5480001 -4.0019999 0.463
