ply
format ascii 1.0
comment PCL generated
element vertex 1783
property float x
property float y
property float z
element camera 0
property float view_px
property float view_py
property float view_pz
property float x_axisx
property float x_axisy
property float x_axisz
property float y_axisx
property float y_axisy
property float y_axisz
property float z_axisx
property float z_axisy
property float z_axisz
property float focal
property float scalex
property float scaley
property float centerx
property float centery
property int viewportx
property int viewporty
property float k1
property float k2
end_header
-13.936 -2.1270001 0.52899998
-13.937 -2.125 0.52200001
-13.937 -2.1259999 0.51599997
-13.943 -2.108 0.50599998
-13.935 -2.1329999 0.505
-13.936 -2.1289999 0.49700001
-13.938 -2.125 0.49000001
-13.939 -2.1210001 0.48300001
-13.939 -2.1210001 0.477
-13.939 -2.1240001 0.47099999
-13.944 -2.1099999 0.46200001
-13.94 -2.1199999 0.458
-13.943 -2.1110001 0.44999999
-13.934 -2.1389999 0.449
-13.941 -2.118 0.43900001
-13.931 -2.1470001 0.43700001
-13.939 -2.1259999 0.428
-13.938 -2.1289999 0.42199999
-13.939 -2.1259999 0.41499999
-13.935 -2.1389999 0.41100001
-13.936 -2.1359999 0.40400001
-13.94 -2.1240001 0.396
-13.931 -2.152 0.39399999
-13.935 -2.138 0.38499999
-13.938 -2.1300001 0.37799999
-13.935 -2.141 0.373
-13.937 -2.1340001 0.366
-13.937 -2.135 0.36000001
-13.934 -2.142 0.354
-13.938 -2.132 0.347
-13.938 -2.1329999 0.34099999
-13.94 -2.1270001 0.33399999
-13.939 -2.1300001 0.32800001
-13.936 -2.1389999 0.32300001
-13.937 -2.1370001 0.31600001
-13.937 -2.1359999 0.31
-13.928 -2.1619999 0.30700001
-13.931 -2.154 0.30000001
-13.938 -2.135 0.29100001
-13.937 -2.1370001 0.285
-13.934 -2.148 0.28
-13.936 -2.1400001 0.273
-13.937 -2.1400001 0.26699999
-13.938 -2.1359999 0.25999999
-13.936 -2.1429999 0.255
-13.936 -2.1440001 0.248
-13.937 -2.141 0.242
-13.934 -2.1489999 0.236
-13.938 -2.1389999 0.229
-13.937 -2.141 0.223
-13.931 -2.1600001 0.219
-13.937 -2.141 0.211
-13.934 -2.1500001 0.205
-13.935 -2.1489999 0.199
-13.935 -2.1489999 0.193
-13.942 -2.1300001 0.185
-13.937 -2.145 0.18000001
-13.935 -2.1500001 0.17399999
-13.938 -2.141 0.167
-13.934 -2.1530001 0.162
-13.941 -2.1329999 0.154
-13.941 -2.1340001 0.148
-13.938 -2.1440001 0.14300001
-13.94 -2.138 0.13600001
-13.936 -2.1489999 0.131
-13.938 -2.1440001 0.124
-13.936 -2.1500001 0.118
-13.938 -2.1440001 0.112
-13.936 -2.1500001 0.106
-13.938 -2.1470001 0.098999999
-13.937 -2.1489999 0.093000002
-13.94 -2.142 0.086999997
-13.938 -2.148 0.081
-13.932 -2.164 0.075999998
-13.941 -2.138 0.068000004
-13.936 -2.1530001 0.063000001
-13.941 -2.1400001 0.056000002
-13.939 -2.145 0.050000001
-13.941 -2.1400001 0.043000001
-13.936 -2.155 0.037999999
-13.937 -2.152 0.032000002
-13.939 -2.145 0.025
-13.941 -2.141 0.018999999
-13.94 -2.1429999 0.013
-13.939 -2.148 0.0070000002
-14.078 -1.594 2.661
-14.075 -1.601 2.6589999
-14.075 -1.602 2.6500001
-14.069 -1.618 2.6559999
-14.072 -1.6109999 2.6400001
-14.064 -1.633 2.651
-14.066 -1.628 2.6359999
-14.057 -1.653 2.651
-14.063 -1.637 2.6259999
-14.06 -1.645 2.6240001
-14.058 -1.653 2.622
-14.056 -1.6569999 2.6159999
-14.054 -1.6619999 2.612
-14.054 -1.663 2.602
-14.053 -1.6670001 2.5969999
-14.048 -1.681 2.6010001
-14.046 -1.688 2.5969999
-14.048 -1.681 2.582
-14.047 -1.6849999 2.576
-14.043 -1.697 2.5769999
-14.039 -1.7079999 2.5780001
-14.044 -1.696 2.5569999
-14.042 -1.702 2.553
-14.039 -1.71 2.552
-14.037 -1.715 2.546
-14.031 -1.732 2.553
-14.033 -1.727 2.5380001
-13.921 -2.1140001 1.224
-13.926 -2.1010001 1.211
-13.922 -2.1129999 1.209
-13.927 -2.1010001 1.197
-13.93 -2.0929999 1.187
-13.931 -2.089 1.179
-13.925 -2.1070001 1.179
-13.928 -2.098 1.168
-13.929 -2.095 1.16
-13.924 -2.109 1.159
-13.924 -2.1110001 1.153
-13.933 -2.0869999 1.137
-13.929 -2.0969999 1.1339999
-13.931 -2.0929999 1.125
-13.933 -2.086 1.1160001
-13.927 -2.105 1.1160001
-13.924 -2.112 1.1109999
-13.93 -2.096 1.099
-13.929 -2.1010001 1.094
-13.919 -2.128 1.097
-13.926 -2.1070001 1.082
-13.931 -2.0940001 1.071
-13.928 -2.1029999 1.067
-13.927 -2.1059999 1.062
-13.926 -2.109 1.056
-13.927 -2.109 1.049
-13.929 -2.102 1.04
-13.929 -2.1040001 1.033
-13.928 -2.105 1.027
-13.924 -2.118 1.025
-13.93 -2.102 1.013
-13.927 -2.1099999 1.0089999
-13.929 -2.1040001 1
-13.927 -2.1099999 0.995
-13.926 -2.1129999 0.98900002
-13.937 -2.0829999 0.972
-13.933 -2.095 0.97000003
-13.926 -2.1140001 0.96899998
-13.932 -2.0969999 0.95700002
-13.928 -2.1099999 0.95499998
-13.929 -2.1059999 0.94700003
-13.933 -2.096 0.93699998
-13.933 -2.0969999 0.93000001
-13.93 -2.1059999 0.92699999
-13.929 -2.1070001 0.92000002
-13.928 -2.1110001 0.91500002
-13.926 -2.1170001 0.91000003
-13.928 -2.1110001 0.90200001
-13.928 -2.112 0.89499998
-13.928 -2.1129999 0.889
-13.927 -2.1159999 0.88300002
-13.927 -2.1170001 0.87699997
-13.926 -2.1199999 0.87099999
-13.924 -2.1259999 0.866
-13.92 -2.1370001 0.86299998
-13.916 -2.148 0.85900003
-13.914 -2.154 0.85500002
-13.92 -2.1370001 0.84299999
-13.915 -2.152 0.84100002
-13.91 -2.1670001 0.838
-13.911 -2.164 0.83099997
-13.91 -2.1670001 0.82499999
-13.904 -2.1860001 0.824
-13.903 -2.188 0.81699997
-13.909 -2.171 0.80599999
-13.907 -2.177 0.801
-13.907 -2.177 0.79400003
-13.914 -2.158 0.78299999
-13.919 -2.1440001 0.77200001
-13.923 -2.1329999 0.76300001
-13.928 -2.1210001 0.75300002
-13.928 -2.1199999 0.74599999
-13.93 -2.115 0.73799998
-13.926 -2.1259999 0.73500001
-13.923 -2.1370001 0.73100001
-13.926 -2.1289999 0.722
-13.927 -2.125 0.71499997
-13.931 -2.1129999 0.70499998
-13.93 -2.118 0.69999999
-13.934 -2.1059999 0.69099998
-13.931 -2.1159999 0.68699998
-13.929 -2.1210001 0.68199998
-13.93 -2.1199999 0.67500001
-13.931 -2.1159999 0.667
-13.923 -2.1389999 0.667
-13.929 -2.1210001 0.65600002
-13.93 -2.1199999 0.64899999
-13.93 -2.1199999 0.64300001
-13.925 -2.1340001 0.63999999
-13.931 -2.118 0.62900001
-13.931 -2.119 0.62300003
-13.934 -2.1110001 0.61500001
-13.928 -2.128 0.61199999
-13.932 -2.1170001 0.60299999
-13.934 -2.1110001 0.59600002
-13.932 -2.1170001 0.59100002
-13.928 -2.1300001 0.58700001
-13.924 -2.1389999 0.583
-13.931 -2.122 0.57300001
-13.932 -2.118 0.56599998
-13.93 -2.1229999 0.56
-13.927 -2.135 0.55599999
-13.93 -2.1259999 0.54799998
-13.927 -2.135 0.54299998
-13.929 -2.128 0.53600001
-13.928 -2.131 0.52999997
-13.933 -2.118 0.52100003
-13.932 -2.122 0.51499999
-13.924 -2.1440001 0.51300001
-13.926 -2.138 0.50599998
-13.933 -2.1210001 0.49599999
-13.929 -2.131 0.49200001
-13.927 -2.1370001 0.486
-13.927 -2.138 0.47999999
-13.931 -2.1259999 0.472
-13.934 -2.118 0.46399999
-13.926 -2.141 0.46200001
-13.931 -2.128 0.45300001
-13.932 -2.125 0.44600001
-13.937 -2.112 0.43799999
-13.929 -2.1340001 0.435
-13.932 -2.1270001 0.428
-13.932 -2.1270001 0.42199999
-13.935 -2.118 0.414
-13.934 -2.122 0.40799999
-13.935 -2.118 0.40099999
-13.931 -2.131 0.39700001
-13.928 -2.1389999 0.39199999
-13.93 -2.1340001 0.38499999
-13.935 -2.1199999 0.377
-13.933 -2.1259999 0.37099999
-13.931 -2.131 0.366
-13.927 -2.1429999 0.361
-13.931 -2.132 0.35299999
-13.924 -2.152 0.34999999
-13.931 -2.1340001 0.34099999
-13.937 -2.118 0.333
-13.935 -2.1240001 0.32699999
-13.935 -2.1229999 0.32100001
-13.937 -2.119 0.31400001
-13.934 -2.1259999 0.30899999
-13.935 -2.1240001 0.30199999
-13.932 -2.132 0.29699999
-13.931 -2.1359999 0.29100001
-13.931 -2.1370001 0.285
-13.936 -2.1240001 0.27700001
-13.937 -2.1210001 0.271
-13.936 -2.1240001 0.26499999
-13.93 -2.1400001 0.26100001
-13.936 -2.1229999 0.252
-13.931 -2.138 0.248
-13.926 -2.152 0.243
-13.93 -2.142 0.236
-13.929 -2.1440001 0.23
-13.928 -2.1470001 0.22400001
-13.93 -2.1429999 0.21699999
-13.93 -2.1440001 0.211
-13.933 -2.1340001 0.204
-13.932 -2.138 0.198
-13.93 -2.145 0.192
-13.935 -2.131 0.185
-13.926 -2.1559999 0.18099999
-13.931 -2.1429999 0.17399999
-13.931 -2.141 0.167
-13.93 -2.1459999 0.161
-13.933 -2.1370001 0.155
-13.923 -2.165 0.15099999
-13.933 -2.1400001 0.142
-13.933 -2.138 0.13600001
-13.932 -2.141 0.13
-13.927 -2.1570001 0.125
-13.927 -2.1570001 0.119
-13.935 -2.1329999 0.111
-13.93 -2.1489999 0.106
-13.929 -2.1530001 0.1
-13.933 -2.1400001 0.093000002
-13.933 -2.141 0.086999997
-13.929 -2.152 0.081
-13.93 -2.1500001 0.075000003
-13.935 -2.1370001 0.068000004
-13.933 -2.142 0.061999999
-13.935 -2.1359999 0.056000002
-13.933 -2.1429999 0.050000001
-13.926 -2.165 0.045000002
-13.932 -2.148 0.037999999
-13.93 -2.154 0.032000002
-13.934 -2.142 0.025
-13.931 -2.1500001 0.018999999
-13.93 -2.155 0.013
-13.931 -2.151 0.0070000002
-14.07 -1.598 2.6670001
-14.068 -1.603 2.6619999
-14.068 -1.605 2.654
-14.066 -1.609 2.6489999
-14.062 -1.6210001 2.6500001
-14.065 -1.615 2.635
-14.062 -1.623 2.6329999
-14.054 -1.6440001 2.6440001
-14.056 -1.6390001 2.6289999
-14.056 -1.64 2.6210001
-14.055 -1.6440001 2.615
-14.052 -1.653 2.6140001
-14.051 -1.656 2.608
-14.049 -1.6619999 2.6029999
-14.048 -1.665 2.5969999
-14.045 -1.673 2.595
-14.043 -1.679 2.5899999
-14.041 -1.686 2.5880001
-14.039 -1.692 2.5840001
-14.038 -1.694 2.576
-14.039 -1.692 2.5639999
-14.036 -1.701 2.5639999
-14.032 -1.7130001 2.5650001
-14.031 -1.715 2.5580001
-14.032 -1.712 2.5450001
-13.927 -2.0840001 1.1289999
-13.92 -2.105 1.13
-13.928 -2.0810001 1.114
-13.925 -2.092 1.1109999
-13.927 -2.086 1.103
-13.92 -2.105 1.103
-13.919 -2.108 1.097
-13.918 -2.112 1.092
-13.926 -2.0880001 1.076
-13.918 -2.112 1.0779999
-13.916 -2.1170001 1.073
-13.916 -2.119 1.067
-13.923 -2.0999999 1.053
-13.922 -2.102 1.0470001
-13.921 -2.1070001 1.0420001
-13.919 -2.1129999 1.0369999
-13.92 -2.1099999 1.029
-13.918 -2.1140001 1.024
-13.926 -2.0940001 1.01
-13.918 -2.1159999 1.011
-13.923 -2.102 1
-13.922 -2.1059999 0.99400002
-13.923 -2.1029999 0.98699999
-13.923 -2.102 0.98000002
-13.918 -2.119 0.97799999
-13.914 -2.1289999 0.97500002
-13.918 -2.118 0.96399999
-13.922 -2.108 0.95499998
-13.926 -2.096 0.94400001
-13.921 -2.1110001 0.94199997
-13.924 -2.1040001 0.93300003
-13.922 -2.1099999 0.92799997
-13.924 -2.1029999 0.92000002
-13.922 -2.1099999 0.91500002
-13.922 -2.1099999 0.90899998
-13.923 -2.109 0.90100002
-13.915 -2.1300001 0.90100002
-13.918 -2.1240001 0.89300001
-13.921 -2.115 0.884
-13.918 -2.122 0.87900001
-13.918 -2.1240001 0.87300003
-13.923 -2.109 0.86199999
-13.919 -2.1210001 0.85900003
-13.912 -2.141 0.85799998
-13.91 -2.1470001 0.85299999
-13.905 -2.1630001 0.85100001
-13.907 -2.155 0.84200001
-13.904 -2.1659999 0.838
-13.903 -2.1670001 0.83200002
-13.898 -2.1830001 0.82999998
-13.894 -2.1930001 0.82599998
-13.889 -2.2090001 0.824
-13.888 -2.21 0.81699997
-13.888 -2.2119999 0.81099999
-13.883 -2.227 0.80800003
-13.876 -2.247 0.80699998
-13.874 -2.253 0.80199999
-13.875 -2.2490001 0.79400003
-13.872 -2.2590001 0.79000002
-13.872 -2.26 0.78299999
-13.868 -2.2709999 0.77899998
-13.869 -2.267 0.77200001
-13.932 -2.108 0.40000001
-13.921 -2.1400001 0.39899999
-13.929 -2.1170001 0.389
-13.917 -2.151 0.38800001
-13.922 -2.138 0.37900001
-13.926 -2.1259999 0.37099999
-13.929 -2.118 0.36399999
-13.927 -2.125 0.359
-13.929 -2.1210001 0.352
-13.924 -2.1340001 0.347
-13.927 -2.125 0.34
-13.925 -2.131 0.33500001
-13.919 -2.1500001 0.331
-13.924 -2.1359999 0.32300001
-13.928 -2.1240001 0.315
-13.925 -2.1340001 0.31
-13.921 -2.145 0.30500001
-13.923 -2.1389999 0.29800001
-13.926 -2.131 0.29100001
-13.925 -2.1329999 0.285
-13.924 -2.1370001 0.27900001
-13.922 -2.145 0.27399999
-13.931 -2.119 0.264
-13.934 -2.1110001 0.257
-13.931 -2.119 0.252
-13.929 -2.1240001 0.24600001
-13.929 -2.125 0.23999999
-13.929 -2.1270001 0.234
-13.923 -2.1429999 0.23
-13.927 -2.1329999 0.223
-13.925 -2.138 0.21699999
-13.931 -2.1210001 0.20900001
-13.926 -2.135 0.204
-13.93 -2.1259999 0.197
-13.922 -2.1489999 0.193
-13.923 -2.145 0.186
-13.927 -2.1340001 0.17900001
-13.925 -2.1400001 0.17299999
-13.924 -2.1440001 0.168
-13.924 -2.1440001 0.161
-13.929 -2.1289999 0.154
-13.93 -2.1289999 0.148
-13.923 -2.1489999 0.14300001
-13.929 -2.132 0.13600001
-13.931 -2.1259999 0.12899999
-13.933 -2.119 0.122
-13.925 -2.145 0.118
-13.93 -2.1300001 0.111
-13.926 -2.141 0.105
-13.927 -2.1400001 0.098999999
-13.927 -2.1400001 0.093000002
-13.928 -2.1359999 0.086000003
-13.927 -2.141 0.081
-13.93 -2.132 0.074000001
-13.928 -2.1370001 0.068000004
-13.93 -2.1329999 0.061999999
-13.93 -2.1329999 0.055
-13.932 -2.1289999 0.048999999
-13.928 -2.138 0.043000001
-13.932 -2.1289999 0.037
-13.928 -2.1389999 0.030999999
-13.932 -2.1300001 0.024
-13.928 -2.1400001 0.018999999
-13.93 -2.135 0.012
-13.928 -2.1400001 0.0060000001
-14.064 -1.6 2.6700001
-14.061 -1.608 2.6689999
-14.063 -1.602 2.6530001
-14.06 -1.6109999 2.652
-14.056 -1.622 2.6530001
-14.057 -1.619 2.641
-14.055 -1.625 2.6359999
-14.053 -1.632 2.6340001
-14.05 -1.641 2.6329999
-14.05 -1.641 2.6229999
-14.049 -1.643 2.615
-14.043 -1.66 2.6229999
-14.044 -1.658 2.6110001
-14.041 -1.666 2.609
-14.038 -1.675 2.608
-14.043 -1.6619999 2.586
-14.035 -1.684 2.5969999
-14.036 -1.681 2.585
-14.036 -1.682 2.576
-14.031 -1.6950001 2.579
-14.034 -1.688 2.563
-14.032 -1.694 2.5580001
-13.918 -2.0910001 1.126
-13.914 -2.102 1.123
-13.921 -2.082 1.109
-13.925 -2.073 1.098
-13.911 -2.1110001 1.1059999
-13.914 -2.1040001 1.096
-13.918 -2.0929999 1.085
-13.919 -2.0910001 1.0779999
-13.909 -2.118 1.081
-13.909 -2.118 1.074
-13.908 -2.1229999 1.069
-13.913 -2.109 1.057
-13.915 -2.1029999 1.048
-13.914 -2.108 1.043
-13.914 -2.108 1.036
-13.92 -2.0910001 1.023
-13.916 -2.1010001 1.02
-13.919 -2.0940001 1.011
-13.914 -2.109 1.0089999
-13.915 -2.105 1.001
-13.915 -2.1059999 0.995
-13.917 -2.0999999 0.986
-13.917 -2.102 0.98000002
-13.915 -2.108 0.97500002
-13.907 -2.1300001 0.97600001
-13.916 -2.105 0.96100003
-13.912 -2.1170001 0.958
-13.914 -2.1110001 0.949
-13.917 -2.1029999 0.94
-13.916 -2.1070001 0.935
-13.91 -2.1229999 0.93300003
-13.914 -2.1129999 0.92299998
-13.916 -2.1070001 0.91500002
-13.917 -2.105 0.90700001
-13.912 -2.119 0.90499997
-13.916 -2.108 0.89499998
-13.913 -2.1170001 0.89099997
-13.912 -2.122 0.88599998
-13.913 -2.118 0.87800002
-13.911 -2.1240001 0.87300003
-13.907 -2.1359999 0.87
-13.908 -2.1329999 0.86299998
-13.905 -2.141 0.85799998
-13.911 -2.1270001 0.84799999
-13.905 -2.142 0.84500003
-13.9 -2.158 0.84299999
-13.899 -2.1589999 0.83700001
-13.899 -2.161 0.83099997
-13.892 -2.181 0.82999998
-13.892 -2.1819999 0.82300001
-13.886 -2.198 0.82099998
-13.889 -2.1900001 0.81199998
-13.89 -2.187 0.80500001
-13.88 -2.2160001 0.80599999
-13.878 -2.2219999 0.801
-13.873 -2.237 0.79799998
-13.867 -2.253 0.79500002
-13.861 -2.2720001 0.79400003
-13.87 -2.2460001 0.77999997
-13.871 -2.244 0.773
-13.926 -2.1289999 0.0060000001
-14.059 -1.595 2.668
-14.054 -1.609 2.6719999
-14.058 -1.6 2.6530001
-14.054 -1.612 2.655
-14.05 -1.623 2.6559999
-14.049 -1.624 2.648
-14.047 -1.631 2.645
-14.045 -1.638 2.641
-14.045 -1.638 2.632
-14.044 -1.64 2.6240001
-14.042 -1.647 2.6210001
-14.038 -1.6569999 2.622
-14.039 -1.654 2.609
-14.039 -1.656 2.6010001
-14.032 -1.675 2.6099999
-14.034 -1.669 2.5940001
-14.034 -1.671 2.5869999
-14.028 -1.687 2.592
-14.029 -1.6849999 2.5810001
-13.909 -2.098 1.115
-13.913 -2.0869999 1.104
-13.915 -2.0840001 1.096
-13.911 -2.095 1.0930001
-13.907 -2.105 1.09
-13.909 -2.1010001 1.082
-13.91 -2.099 1.074
-13.912 -2.0940001 1.066
-13.905 -2.1140001 1.066
-13.908 -2.105 1.056
-13.911 -2.098 1.0470001
-13.915 -2.086 1.036
-13.91 -2.099 1.034
-13.905 -2.1140001 1.0319999
-13.909 -2.105 1.022
-13.909 -2.1029999 1.015
-13.905 -2.1159999 1.012
-13.911 -2.099 1
-13.912 -2.096 0.99199998
-13.909 -2.1059999 0.98900002
-13.908 -2.1099999 0.98299998
-13.91 -2.1040001 0.97399998
-13.91 -2.1029999 0.96700001
-13.909 -2.1059999 0.96200001
-13.907 -2.1129999 0.95700002
-13.908 -2.109 0.949
-13.912 -2.099 0.93900001
-13.908 -2.112 0.93699998
-13.911 -2.102 0.92699999
-13.911 -2.1029999 0.921
-13.907 -2.115 0.91799998
-13.915 -2.0940001 0.90399998
-13.911 -2.1040001 0.90100002
-13.911 -2.1040001 0.89399999
-13.911 -2.1059999 0.88800001
-13.908 -2.1140001 0.884
-13.906 -2.119 0.87900001
-13.902 -2.132 0.87599999
-13.907 -2.1170001 0.86500001
-13.903 -2.1289999 0.86199999
-13.899 -2.141 0.85900003
-13.9 -2.138 0.85100001
-13.903 -2.1300001 0.84200001
-13.897 -2.1459999 0.84100002
-13.898 -2.1429999 0.833
-13.895 -2.154 0.829
-13.891 -2.164 0.82599998
-13.892 -2.1619999 0.81800002
-13.885 -2.1819999 0.81699997
-13.88 -2.197 0.815
-13.883 -2.1889999 0.80599999
-13.879 -2.2 0.80199999
-13.882 -2.1930001 0.79299998
-13.865 -2.24 0.79900002
-13.871 -2.223 0.78799999
-13.866 -2.2379999 0.78500003
-13.854 -2.2720001 0.787
-13.867 -2.2360001 0.77100003
-13.861 -2.2509999 0.76800001
-14.053 -1.596 2.6700001
-14.052 -1.601 2.665
-14.049 -1.609 2.6630001
-14.049 -1.61 2.655
-14.05 -1.608 2.6429999
-14.042 -1.628 2.6530001
-14.041 -1.631 2.6459999
-14.04 -1.6339999 2.6389999
-14.039 -1.637 2.6329999
-14.039 -1.638 2.6240001
-14.04 -1.637 2.6129999
-14.038 -1.642 2.609
-14.033 -1.656 2.6129999
-14.03 -1.664 2.6110001
-14.024 -1.682 2.6170001
-14.026 -1.677 2.6029999
-13.898 -2.1110001 1.114
-13.902 -2.099 1.103
-13.905 -2.0929999 1.094
-13.9 -2.1059999 1.091
-13.901 -2.1040001 1.084
-13.9 -2.1070001 1.0779999
-13.904 -2.0969999 1.068
-13.902 -2.1029999 1.063
-13.9 -2.1070001 1.058
-13.903 -2.1010001 1.049
-13.898 -2.1159999 1.0470001
-13.899 -2.1129999 1.039
-13.9 -2.109 1.031
-13.899 -2.1129999 1.026
-13.903 -2.1029999 1.015
-13.901 -2.1070001 1.01
-13.902 -2.1070001 1.003
-13.903 -2.102 0.995
-13.904 -2.1010001 0.98699999
-13.9 -2.1110001 0.98400003
-13.895 -2.1270001 0.98299998
-13.904 -2.1010001 0.96700001
-13.902 -2.109 0.963
-13.903 -2.1059999 0.95599997
-13.905 -2.1010001 0.94700003
-13.902 -2.109 0.94300002
-13.901 -2.112 0.93699998
-13.9 -2.1140001 0.93099999
-13.905 -2.1010001 0.92000002
-13.894 -2.131 0.92299998
-13.904 -2.1059999 0.90899998
-13.899 -2.119 0.90600002
-13.899 -2.1199999 0.89999998
-13.902 -2.1129999 0.89099997
-13.903 -2.108 0.88300002
-13.902 -2.112 0.87699997
-13.902 -2.1140001 0.87099999
-13.898 -2.1240001 0.86799997
-13.901 -2.1170001 0.85900003
-13.899 -2.1229999 0.85399997
-13.893 -2.138 0.852
-13.892 -2.141 0.84600002
-13.895 -2.135 0.838
-13.896 -2.131 0.82999998
-13.89 -2.148 0.82800001
-13.885 -2.1630001 0.82599998
-13.886 -2.1600001 0.81800002
-13.881 -2.175 0.81599998
-13.88 -2.177 0.81
-13.875 -2.1919999 0.80699998
-13.875 -2.194 0.801
-13.871 -2.2030001 0.79699999
-13.869 -2.21 0.792
-13.862 -2.23 0.79000002
-13.868 -2.2130001 0.77899998
-13.859 -2.2379999 0.77899998
-13.851 -2.26 0.778
-13.856 -2.247 0.76800001
-13.857 -2.2449999 0.75999999
-14.046 -1.601 2.677
-14.047 -1.599 2.665
-14.045 -1.604 2.6600001
-14.041 -1.6160001 2.6619999
-14.039 -1.62 2.6570001
-14.041 -1.6160001 2.6429999
-14.037 -1.626 2.6429999
-14.034 -1.635 2.642
-14.036 -1.63 2.628
-14.034 -1.635 2.622
-14.029 -1.65 2.6270001
-14.027 -1.654 2.622
-14.027 -1.655 2.6129999
-14.019 -1.677 2.6240001
-14.03 -1.648 2.5869999
-13.893 -2.1070001 1.099
-13.895 -2.102 1.091
-13.899 -2.0910001 1.08
-13.897 -2.098 1.076
-13.895 -2.1040001 1.071
-13.888 -2.1229999 1.071
-13.892 -2.1129999 1.0599999
-13.891 -2.1140001 1.054
-13.884 -2.1359999 1.0549999
-13.896 -2.102 1.036
-13.892 -2.115 1.034
-13.896 -2.102 1.022
-13.898 -2.0969999 1.0140001
-13.895 -2.105 1.01
-13.894 -2.109 1.0039999
-13.899 -2.095 0.99299997
-13.898 -2.099 0.98799998
-13.9 -2.095 0.97899997
-13.902 -2.089 0.97100002
-13.892 -2.1159999 0.97299999
-13.894 -2.1099999 0.96399999
-13.894 -2.112 0.958
-13.899 -2.0999999 0.94700003
-13.895 -2.1099999 0.94400001
-13.897 -2.1040001 0.935
-13.896 -2.108 0.93000001
-13.894 -2.115 0.926
-13.894 -2.115 0.91900003
-13.897 -2.1059999 0.90899998
-13.892 -2.119 0.90700001
-13.892 -2.1210001 0.90100002
-13.897 -2.1059999 0.88999999
-13.896 -2.1110001 0.884
-13.898 -2.1059999 0.87599999
-13.895 -2.1129999 0.87199998
-13.892 -2.122 0.86799997
-13.896 -2.112 0.85799998
-13.887 -2.1359999 0.85900003
-13.892 -2.1240001 0.84799999
-13.89 -2.131 0.84399998
-13.892 -2.1240001 0.83499998
-13.885 -2.1429999 0.83399999
-13.886 -2.1400001 0.82599998
-13.888 -2.1370001 0.81900001
-13.885 -2.1440001 0.81400001
-13.882 -2.155 0.81099999
-13.876 -2.1700001 0.80800003
-13.876 -2.1719999 0.80199999
-13.875 -2.1730001 0.796
-13.867 -2.197 0.796
-13.866 -2.1989999 0.78899997
-13.865 -2.201 0.78299999
-13.862 -2.211 0.77899998
-13.855 -2.2309999 0.778
-13.848 -2.2509999 0.77600002
-13.844 -2.2609999 0.77200001
-13.845 -2.257 0.764
-13.853 -2.237 0.75199997
-13.842 -2.2690001 0.75300002
-14.042 -1.596 2.674
-14.039 -1.604 2.6719999
-14.04 -1.602 2.6600001
-14.035 -1.614 2.6630001
-14.033 -1.62 2.658
-14.038 -1.608 2.6370001
-14.033 -1.623 2.642
-14.029 -1.633 2.642
-14.029 -1.632 2.631
-14.023 -1.65 2.6389999
-14.021 -1.656 2.635
-14.023 -1.65 2.6199999
-14.019 -1.6619999 2.622
-13.89 -2.096 1.089
-13.891 -2.095 1.082
-13.893 -2.0910001 1.073
-13.891 -2.096 1.069
-13.887 -2.1070001 1.066
-13.885 -2.112 1.061
-13.886 -2.1099999 1.053
-13.887 -2.1070001 1.045
-13.888 -2.105 1.038
-13.89 -2.102 1.03
-13.885 -2.115 1.027
-13.89 -2.102 1.016
-13.886 -2.1129999 1.013
-13.888 -2.108 1.005
-13.888 -2.109 0.99800003
-13.889 -2.1059999 0.991
-13.889 -2.105 0.98400003
-13.885 -2.118 0.98100001
-13.892 -2.0969999 0.96700001
-13.886 -2.1159999 0.96700001
-13.887 -2.112 0.95899999
-13.887 -2.1140001 0.95300001
-13.888 -2.1099999 0.94499999
-13.894 -2.0940001 0.93300003
-13.894 -2.095 0.926
-13.887 -2.115 0.926
-13.884 -2.1240001 0.92199999
-13.889 -2.1110001 0.91100001
-13.882 -2.131 0.91100001
-13.886 -2.118 0.89999998
-13.891 -2.1040001 0.889
-13.888 -2.1140001 0.88599998
-13.884 -2.1259999 0.88300002
-13.887 -2.118 0.87400001
-13.883 -2.1289999 0.87
-13.889 -2.1140001 0.85900003
-13.88 -2.138 0.86000001
-13.879 -2.1400001 0.85399997
-13.879 -2.141 0.847
-13.88 -2.1389999 0.83999997
-13.876 -2.1489999 0.83600003
-13.883 -2.132 0.82499999
-13.873 -2.158 0.82499999
-13.876 -2.1500001 0.81599998
-13.879 -2.1440001 0.80800003
-13.873 -2.1589999 0.80599999
-13.868 -2.174 0.80299997
-13.866 -2.1800001 0.79799998
-13.869 -2.1730001 0.78899997
-13.865 -2.1830001 0.78600001
-13.856 -2.2079999 0.78500003
-13.853 -2.2179999 0.78100002
-13.854 -2.2149999 0.77399999
-13.852 -2.221 0.76899999
-13.845 -2.2409999 0.76700002
-13.839 -2.256 0.764
-13.84 -2.2550001 0.75700003
-13.841 -2.2509999 0.74900001
-13.839 -2.257 0.74400002
-13.841 -2.2509999 0.736
-14.038 -1.59 2.6700001
-14.032 -1.6059999 2.6760001
-14.035 -1.598 2.658
-14.031 -1.608 2.658
-14.027 -1.622 2.6619999
-14.03 -1.613 2.6429999
-14.026 -1.624 2.645
-14.022 -1.636 2.6459999
-14.019 -1.642 2.6429999
-14.018 -1.645 2.6359999
-13.881 -2.105 1.08
-13.876 -2.1170001 1.077
-13.877 -2.115 1.069
-13.878 -2.1140001 1.062
-13.88 -2.1099999 1.054
-13.882 -2.1040001 1.045
-13.876 -2.119 1.043
-13.878 -2.115 1.035
-13.883 -2.1029999 1.024
-13.882 -2.1059999 1.018
-13.884 -2.1010001 1.01
-13.881 -2.108 1.005
-13.883 -2.102 0.99699998
-13.883 -2.105 0.991
-13.876 -2.1240001 0.99000001
-13.881 -2.109 0.97799999
-13.884 -2.102 0.97000003
-13.881 -2.1110001 0.96600002
-13.881 -2.1110001 0.95899999
-13.882 -2.109 0.95200002
-13.881 -2.112 0.94599998
-13.879 -2.1170001 0.94099998
-13.879 -2.119 0.935
-13.881 -2.1110001 0.926
-13.879 -2.118 0.921
-13.883 -2.109 0.91100001
-13.874 -2.132 0.912
-13.883 -2.109 0.898
-13.872 -2.1400001 0.90100002
-13.879 -2.119 0.88800001
-13.874 -2.1340001 0.88599998
-13.882 -2.1140001 0.87300003
-13.876 -2.1300001 0.87099999
-13.883 -2.1099999 0.85799998
-13.875 -2.1329999 0.85900003
-13.882 -2.1140001 0.84600002
-13.88 -2.1210001 0.84200001
-13.87 -2.1470001 0.84299999
-13.876 -2.132 0.83200002
-13.868 -2.154 0.83099997
-13.869 -2.1500001 0.824
-13.872 -2.1440001 0.815
-13.874 -2.1389999 0.80699998
-13.874 -2.138 0.80000001
-13.87 -2.1489999 0.79699999
-13.862 -2.1730001 0.79699999
-13.861 -2.175 0.79000002
-13.857 -2.1860001 0.787
-13.855 -2.1919999 0.78200001
-13.846 -2.2160001 0.78100002
-13.851 -2.204 0.77100003
-13.842 -2.2279999 0.77100003
-13.842 -2.23 0.76499999
-13.84 -2.2360001 0.759
-13.836 -2.2460001 0.755
-13.828 -2.267 0.75400001
-13.822 -2.286 0.75199997
-13.828 -2.2690001 0.741
-13.837 -2.2460001 0.72799999
-14.031 -1.594 2.675
-14.029 -1.598 2.6700001
-14.029 -1.601 2.6619999
-14.023 -1.615 2.6670001
-14.024 -1.613 2.655
-14.019 -1.626 2.658
-14.017 -1.633 2.6559999
-14.01 -1.65 2.6619999
-13.872 -2.112 1.076
-13.881 -2.0880001 1.0599999
-13.881 -2.0880001 1.053
-13.877 -2.098 1.05
-13.869 -2.1199999 1.051
-13.872 -2.1140001 1.0420001
-13.879 -2.095 1.029
-13.869 -2.1210001 1.031
-13.876 -2.1029999 1.018
-13.873 -2.112 1.0140001
-13.874 -2.1110001 1.007
-13.875 -2.1070001 0.99900001
-13.876 -2.1059999 0.99199998
-13.876 -2.1040001 0.98400003
-13.876 -2.105 0.97799999
-13.868 -2.1259999 0.97799999
-13.869 -2.1240001 0.97100002
-13.873 -2.115 0.96100003
-13.875 -2.108 0.95200002
-13.871 -2.122 0.94999999
-13.87 -2.1240001 0.94400001
-13.87 -2.1240001 0.93699998
-13.875 -2.112 0.926
-13.869 -2.1259999 0.92400002
-13.87 -2.125 0.917
-13.873 -2.1159999 0.90799999
-13.874 -2.1159999 0.90100002
-13.872 -2.1199999 0.89499998
-13.871 -2.1229999 0.88999999
-13.874 -2.1170001 0.88099998
-13.871 -2.1259999 0.87699997
-13.872 -2.122 0.86900002
-13.876 -2.1110001 0.85900003
-13.867 -2.1370001 0.86000001
-13.872 -2.1240001 0.85000002
-13.869 -2.131 0.84500003
-13.874 -2.1199999 0.83499998
-13.873 -2.122 0.829
-13.869 -2.1340001 0.82599998
-13.868 -2.1370001 0.81999999
-13.865 -2.1440001 0.81599998
-13.862 -2.154 0.81199998
-13.862 -2.154 0.80500001
-13.865 -2.1459999 0.796
-13.862 -2.1530001 0.792
-13.86 -2.1589999 0.787
-13.858 -2.165 0.78200001
-13.853 -2.1800001 0.77899998
-13.847 -2.1960001 0.77600002
-13.852 -2.1830001 0.76599997
-13.84 -2.2149999 0.76800001
-13.841 -2.214 0.76099998
-13.841 -2.214 0.75400001
-13.834 -2.234 0.75300002
-13.829 -2.2460001 0.74900001
-13.824 -2.2609999 0.74599999
-13.82 -2.2709999 0.74199998
-13.82 -2.2709999 0.73500001
-13.825 -2.2590001 0.72500002
-14.023 -1.598 2.681
-14.022 -1.601 2.674
-14.018 -1.613 2.6760001
-14.017 -1.614 2.668
-14.021 -1.6059999 2.6500001
-13.868 -2.1040001 1.067
-13.867 -2.108 1.061
-13.868 -2.1059999 1.053
-13.868 -2.1059999 1.0470001
-13.868 -2.1070001 1.04
-13.868 -2.105 1.033
-13.865 -2.1140001 1.029
-13.861 -2.1240001 1.026
-13.869 -2.105 1.012
-13.868 -2.108 1.006
-13.863 -2.1199999 1.0039999
-13.867 -2.1110001 0.99400002
-13.865 -2.1170001 0.98900002
-13.865 -2.1170001 0.98199999
-13.868 -2.109 0.97299999
-13.871 -2.102 0.96399999
-13.869 -2.108 0.95899999
-13.868 -2.1099999 0.95300001
-13.866 -2.1159999 0.94800001
-13.867 -2.1140001 0.94099998
-13.868 -2.1129999 0.93400002
-13.87 -2.105 0.92500001
-13.865 -2.1199999 0.92299998
-13.87 -2.1070001 0.912
-13.869 -2.1110001 0.90600002
-13.867 -2.1159999 0.90100002
-13.865 -2.122 0.89700001
-13.867 -2.118 0.88800001
-13.864 -2.1259999 0.884
-13.871 -2.1059999 0.87199998
-13.868 -2.115 0.86799997
-13.866 -2.1199999 0.86199999
-13.866 -2.122 0.85600001
-13.87 -2.1110001 0.84600002
-13.867 -2.119 0.84200001
-13.865 -2.1240001 0.83700001
-13.861 -2.135 0.83399999
-13.864 -2.1289999 0.82499999
-13.864 -2.1289999 0.81800002
-13.858 -2.1440001 0.81599998
-13.861 -2.1359999 0.80699998
-13.854 -2.1559999 0.80599999
-13.854 -2.1559999 0.79900002
-13.857 -2.1500001 0.79100001
-13.853 -2.161 0.78799999
-13.854 -2.1570001 0.77999997
-13.845 -2.1830001 0.77999997
-13.853 -2.161 0.76800001
-13.846 -2.181 0.76599997
-13.84 -2.1960001 0.764
-13.835 -2.211 0.76099998
-13.832 -2.2179999 0.75599998
-13.835 -2.21 0.74699998
-13.828 -2.23 0.745
-13.824 -2.24 0.741
-13.819 -2.2550001 0.73799998
-13.814 -2.2690001 0.73500001
-13.81 -2.28 0.73100001
-13.82 -2.2539999 0.71799999
-14.016 -1.6 2.6849999
-14.018 -1.598 2.6730001
-13.855 -2.122 1.0599999
-13.86 -2.108 1.048
-13.866 -2.0940001 1.036
-13.865 -2.095 1.03
-13.86 -2.109 1.028
-13.853 -2.128 1.028
-13.859 -2.112 1.016
-13.859 -2.1140001 1.0089999
-13.851 -2.1340001 1.0089999
-13.861 -2.109 0.99400002
-13.861 -2.108 0.98699999
-13.858 -2.1170001 0.98299998
-13.859 -2.1170001 0.97600001
-13.856 -2.1240001 0.972
-13.86 -2.1140001 0.96200001
-13.863 -2.1070001 0.95300001
-13.858 -2.119 0.94999999
-13.855 -2.128 0.94599998
-13.856 -2.125 0.93800002
-13.864 -2.1040001 0.92500001
-13.862 -2.1110001 0.921
-13.862 -2.1099999 0.91399997
-13.859 -2.118 0.90899998
-13.857 -2.125 0.90499997
-13.857 -2.125 0.898
-13.857 -2.1259999 0.89200002
-13.856 -2.1270001 0.88499999
-13.863 -2.1099999 0.87300003
-13.853 -2.1359999 0.87400001
-13.862 -2.1129999 0.861
-13.859 -2.122 0.85699999
-13.858 -2.1259999 0.85100001
-13.863 -2.1129999 0.84100002
-13.861 -2.1170001 0.83600003
-13.855 -2.1329999 0.83399999
-13.86 -2.122 0.824
-13.858 -2.1270001 0.81900001
-13.851 -2.1470001 0.81800002
-13.855 -2.1340001 0.80699998
-13.851 -2.1470001 0.80400002
-13.85 -2.1500001 0.79799998
-13.844 -2.1659999 0.796
-13.846 -2.161 0.78799999
-13.85 -2.1500001 0.778
-13.849 -2.152 0.77200001
-13.842 -2.1719999 0.77100003
-13.841 -2.175 0.76499999
-13.838 -2.1849999 0.76099998
-13.832 -2.2 0.75800002
-13.83 -2.2049999 0.75300002
-13.833 -2.198 0.74400002
-13.821 -2.23 0.74599999
-13.822 -2.2279999 0.73900002
-13.822 -2.2290001 0.73199999
-13.809 -2.2639999 0.73400003
-13.809 -2.2650001 0.72799999
-13.804 -2.279 0.72399998
-13.803 -2.2809999 0.71799999
-13.849 -2.1210001 1.0470001
-13.852 -2.112 1.036
-13.852 -2.1129999 1.03
-13.857 -2.099 1.0190001
-13.846 -2.131 1.022
-13.851 -2.1170001 1.011
-13.852 -2.1140001 1.003
-13.848 -2.1259999 1
-13.857 -2.1010001 0.98500001
-13.854 -2.1110001 0.98199999
-13.851 -2.118 0.977
-13.849 -2.125 0.97299999
-13.854 -2.1129999 0.96200001
-13.847 -2.131 0.96100003
-13.849 -2.1259999 0.95300001
-13.851 -2.122 0.94499999
-13.849 -2.125 0.93900001
-13.859 -2.099 0.92400002
-13.85 -2.1240001 0.92500001
-13.851 -2.1229999 0.91799998
-13.851 -2.1229999 0.91100001
-13.853 -2.118 0.903
-13.854 -2.1159999 0.89600003
-13.851 -2.1240001 0.89200002
-13.85 -2.1270001 0.88599998
-13.85 -2.1259999 0.87900001
-13.849 -2.1289999 0.87300003
-13.853 -2.1199999 0.86400002
-13.852 -2.1229999 0.85799998
-13.853 -2.122 0.85100001
-13.85 -2.1289999 0.84600002
-13.848 -2.1340001 0.84100002
-13.853 -2.1199999 0.82999998
-13.849 -2.132 0.82700002
-13.846 -2.1400001 0.82300001
-13.841 -2.154 0.81999999
-13.849 -2.1340001 0.80800003
-13.843 -2.151 0.80599999
-13.845 -2.1459999 0.79799998
-13.845 -2.1459999 0.79100001
-13.837 -2.168 0.79100001
-13.843 -2.151 0.77899998
-13.84 -2.1600001 0.77499998
-13.837 -2.1689999 0.77100003
-13.835 -2.1719999 0.76499999
-13.833 -2.178 0.75999999
-13.826 -2.198 0.75800002
-13.827 -2.1949999 0.75099999
-13.822 -2.2079999 0.74800003
-13.818 -2.22 0.74400002
-13.812 -2.2360001 0.741
-13.816 -2.227 0.73199999
-13.812 -2.2379999 0.72799999
-13.808 -2.247 0.72399998
-13.802 -2.2639999 0.72100002
-13.799 -2.273 0.71600002
-13.815 -2.2309999 0.699
-13.844 -2.1170001 1.039
-13.842 -2.1210001 1.034
-13.847 -2.109 1.022
-13.854 -2.092 1.01
-13.845 -2.1159999 1.011
-13.841 -2.125 1.008
-13.842 -2.1240001 1
-13.843 -2.122 0.99299997
-13.846 -2.1140001 0.98299998
-13.844 -2.119 0.97799999
-13.84 -2.131 0.97500002
-13.845 -2.1159999 0.96399999
-13.841 -2.128 0.96100003
-13.841 -2.128 0.954
-13.846 -2.115 0.94300002
-13.841 -2.1300001 0.94099998
-13.845 -2.119 0.93099999
-13.848 -2.112 0.92199999
-13.841 -2.1289999 0.921
-13.843 -2.1259999 0.91299999
-13.846 -2.1170001 0.903
-13.843 -2.1259999 0.89899999
-13.847 -2.1159999 0.88999999
-13.841 -2.1329999 0.88800001
-13.845 -2.122 0.87800002
-13.841 -2.131 0.87400001
-13.848 -2.1129999 0.86199999
-13.841 -2.1340001 0.86199999
-13.85 -2.1099999 0.84799999
-13.846 -2.1199999 0.84399998
-13.853 -2.1040001 0.833
-13.843 -2.1300001 0.83399999
-13.843 -2.1289999 0.82700002
-13.841 -2.1359999 0.82200003
-13.843 -2.131 0.81400001
-13.841 -2.1370001 0.80900002
-13.837 -2.148 0.80500001
-13.835 -2.152 0.80000001
-13.834 -2.1570001 0.79500002
-13.837 -2.148 0.78500003
-13.839 -2.1440001 0.778
-13.837 -2.148 0.77200001
-13.834 -2.1589999 0.76800001
-13.83 -2.1689999 0.76499999
-13.831 -2.1670001 0.75700003
-13.823 -2.187 0.75599998
-13.823 -2.188 0.75
-13.821 -2.194 0.74400002
-13.817 -2.204 0.74000001
-13.813 -2.214 0.736
-13.808 -2.2290001 0.73299998
-13.81 -2.223 0.72500002
-13.806 -2.2360001 0.72100002
-13.802 -2.247 0.71700001
-13.796 -2.2639999 0.71399999
-13.789 -2.2809999 0.71200001
-13.8 -2.2520001 0.69800001
-13.835 -2.1240001 1.028
-13.837 -2.1170001 1.0190001
-13.84 -2.1099999 1.01
-13.838 -2.115 1.005
-13.836 -2.1199999 1
-13.839 -2.1129999 0.991
-13.839 -2.115 0.98400003
-13.834 -2.1289999 0.98199999
-13.832 -2.1340001 0.977
-13.839 -2.1159999 0.96399999
-13.838 -2.119 0.95899999
-13.843 -2.1070001 0.94800001
-13.842 -2.109 0.94199997
-13.836 -2.1240001 0.94
-13.834 -2.1289999 0.935
-13.833 -2.1329999 0.92900002
-13.836 -2.1240001 0.92000002
-13.839 -2.1170001 0.91100001
-13.84 -2.1159999 0.90399998
-13.834 -2.131 0.90200001
-13.84 -2.115 0.88999999
-13.835 -2.128 0.88700002
-13.838 -2.122 0.87900001
-13.838 -2.122 0.87199998
-13.842 -2.1129999 0.86299998
-13.835 -2.131 0.861
-13.836 -2.1300001 0.85399997
-13.829 -2.148 0.85299999
-13.833 -2.1370001 0.84299999
-13.838 -2.1240001 0.83200002
-13.838 -2.1240001 0.82599998
-13.834 -2.135 0.82200003
-13.834 -2.135 0.81599998
-13.833 -2.138 0.81
-13.83 -2.148 0.80599999
-13.831 -2.1459999 0.79900002
-13.831 -2.145 0.792
-13.835 -2.1340001 0.78200001
-13.828 -2.155 0.78100002
-13.831 -2.1459999 0.77200001
-13.821 -2.174 0.773
-13.827 -2.1570001 0.76200002
-13.825 -2.164 0.75700003
-13.826 -2.161 0.75
-13.818 -2.181 0.74800003
-13.817 -2.1860001 0.74299997
-13.821 -2.174 0.73299998
-13.814 -2.1949999 0.73199999
-13.802 -2.2260001 0.73299998
-13.806 -2.2149999 0.72299999
-13.801 -2.2290001 0.72000003
-13.801 -2.2309999 0.71399999
-13.791 -2.2579999 0.71399999
-13.794 -2.2490001 0.70499998
-13.781 -2.283 0.70599997
-13.79 -2.2609999 0.69400001
-13.827 -2.1259999 1.023
-13.827 -2.1259999 1.016
-13.83 -2.119 1.007
-13.836 -2.1029999 0.995
-13.828 -2.125 0.995
-13.829 -2.122 0.98699999
-13.832 -2.1159999 0.97799999
-13.829 -2.1229999 0.97399998
-13.828 -2.1259999 0.96799999
-13.831 -2.118 0.95899999
-13.835 -2.109 0.949
-13.831 -2.1199999 0.94599998
-13.83 -2.1229999 0.94
-13.832 -2.118 0.93199998
-13.833 -2.115 0.92400002
-13.826 -2.1329999 0.92299998
-13.829 -2.128 0.91500002
-13.835 -2.112 0.903
-13.832 -2.118 0.898
-13.828 -2.131 0.89499998
-13.832 -2.119 0.88499999
-13.833 -2.118 0.87800002
-13.828 -2.132 0.87599999
-13.83 -2.1259999 0.86699998
-13.83 -2.1259999 0.86000001
-13.827 -2.135 0.85600001
-13.827 -2.135 0.85000002
-13.834 -2.1159999 0.838
-13.83 -2.128 0.83399999
-13.825 -2.142 0.83200002
-13.83 -2.1289999 0.82099998
-13.83 -2.1300001 0.815
-13.829 -2.132 0.80900002
-13.827 -2.138 0.80400002
-13.827 -2.1359999 0.79699999
-13.831 -2.128 0.78799999
-13.826 -2.142 0.78500003
-13.829 -2.1340001 0.77600002
-13.82 -2.158 0.77600002
-13.819 -2.1589999 0.76999998
-13.821 -2.1559999 0.76200002
-13.821 -2.1559999 0.755
-13.817 -2.1670001 0.75199997
-13.813 -2.178 0.74800003
-13.814 -2.175 0.74000001
-13.812 -2.1800001 0.73500001
-13.809 -2.188 0.73000002
-13.807 -2.194 0.72500002
-13.801 -2.2119999 0.72299999
-13.8 -2.2149999 0.71700001
-13.796 -2.2260001 0.713
-13.792 -2.234 0.708
-13.787 -2.2479999 0.70499998
-13.791 -2.2379999 0.69599998
-13.785 -2.256 0.69300002
-13.785 -2.256 0.68699998
-13.785 -2.256 0.68000001
-13.817 -2.135 1.013
-13.824 -2.1170001 1
-13.826 -2.112 0.991
-13.82 -2.1300001 0.99000001
-13.82 -2.1300001 0.98400003
-13.815 -2.141 0.98100001
-13.824 -2.119 0.96700001
-13.823 -2.1229999 0.96100003
-13.82 -2.1300001 0.95599997
-13.819 -2.1329999 0.95099998
-13.819 -2.1340001 0.94400001
-13.822 -2.125 0.935
-13.823 -2.1240001 0.92699999
-13.819 -2.1329999 0.92400002
-13.823 -2.1229999 0.91399997
-13.824 -2.1210001 0.90600002
-13.827 -2.1129999 0.89700001
-13.819 -2.1370001 0.898
-13.824 -2.1240001 0.88700002
-13.816 -2.1440001 0.88599998
-13.826 -2.118 0.87199998
-13.817 -2.142 0.87199998
-13.822 -2.1300001 0.86199999
-13.827 -2.1159999 0.85100001
-13.823 -2.1270001 0.84799999
-13.82 -2.1359999 0.84399998
-13.818 -2.142 0.83899999
-13.824 -2.125 0.82700002
-13.818 -2.142 0.82599998
-13.82 -2.138 0.81800002
-13.823 -2.1300001 0.80900002
-13.821 -2.1359999 0.80400002
-13.819 -2.1400001 0.79799998
-13.823 -2.1300001 0.78899997
-13.82 -2.1389999 0.78500003
-13.814 -2.154 0.78200001
-13.815 -2.154 0.77499998
-13.822 -2.1340001 0.76300001
-13.809 -2.168 0.76599997
-13.816 -2.1500001 0.75400001
-13.811 -2.164 0.75099999
-13.814 -2.158 0.74299997
-13.81 -2.1670001 0.73900002
-13.81 -2.1689999 0.73299998
-13.807 -2.1760001 0.72799999
-13.806 -2.178 0.722
-13.801 -2.1930001 0.71899998
-13.796 -2.2060001 0.71499997
-13.792 -2.2179999 0.71100003
-13.791 -2.2190001 0.70499998
-13.784 -2.2390001 0.70300001
-13.78 -2.2490001 0.699
-13.778 -2.2539999 0.69300002
-13.78 -2.25 0.68599999
-13.776 -2.26 0.68099999
-13.814 -2.1240001 1.003
-13.819 -2.1129999 0.99199998
-13.82 -2.1110001 0.98500001
-13.819 -2.1129999 0.97899997
-13.818 -2.118 0.97399998
-13.818 -2.1159999 0.96600002
-13.814 -2.1270001 0.963
-13.817 -2.1199999 0.954
-13.819 -2.1159999 0.94599998
-13.816 -2.1240001 0.94199997
-13.82 -2.1140001 0.93199998
-13.816 -2.125 0.92799997
-13.817 -2.1199999 0.92000002
-13.811 -2.1370001 0.91900003
-13.817 -2.122 0.90700001
-13.819 -2.118 0.89899999
-13.825 -2.1029999 0.88800001
-13.817 -2.125 0.88800001
-13.823 -2.1070001 0.87599999
-13.809 -2.1459999 0.88099998
-13.809 -2.145 0.87400001
-13.815 -2.131 0.86299998
-13.821 -2.115 0.85100001
-13.81 -2.1440001 0.85299999
-13.82 -2.119 0.83899999
-13.814 -2.135 0.83700001
-13.813 -2.1359999 0.83099997
-13.813 -2.138 0.82499999
-13.813 -2.1389999 0.81800002
-13.814 -2.1359999 0.81099999
-13.816 -2.131 0.80299997
-13.808 -2.151 0.80199999
-13.816 -2.1329999 0.79000002
-13.809 -2.1489999 0.78799999
-13.809 -2.1500001 0.78100002
-13.813 -2.1389999 0.77200001
-13.805 -2.161 0.77100003
-13.812 -2.145 0.75999999
-13.811 -2.1459999 0.75400001
-13.812 -2.1440001 0.74699998
-13.805 -2.1619999 0.745
-13.802 -2.1700001 0.74000001
-13.806 -2.161 0.73100001
-13.795 -2.191 0.73199999
-13.796 -2.187 0.72399998
-13.795 -2.1900001 0.71799999
-13.793 -2.197 0.713
-13.787 -2.2119999 0.70999998
-13.789 -2.2079999 0.70300001
-13.783 -2.223 0.69999999
-13.778 -2.237 0.69599998
-13.776 -2.243 0.69099998
-13.773 -2.2490001 0.68599999
-13.766 -2.2690001 0.68300003
-13.773 -2.2520001 0.67299998
-13.761 -2.2809999 0.67299998
-13.802 -2.138 0.995
-13.808 -2.1240001 0.98299998
-13.807 -2.1259999 0.977
-13.812 -2.1140001 0.96600002
-13.815 -2.1070001 0.95700002
-13.808 -2.125 0.95599997
-13.804 -2.1370001 0.95300001
-13.805 -2.135 0.94599998
-13.805 -2.1340001 0.93900001
-13.812 -2.1170001 0.92699999
-13.811 -2.119 0.92000002
-13.809 -2.1259999 0.91600001
-13.813 -2.1159999 0.90600002
-13.804 -2.1389999 0.90600002
-13.809 -2.1259999 0.89600003
-13.803 -2.141 0.89300001
-13.816 -2.108 0.87699997
-13.806 -2.1340001 0.87800002
-13.807 -2.1329999 0.87099999
-13.808 -2.131 0.86299998
-13.807 -2.1340001 0.85799998
-13.802 -2.1470001 0.85500002
-13.808 -2.131 0.84299999
-13.815 -2.1129999 0.83200002
-13.806 -2.1370001 0.83200002
-13.804 -2.142 0.82700002
-13.802 -2.148 0.82099998
-13.805 -2.141 0.81300002
-13.805 -2.1429999 0.80699998
-13.804 -2.145 0.801
-13.806 -2.1389999 0.792
-13.81 -2.1300001 0.78299999
-13.814 -2.1210001 0.77399999
-13.802 -2.152 0.77600002
-13.811 -2.1289999 0.76300001
-13.796 -2.1670001 0.76599997
-13.802 -2.152 0.75599998
-13.808 -2.1359999 0.745
-13.796 -2.168 0.74699998
-13.798 -2.1630001 0.73900002
-13.8 -2.158 0.73100001
-13.797 -2.1659999 0.72600001
-13.792 -2.181 0.72299999
-13.795 -2.1730001 0.71499997
-13.789 -2.188 0.71200001
-13.788 -2.191 0.70599997
-13.786 -2.1949999 0.69999999
-13.775 -2.224 0.69999999
-13.775 -2.2260001 0.69400001
-13.779 -2.2149999 0.685
-13.77 -2.2379999 0.68400002
-13.762 -2.2620001 0.68199998
-13.754 -2.2820001 0.68000001
-13.757 -2.2739999 0.67199999
-13.763 -2.2579999 0.66100001
-13.802 -2.1210001 0.98299998
-13.796 -2.1370001 0.98100001
-13.808 -2.108 0.96499997
-13.806 -2.112 0.95899999
-13.805 -2.1159999 0.954
-13.807 -2.1110001 0.94599998
-13.806 -2.1140001 0.94
-13.797 -2.1370001 0.94
-13.802 -2.1259999 0.93000001
-13.804 -2.1210001 0.92199999
-13.808 -2.1110001 0.912
-13.805 -2.118 0.90700001
-13.802 -2.1259999 0.903
-13.804 -2.122 0.89499998
-13.797 -2.1400001 0.89399999
-13.801 -2.131 0.884
-13.801 -2.131 0.87699997
-13.803 -2.1270001 0.87
-13.802 -2.1289999 0.86299998
-13.8 -2.1329999 0.85799998
-13.8 -2.135 0.852
-13.8 -2.135 0.84500003
-13.804 -2.1259999 0.83600003
-13.796 -2.1459999 0.83499998
-13.799 -2.1370001 0.82599998
-13.801 -2.1329999 0.81800002
-13.8 -2.1370001 0.81199998
-13.797 -2.1440001 0.80699998
-13.796 -2.1470001 0.80199999
-13.798 -2.1429999 0.79400003
-13.796 -2.1489999 0.78899997
-13.803 -2.131 0.77700001
-13.795 -2.152 0.77600002
-13.793 -2.1559999 0.77100003
-13.796 -2.148 0.76200002
-13.793 -2.1589999 0.75800002
-13.797 -2.1489999 0.74900001
-13.791 -2.164 0.74599999
-13.797 -2.148 0.73500001
-13.791 -2.1630001 0.73299998
-13.795 -2.155 0.72399998
-13.791 -2.1659999 0.72000003
-13.787 -2.175 0.71600002
-13.783 -2.1860001 0.71200001
-13.785 -2.1800001 0.704
-13.782 -2.1900001 0.699
-13.778 -2.1989999 0.69499999
-13.776 -2.2060001 0.69
-13.77 -2.22 0.68599999
-13.768 -2.227 0.68099999
-13.766 -2.2309999 0.676
-13.759 -2.2509999 0.67400002
-13.756 -2.2590001 0.66900003
-13.752 -2.27 0.66399997
-13.756 -2.2579999 0.65499997
-13.75 -2.2750001 0.65200001
-13.791 -2.132 0.98000002
-13.789 -2.138 0.97500002
-13.794 -2.125 0.96399999
-13.793 -2.1300001 0.95899999
-13.799 -2.115 0.94700003
-13.795 -2.1240001 0.94400001
-13.794 -2.1270001 0.93800002
-13.795 -2.1240001 0.93000001
-13.793 -2.131 0.92500001
-13.796 -2.1229999 0.91600001
-13.8 -2.1140001 0.90700001
-13.795 -2.1270001 0.90399998
-13.791 -2.138 0.90100002
-13.79 -2.1389999 0.89399999
-13.793 -2.132 0.88499999
-13.793 -2.135 0.87900001
-13.798 -2.1199999 0.86799997
-13.796 -2.1259999 0.86299998
-13.791 -2.1400001 0.86000001
-13.793 -2.1340001 0.852
-13.793 -2.1359999 0.84600002
-13.796 -2.128 0.83700001
-13.791 -2.141 0.83399999
-13.797 -2.1270001 0.82300001
-13.796 -2.1289999 0.81699997
-13.794 -2.1359999 0.81199998
-13.789 -2.1470001 0.80900002
-13.793 -2.138 0.80000001
-13.789 -2.1470001 0.796
-13.794 -2.1359999 0.78600001
-13.792 -2.141 0.77999997
-13.791 -2.1440001 0.77499998
-13.798 -2.1259999 0.76300001
-13.793 -2.1400001 0.75999999
-13.788 -2.152 0.75700003
-13.793 -2.1400001 0.74699998
-13.792 -2.142 0.741
-13.791 -2.1470001 0.736
-13.791 -2.1459999 0.72899997
-13.787 -2.1570001 0.72500002
-13.79 -2.151 0.71700001
-13.784 -2.1659999 0.71399999
-13.784 -2.1670001 0.708
-13.781 -2.1730001 0.70200002
-13.779 -2.1789999 0.69700003
-13.778 -2.1830001 0.69099998
-13.768 -2.207 0.69099998
-13.772 -2.2 0.68199998
-13.767 -2.211 0.67799997
-13.76 -2.23 0.676
-13.753 -2.2479999 0.67299998
-13.754 -2.2449999 0.66600001
-13.749 -2.2579999 0.662
-13.748 -2.2609999 0.65600002
-13.747 -2.2639999 0.64999998
-13.74 -2.283 0.64700001
-13.788 -2.1229999 0.96399999
-13.782 -2.141 0.963
-13.793 -2.1129999 0.94700003
-13.785 -2.132 0.94700003
-13.784 -2.1359999 0.94099998
-13.789 -2.1240001 0.93000001
-13.789 -2.1229999 0.92299998
-13.788 -2.1259999 0.917
-13.788 -2.1259999 0.91100001
-13.782 -2.142 0.90899998
-13.79 -2.1240001 0.89700001
-13.786 -2.1329999 0.89300001
-13.785 -2.1370001 0.88700002
-13.79 -2.1229999 0.87599999
-13.79 -2.1240001 0.87
-13.781 -2.1470001 0.87
-13.783 -2.1440001 0.86199999
-13.779 -2.154 0.85900003
-13.787 -2.1329999 0.84600002
-13.784 -2.141 0.84100002
-13.79 -2.1270001 0.82999998
-13.784 -2.141 0.82800001
-13.79 -2.1270001 0.81699997
-13.788 -2.132 0.81199998
-13.783 -2.145 0.80900002
-13.778 -2.1570001 0.80599999
-13.787 -2.135 0.79299998
-13.785 -2.1400001 0.78799999
-13.793 -2.1199999 0.77499998
-13.783 -2.1459999 0.77600002
-13.782 -2.1489999 0.76999998
-13.79 -2.131 0.75800002
-13.789 -2.1329999 0.75199997
-13.788 -2.1359999 0.74599999
-13.786 -2.142 0.741
-13.778 -2.161 0.74000001
-13.785 -2.1459999 0.72899997
-13.782 -2.152 0.72399998
-13.788 -2.1370001 0.71399999
-13.789 -2.1359999 0.70700002
-13.779 -2.1600001 0.70599997
-13.775 -2.171 0.70200002
-13.773 -2.177 0.69700003
-13.769 -2.187 0.69300002
-13.768 -2.191 0.68699998
-13.764 -2.2019999 0.68300003
-13.759 -2.214 0.67900002
-13.763 -2.2049999 0.671
-13.756 -2.221 0.66799998
-13.751 -2.2349999 0.66399997
-13.749 -2.2390001 0.65799999
-13.743 -2.2550001 0.65499997
-13.739 -2.266 0.65100002
-13.739 -2.266 0.64399999
-13.744 -2.256 0.63499999
-13.777 -2.1340001 0.96200001
-13.775 -2.1389999 0.95700002
-13.783 -2.122 0.94400001
-13.782 -2.122 0.93699998
-13.778 -2.1329999 0.93400002
-13.781 -2.1259999 0.92500001
-13.781 -2.1270001 0.91799998
-13.785 -2.1170001 0.90899998
-13.78 -2.131 0.90600002
-13.78 -2.131 0.89999998
-13.786 -2.115 0.88800001
-13.78 -2.132 0.88599998
-13.775 -2.1429999 0.88300002
-13.778 -2.138 0.875
-13.784 -2.1229999 0.86299998
-13.773 -2.1500001 0.86500001
-13.776 -2.1440001 0.85600001
-13.783 -2.125 0.84399998
-13.78 -2.1340001 0.83999997
-13.777 -2.141 0.83499998
-13.781 -2.1329999 0.82599998
-13.778 -2.1389999 0.82099998
-13.775 -2.148 0.81699997
-13.777 -2.1440001 0.80900002
-13.78 -2.1359999 0.80000001
-13.778 -2.1400001 0.79500002
-13.776 -2.148 0.79000002
-13.773 -2.155 0.78500003
-13.774 -2.154 0.778
-13.78 -2.138 0.76700002
-13.778 -2.1429999 0.76200002
-13.782 -2.1329999 0.75300002
-13.778 -2.1440001 0.74900001
-13.772 -2.1589999 0.74599999
-13.777 -2.1459999 0.736
-13.779 -2.1429999 0.72899997
-13.774 -2.1570001 0.72600001
-13.773 -2.158 0.71899998
-13.778 -2.1459999 0.70999998
-13.776 -2.151 0.704
-13.777 -2.1500001 0.69800001
-13.774 -2.1559999 0.69300002
-13.77 -2.1670001 0.68800002
-13.763 -2.184 0.68599999
-13.759 -2.1949999 0.68199998
-13.757 -2.2019999 0.67699999
-13.753 -2.211 0.67199999
-13.747 -2.2260001 0.66900003
-13.755 -2.207 0.65799999
-13.739 -2.247 0.66000003
-13.742 -2.24 0.65200001
-13.737 -2.2550001 0.64899999
-13.731 -2.27 0.64499998
-13.734 -2.2609999 0.63700002
-13.711 -2.322 0.64300001
-13.766 -2.145 0.95899999
-13.768 -2.142 0.95099998
-13.774 -2.1259999 0.93900001
-13.781 -2.109 0.92699999
-13.775 -2.1240001 0.92500001
-13.774 -2.1270001 0.91900003
-13.774 -2.1270001 0.912
-13.767 -2.145 0.91100001
-13.766 -2.1489999 0.90600002
-13.777 -2.1229999 0.89099997
-13.775 -2.1270001 0.88499999
-13.774 -2.1289999 0.87900001
-13.771 -2.1370001 0.875
-13.774 -2.1300001 0.866
-13.775 -2.1270001 0.85799998
-13.774 -2.1300001 0.85299999
-13.77 -2.142 0.84899998
-13.77 -2.142 0.84299999
-13.77 -2.1429999 0.83600003
-13.765 -2.154 0.833
-13.767 -2.1500001 0.82499999
-13.769 -2.145 0.81699997
-13.769 -2.1459999 0.81
-13.771 -2.141 0.80199999
-13.774 -2.1329999 0.79299998
-13.767 -2.1530001 0.792
-13.773 -2.1370001 0.78100002
-13.772 -2.142 0.77600002
-13.768 -2.1500001 0.77100003
-13.772 -2.1400001 0.76200002
-13.774 -2.1370001 0.75400001
-13.768 -2.152 0.75199997
-13.778 -2.128 0.73900002
-13.772 -2.141 0.736
-13.77 -2.1470001 0.73100001
-13.773 -2.142 0.722
-13.775 -2.1370001 0.71499997
-13.771 -2.145 0.70999998
-13.769 -2.151 0.70499998
-13.767 -2.1570001 0.69999999
-13.772 -2.145 0.69
-13.766 -2.1600001 0.68699998
-13.763 -2.1689999 0.68300003
-13.761 -2.174 0.67699999
-13.758 -2.181 0.67199999
-13.752 -2.197 0.66900003
-13.749 -2.2060001 0.66500002
-13.741 -2.2249999 0.66299999
-13.744 -2.2190001 0.65399998
-13.744 -2.22 0.648
-13.734 -2.244 0.64700001
-13.73 -2.2539999 0.64200002
-13.726 -2.2650001 0.63800001
-13.724 -2.2709999 0.63200003
-13.727 -2.263 0.62400001
-13.716 -2.29 0.62300003
-13.763 -2.1370001 0.94300002
-13.761 -2.141 0.93800002
-13.762 -2.1400001 0.93099999
-13.769 -2.1240001 0.91900003
-13.768 -2.125 0.912
-13.768 -2.1270001 0.90600002
-13.764 -2.1370001 0.903
-13.764 -2.1370001 0.89600003
-13.761 -2.1429999 0.89099997
-13.767 -2.1300001 0.88
-13.763 -2.1400001 0.87599999
-13.753 -2.164 0.87699997
-13.77 -2.1229999 0.85799998
-13.765 -2.1359999 0.85500002
-13.769 -2.1259999 0.84500003
