ply
format ascii 1.0
comment PCL generated
element vertex 738
property float x
property float y
property float z
element camera 1
property float view_px
property float view_py
property float view_pz
property float x_axisx
property float x_axisy
property float x_axisz
property float y_axisx
property float y_axisy
property float y_axisz
property float z_axisx
property float z_axisy
property float z_axisz
property float focal
property float scalex
property float scaley
property float centerx
property float centery
property int viewportx
property int viewporty
property float k1
property float k2
end_header
26.236835 -5.5128326 0.016916666
26.338669 -5.5186005 0.02406667
26.225636 -5.4459243 0.046839751
26.330948 -5.4735007 0.072499998
26.227421 -5.3489399 0.049631584
26.237818 -5.2542419 0.051645834
26.343399 -5.240869 0.044263158
26.24506 -5.1891761 0.083823532
26.341999 -5.1954999 0.097500004
26.244499 -5.0352535 0.047324307
26.346909 -5.0467191 0.051624995
26.432817 -5.0452728 0.042136364
24.873657 -4.9332376 0.032316841
24.935865 -4.9451661 0.062349509
25.042978 -4.9623618 0.050706889
25.127766 -4.9639673 0.061866663
26.22838 -4.9504962 0.050165553
27.585934 -4.9485941 0.079937488
27.630821 -4.9500542 0.035864864
27.811001 -4.9089999 0.023
24.873312 -4.8496346 0.028604481
24.923689 -4.8433137 0.072601818
25.044611 -4.8073893 0.046222221
25.132572 -4.8058577 0.069285713
26.236097 -4.8585482 0.052725483
26.34543 -4.8324208 0.049710151
26.423519 -4.8318796 0.030200001
27.584778 -4.8804994 0.084333338
27.649698 -4.8774848 0.051136367
27.749659 -4.8724909 0.046220332
27.846279 -4.8731289 0.04569231
24.880825 -4.791214 0.021357145
24.95031 -4.7904744 0.047977783
25.049643 -4.7903605 0.049433824
25.132412 -4.7876248 0.062262505
26.250669 -4.7104998 0.083833337
26.327 -4.7232504 0.085000001
26.196859 -4.6352863 0.056285717
26.220972 -4.6451111 0.054197077
26.334999 -4.6627502 0.042375002
26.196001 -4.5635338 0.043866668
26.213181 -4.5494409 0.048223779
26.198334 -4.478334 0.049666662
26.225611 -4.4521685 0.046451617
26.332638 -4.4355316 0.053382978
26.240702 -4.3955998 0.0064000003
26.341145 -4.3967142 0.0070000007
26.198 -5.4310002 0.1
26.238363 -5.4203672 0.11686666
26.327337 -5.4297338 0.12706669
26.1938 -5.3590002 0.14600001
26.221725 -5.351779 0.14790608
26.325153 -5.3826923 0.17392309
26.194 -5.2950001 0.1785
26.224178 -5.2487483 0.14918366
26.198 -5.198 0.178
26.239813 -5.1566834 0.15371427
26.338556 -5.1524487 0.1412414
26.246529 -5.0367231 0.1487143
26.337059 -5.0490584 0.13676471
26.409 -5.0450001 0.106
27.4925 -5.0040002 0.1865
27.559896 -5.0183849 0.14243589
27.654045 -5.0228186 0.15313636
27.743376 -5.0203128 0.15124999
27.837334 -5.0100002 0.11600001
24.966358 -4.9322286 0.1362752
25.041445 -4.9490118 0.16181611
25.14756 -4.9628544 0.14698182
25.223579 -4.9629474 0.16868421
26.228796 -4.9479604 0.1511074
27.489698 -4.9505 0.18725
27.533749 -4.9506998 0.13768002
24.969975 -4.8502822 0.13496469
25.021431 -4.8381147 0.1775814
25.140909 -4.8063641 0.15236364
25.253 -4.8039999 0.1795
26.195 -4.8600001 0.182
26.238098 -4.8560991 0.15099999
26.32164 -4.8295913 0.12563637
27.488647 -4.8760004 0.18300003
27.550108 -4.8727469 0.15185918
27.647038 -4.8652129 0.14955772
27.742598 -4.8682537 0.14485109
27.811666 -4.8736668 0.13083334
24.978193 -4.7935381 0.11980769
25.051521 -4.7889566 0.14768179
25.150873 -4.7857399 0.14999294
25.229254 -4.7849169 0.16360001
26.196447 -4.7366667 0.16177778
26.228497 -4.7371507 0.15649498
26.323891 -4.736834 0.13194445
26.195801 -4.6628671 0.14233334
26.21241 -4.6502485 0.14871725
26.197575 -4.5750003 0.146
26.222422 -4.5488386 0.14835556
26.338827 -4.5234137 0.1671724
26.244881 -4.4860883 0.11794119
26.335102 -4.4840007 0.11795
26.190001 -5.3169999 0.212
26.237919 -5.3232303 0.22431251
26.324553 -5.33495 0.23590003
26.195 -5.2615004 0.25812498
26.218176 -5.2511916 0.24983969
26.321714 -5.285429 0.28571433
26.197001 -5.1648002 0.27500004
26.220491 -5.1494269 0.24891447
26.232838 -5.0517411 0.249947
26.312 -5.0999999 0.20100001
27.396999 -5.0019999 0.28799999
27.453451 -5.0119996 0.25306448
27.54796 -5.0176797 0.24536
27.6425 -5.0139375 0.24324998
27.705999 -5.02 0.212
25.065428 -4.9342928 0.244077
25.14535 -4.9530306 0.25649235
25.248266 -4.9613934 0.2507143
25.32506 -4.9619412 0.27699998
26.198999 -4.9429998 0.245
26.22835 -4.9480538 0.24934438
27.389565 -4.9493747 0.28675002
27.441002 -4.9502749 0.24115686
25.062923 -4.8508601 0.24083866
25.119381 -4.8337026 0.2801351
25.252144 -4.8048573 0.26014289
25.319668 -4.8076668 0.2816667
26.196625 -4.8311248 0.26499999
26.222624 -4.8531342 0.25080141
26.438 -4.8080001 0.28799999
27.392002 -4.8754001 0.28510001
27.449545 -4.8698654 0.24808636
27.546808 -4.8591046 0.25249121
27.643509 -4.861659 0.24574463
27.709778 -4.8650002 0.2191111
25.077656 -4.790175 0.22919564
25.150068 -4.7869844 0.24923241
25.250389 -4.7861152 0.25068697
25.325455 -4.7863183 0.2663182
26.196499 -4.7537856 0.24471429
26.212151 -4.7516618 0.24799313
26.196892 -4.6581106 0.22933333
26.217257 -4.6485801 0.25125861
26.344955 -4.6143045 0.27626088
26.195499 -4.5834999 0.2105
26.240446 -4.5773935 0.23023941
26.333805 -4.5734515 0.23145159
26.194664 -5.2248335 0.32916665
26.231003 -5.2255797 0.33137095
26.32239 -5.2413888 0.3381111
26.194271 -5.1560769 0.36192313
26.216066 -5.152163 0.34855971
26.317501 -5.1964998 0.38499999
26.195999 -5.0509996 0.37300003
26.218651 -5.0497584 0.35111412
27.357298 -5.0120363 0.35785189
27.444616 -5.0114999 0.34780768
27.542572 -5.0089521 0.34385714
27.615999 -5.0009999 0.32699999
25.099001 -4.9029999 0.301
25.156569 -4.9347792 0.34422693
25.246199 -4.9539833 0.35690004
25.350842 -4.9596601 0.3511
25.41993 -4.9637141 0.37307146
26.198 -4.9450002 0.391
26.227949 -4.9505725 0.3473416
27.288401 -4.9464002 0.39093333
27.342844 -4.9509306 0.34330699
27.606001 -4.9899998 0.37
25.094 -4.8660002 0.30000001
25.156002 -4.8493552 0.34557354
25.211111 -4.8273888 0.37500003
25.475 -4.803 0.384
26.196701 -4.8499999 0.35630003
26.216343 -4.8488202 0.34915006
26.44186 -4.8321433 0.36399999
27.285999 -4.8735833 0.39158338
27.349005 -4.868578 0.34972221
27.446077 -4.8534765 0.35198465
27.547668 -4.8557081 0.34879994
27.623669 -4.8612499 0.31883332
25.169521 -4.7900538 0.33251783
25.247095 -4.7867837 0.34915668
25.346945 -4.784328 0.34757528
25.425577 -4.7867308 0.37246156
26.197004 -4.7592001 0.3328
26.214792 -4.7487712 0.34922725
26.351166 -4.7185001 0.38999999
26.198999 -4.6919999 0.32699999
26.23872 -4.6678228 0.34042743
26.338808 -4.6631613 0.34632257
26.191624 -5.1268749 0.42687503
26.229965 -5.1322565 0.43433321
26.326881 -5.1420584 0.44535294
26.195177 -5.0538716 0.45789742
26.212597 -5.0504322 0.45029917
26.352001 -5.0974998 0.48199999
27.252726 -5.0068893 0.4621667
27.345184 -5.0072274 0.45040911
27.454927 -5.0070004 0.43784615
27.51 -5.007 0.412
25.25124 -4.9350729 0.44527322
25.351702 -4.9563746 0.45132154
25.451811 -4.9588838 0.45002329
25.513182 -4.9613633 0.47536367
26.196215 -4.9480004 0.46792859
26.215078 -4.9510784 0.44862098
27.1931 -4.9320998 0.49079999
27.245565 -4.952404 0.44657248
27.341667 -4.9990005 0.47666669
27.44343 -4.9954286 0.47400004
25.198999 -4.8909998 0.417
25.249529 -4.850224 0.44824734
25.302 -4.8354998 0.4975
26.196779 -4.8613334 0.45155558
26.21413 -4.8491001 0.45008799
26.433086 -4.8264999 0.46358335
27.189289 -4.8788576 0.48657146
27.247072 -4.8648553 0.45454645
27.349279 -4.8507051 0.45019683
27.44578 -4.8484364 0.44843638
27.528309 -4.8513846 0.42684618
25.263067 -4.7890749 0.43632504
25.347763 -4.7842517 0.44627821
25.446924 -4.7840481 0.45100015
25.519943 -4.7867646 0.47358823
26.198 -4.7969999 0.43799999
26.232693 -4.7554655 0.44316661
26.337845 -4.7411022 0.44644076
26.413666 -4.7670002 0.46900004
26.356001 -4.698 0.414
26.192724 -5.0283794 0.53555167
26.229443 -5.0370765 0.54587913
26.352449 -5.048655 0.55293107
26.427233 -5.0339236 0.56146163
27.168688 -5.0052495 0.55618745
27.243349 -5.0048823 0.53852946
27.354126 -5.0056248 0.541875
27.417 -5.006 0.52399999
25.2959 -4.9317002 0.51070005
25.34403 -4.9346385 0.54759997
25.450846 -4.9553404 0.54680854
25.543371 -4.958159 0.55481827
25.614334 -4.9576669 0.5916667
26.195578 -4.9632635 0.5571053
26.212328 -4.9454017 0.54850763
27.094749 -4.9402499 0.59299999
27.148441 -4.9497418 0.54970163
27.246876 -4.9905005 0.55175
27.34708 -4.9952312 0.55361545
27.4245 -4.9949999 0.50999999
25.295717 -4.8480005 0.50242859
25.341873 -4.8501062 0.55045575
26.198 -4.8505001 0.55500001
26.226191 -4.8462777 0.55212766
26.350595 -4.8173742 0.56143749
26.428225 -4.8199787 0.55457145
27.094858 -4.8720002 0.59100002
27.153948 -4.8656182 0.55261773
27.248943 -4.8445549 0.54936111
27.350616 -4.8424439 0.54657137
27.421467 -4.8412004 0.52693337
27.504 -4.8639998 0.50599998
25.358356 -4.7851391 0.53881735
25.44878 -4.7829285 0.54933339
25.54352 -4.7823696 0.55568039
25.616858 -4.7862854 0.58142865
26.254999 -4.7914004 0.51528001
26.326248 -4.7891874 0.50974995
26.240498 -5.0228157 0.65115792
26.346376 -5.0299368 0.65228128
26.425188 -5.0248127 0.65368748
27.057837 -5.0043335 0.67750001
27.145365 -5.0029998 0.62836361
27.235001 -5.0027499 0.63024998
27.314499 -5.0044999 0.61849999
25.387003 -4.9238257 0.61030442
25.440596 -4.9362597 0.6524694
25.548855 -4.955102 0.65040815
25.640642 -4.9589486 0.65882057
26.194223 -4.9436669 0.62333333
26.220793 -4.9496183 0.65120393
26.994999 -4.9405003 0.69499999
27.052011 -4.9519715 0.65043151
27.134344 -4.9915657 0.6415652
27.252155 -4.9920502 0.65414995
27.316999 -4.9945002 0.61199999
25.389702 -4.8561997 0.60886663
25.436548 -4.8469424 0.65805632
26.196669 -4.870667 0.63950002
26.232447 -4.8431735 0.64822119
26.350302 -4.8167214 0.64948887
26.428997 -4.8186278 0.65086043
26.991001 -4.8715 0.69300002
27.053244 -4.8637333 0.65709728
27.145626 -4.8423157 0.64659208
27.247473 -4.8384123 0.65001464
27.327318 -4.8396311 0.6314736
25.389288 -4.7874289 0.60728574
25.454609 -4.7834454 0.64430434
25.551231 -4.7834096 0.65052384
25.644176 -4.7845845 0.65358442
25.709003 -4.7851667 0.6845001
26.424999 -4.7979999 0.64099997
26.242439 -5.0212183 0.74523199
26.348614 -5.0254526 0.7498709
26.416706 -5.0271769 0.75647062
26.977001 -5.0089998 0.76750004
27.038 -5.0040002 0.71899998
27.162498 -5.0059996 0.764
25.482216 -4.932951 0.71697563
25.539028 -4.9382772 0.75785148
25.64995 -4.9532375 0.75069046
25.733311 -4.957345 0.75827581
25.799999 -4.9619999 0.79500002
26.1985 -4.914 0.727
26.223593 -4.952064 0.75000632
26.894001 -4.941 0.79449999
26.957085 -4.9523745 0.75311345
27.036818 -4.9841204 0.73918188
27.1471 -4.9880996 0.74805009
27.232834 -4.9865003 0.71916664
25.485683 -4.8519793 0.71399981
25.53067 -4.8501568 0.76252437
26.19775 -4.8579998 0.75849998
26.232687 -4.8416595 0.74935937
26.348675 -4.8137255 0.75118393
26.428617 -4.8127999 0.74815995
26.895668 -4.8673334 0.79133338
26.953808 -4.8589754 0.75516665
27.047623 -4.8364787 0.75004351
27.146191 -4.8345475 0.74959671
27.223959 -4.8354163 0.72783327
25.489307 -4.7855387 0.71207696
25.554329 -4.783474 0.74700016
25.650721 -4.7839675 0.74976343
25.73815 -4.7831306 0.75759423
25.8055 -4.7779999 0.78299999
26.362999 -4.7974997 0.76849997
26.4405 -4.7934999 0.75800002
26.244158 -5.018528 0.84862858
26.347282 -5.0233569 0.85082138
26.41905 -5.0219502 0.85124987
26.856001 -5.0019999 0.884
25.579088 -4.9298577 0.82689291
25.639149 -4.9403996 0.85814995
25.748297 -4.9545684 0.84963626
25.831181 -4.9591427 0.85935724
26.198 -4.9970002 0.83499998
26.221544 -4.9497809 0.84955126
26.797001 -4.914 0.89499998
26.856989 -4.9486732 0.85687035
26.931267 -4.9791708 0.83382916
27.048275 -4.9819603 0.85396004
27.12278 -4.9831109 0.82100004
25.580648 -4.8515282 0.8222
25.62491 -4.8501167 0.8704893
25.857334 -4.8039999 0.8696667
25.958 -4.8210001 0.84299999
26.198334 -4.853334 0.84833336
26.230913 -4.8416324 0.84921986
26.34729 -4.8094659 0.84821326
26.425852 -4.81005 0.84517509
26.792999 -4.8505001 0.89574999
26.85705 -4.857657 0.85615617
26.945847 -4.8347473 0.84359986
27.046959 -4.8300905 0.84987873
27.123413 -4.8312416 0.83065522
25.582952 -4.7889524 0.81599993
25.652985 -4.7852197 0.84794003
25.75095 -4.783936 0.85068822
25.837103 -4.7845259 0.86201686
25.9095 -4.7895002 0.88750005
26.2495 -4.7969999 0.8585
26.341541 -4.7985382 0.8701539
26.421001 -4.7976665 0.84600008
26.243221 -5.0181837 0.94589996
26.349966 -5.0209641 0.94592863
26.421768 -5.0135388 0.95430773
26.771999 -5.0009999 0.97899997
25.675032 -4.9287686 0.93362337
25.736393 -4.9440002 0.96038479
25.849173 -4.9561749 0.94750011
25.93045 -4.9583507 0.96009988
26.188 -4.96 0.93400002
26.216835 -4.9462967 0.94954193
26.479 -4.9970002 0.926
26.760725 -4.9452949 0.95772284
26.831425 -4.9713397 0.93293619
26.945961 -4.977231 0.95284617
27.025183 -4.9753637 0.92654544
25.673145 -4.8527951 0.92917216
25.71924 -4.8487129 0.97810185
25.849501 -4.8070002 0.94633335
25.924999 -4.8024998 0.9885
26.192501 -4.8635001 0.95599997
26.231379 -4.8375683 0.94784319
26.347422 -4.8072238 0.95263159
26.426758 -4.8093638 0.95127279
26.755865 -4.8582749 0.9577558
26.845539 -4.8297763 0.94575286
26.949154 -4.8232737 0.94813704
27.030296 -4.8244448 0.9258889
25.677658 -4.7881718 0.92458618
25.747496 -4.7856693 0.95110309
25.847275 -4.7868667 0.9488588
25.929638 -4.787179 0.96299994
26.228001 -4.7950001 0.98900002
26.354383 -4.7969236 0.94392312
26.418001 -4.7980003 0.93633336
26.253641 -5.0185895 1.0503333
26.349998 -5.0178275 1.0465174
26.410833 -5.0106668 1.0495001
25.765343 -4.9288106 1.0376962
25.836018 -4.94489 1.0591483
25.947844 -4.9526587 1.0529547
26.033298 -4.9446006 1.0646001
26.197998 -4.9352498 1.039
26.216879 -4.9452477 1.0448762
26.469669 -4.9876666 1.0383334
26.513334 -4.961 1.0803335
26.665201 -4.9352126 1.0560112
26.733252 -4.9637308 1.0324807
26.849808 -4.9690771 1.0517691
26.923599 -4.9707999 1.0361334
25.766375 -4.8514051 1.0364767
25.8169 -4.8448048 1.0816342
25.938499 -4.8059998 1.0215
26.047602 -4.8031998 1.063
26.190845 -4.8586931 1.0494616
26.228273 -4.842309 1.0489128
26.351757 -4.8074741 1.0464913
26.427595 -4.8095183 1.0495186
26.661762 -4.8551207 1.05994
26.741863 -4.8312821 1.0429168
26.847466 -4.8195758 1.0497808
26.925962 -4.8195715 1.02825
25.77471 -4.7877641 1.0270882
25.848999 -4.7872005 1.0483047
25.948076 -4.7863746 1.0510405
26.024742 -4.7843995 1.0658001
26.263786 -4.7979293 1.0409286
26.340452 -4.7972755 1.0567586
26.414503 -4.7982001 1.0551
26.247772 -5.0173507 1.148725
26.351828 -5.0169997 1.147862
26.407249 -5.0097499 1.151
25.859596 -4.9273911 1.1435289
25.944279 -4.9492087 1.1536744
26.041624 -4.9525709 1.1509429
26.131638 -4.9366364 1.1602727
26.213955 -4.9515471 1.1488906
26.477667 -4.9816675 1.1585
26.568138 -4.9512682 1.1544001
26.635948 -4.9576426 1.137643
26.75382 -4.9631076 1.1498213
26.834249 -4.9642501 1.1239166
25.85998 -4.8508754 1.1429222
25.908728 -4.8360457 1.189091
26.057999 -4.8085003 1.1357501
26.162113 -4.8186669 1.156
26.231613 -4.8308649 1.1415765
26.357866 -4.8071375 1.1486863
26.443111 -4.8118143 1.1455185
26.569281 -4.8398576 1.1593248
26.643339 -4.8260202 1.1438085
26.744278 -4.8149471 1.1489067
26.826839 -4.8157816 1.1286563
25.87085 -4.7874584 1.131042
25.947578 -4.7842445 1.1512038
26.045895 -4.7839384 1.1506121
26.119902 -4.7853503 1.1775001
26.256073 -4.7966743 1.15545
26.340076 -4.796102 1.1528205
26.416786 -4.7965717 1.1567857
26.774 -4.7969999 1.191
26.809 -4.796 1.178
26.244701 -5.0160546 1.2496216
26.343515 -5.014678 1.2461935
26.407572 -5.0087147 1.2521429
25.892 -4.9250002 1.2079999
25.951813 -4.9298596 1.2452196
26.055193 -4.9510245 1.2518779
26.14814 -4.9508276 1.2521033
26.214334 -4.9670262 1.2416667
26.485001 -4.9769998 1.2320001
26.550873 -4.9620647 1.2463224
26.649702 -4.9589257 1.2518517
26.731133 -4.9587336 1.2317334
25.954208 -4.849864 1.2475218
26.018499 -4.8264999 1.2695
26.150665 -4.8026671 1.2390001
26.251366 -4.8130264 1.2426052
26.351627 -4.8047419 1.2395926
26.454147 -4.8143544 1.2578542
26.545822 -4.8154569 1.2472719
26.64591 -4.8096762 1.2468674
26.726044 -4.8113337 1.2280833
25.966957 -4.7855177 1.2389312
26.047421 -4.7833323 1.2487779
26.147675 -4.7855124 1.2542
26.253075 -4.794024 1.2463659
26.346523 -4.7956038 1.2544152
26.422846 -4.7976923 1.2437693
26.565001 -4.7979999 1.271
26.655222 -4.7965555 1.2627779
26.714249 -4.7922502 1.2335
26.25115 -5.0128784 1.3456969
26.350338 -5.0114546 1.3501515
26.408802 -5.0074 1.3554
25.988401 -4.9302001 1.3049999
26.044327 -4.9321389 1.3494149
26.146299 -4.9531622 1.3485675
26.214096 -4.9742193 1.3484145
26.498501 -4.9685001 1.3195
26.554094 -4.9542274 1.3505001
26.629528 -4.9534717 1.3318235
25.995802 -4.8596001 1.3046
26.043312 -4.8485045 1.350237
26.155499 -4.8092499 1.35
26.263145 -4.8115716 1.3282858
26.358358 -4.8147144 1.3503097
26.448074 -4.8083429 1.349821
26.548389 -4.8066597 1.3437742
26.631565 -4.8081307 1.3239565
26.058647 -4.7877469 1.3380141
26.150089 -4.7861185 1.3472172
26.246849 -4.7865205 1.352767
26.338116 -4.7937713 1.3484286
26.453737 -4.7979999 1.3573158
26.553589 -4.7953176 1.3613636
26.6194 -4.7962008 1.335
26.250212 -5.0102434 1.4474244
26.347029 -5.0102725 1.4501516
26.418402 -5.0118003 1.4534
26.088165 -4.9258895 1.4136667
26.140442 -4.9327755 1.4540268
26.213745 -4.9710774 1.4530512
26.396999 -5 1.47
26.5375 -4.9536247 1.41575
26.091 -4.8605194 1.4095597
26.134598 -4.8498178 1.458231
26.233334 -4.8046665 1.4456667
26.354887 -4.8079996 1.4368888
26.456749 -4.8068748 1.42425
26.545284 -4.8119998 1.4245715
26.093714 -4.7878571 1.4077144
26.157875 -4.7865596 1.4426
26.246689 -4.7801371 1.4492989
26.356495 -4.7862458 1.4534055
26.452457 -4.7924857 1.4483715
26.524502 -4.7932224 1.4243333
26.257034 -5.0087786 1.5483332
26.346102 -5.0087333 1.5490667
26.414232 -5.0130777 1.5537692
26.184696 -4.9279566 1.5218263
26.21875 -4.9564595 1.5580084
26.382 -4.9983339 1.569
26.421667 -4.9983335 1.5450001
26.185762 -4.8478231 1.5315884
26.212025 -4.8442159 1.5649484
26.366501 -4.8050003 1.538
26.442001 -4.802 1.5413334
26.191376 -4.7897501 1.5233749
26.252789 -4.7863412 1.5460976
26.35021 -4.7873173 1.5500734
26.431162 -4.7886443 1.546622
26.3463 -5.0085683 1.6560664
26.414534 -5.0110002 1.6486666
26.197859 -4.9317145 1.6548572
26.218164 -4.9519372 1.6494236
26.394501 -5 1.628
26.417999 -5 1.676
26.193911 -4.8439703 1.6515455
26.215492 -4.8429012 1.6493453
26.339333 -4.8036671 1.6529999
26.438999 -4.803 1.683
26.258472 -4.7927575 1.6489544
26.348661 -4.7848582 1.6488589
26.429583 -4.7881217 1.6478781
26.410641 -5.0131822 1.7440001
26.193335 -4.9223337 1.7463334
26.217867 -4.9527578 1.7485974
26.379002 -4.9980001 1.727
26.195047 -4.8460751 1.7491747
26.215776 -4.8430557 1.7509221
26.351873 -4.8081245 1.7643751
26.418499 -4.8065 1.717
26.188332 -4.798667 1.7449999
26.257149 -4.7925229 1.748652
26.34796 -4.7875957 1.7478737
26.425348 -4.7868505 1.7498999
26.219057 -4.9505749 1.8475884
26.193949 -4.8462677 1.851512
26.215708 -4.8456883 1.8488399
26.339666 -4.8093333 1.8511667
26.421 -4.8039999 1.817
26.1985 -4.796 1.8204999
26.251352 -4.7924323 1.8543135
26.348059 -4.7859745 1.8475316
26.42659 -4.7843075 1.8513589
26.197498 -4.9087496 1.95925
26.194799 -4.8486667 1.9472001
26.215126 -4.8500695 1.9519075
26.326336 -4.8033333 1.9656668
26.418333 -4.8056669 1.9296668
26.247965 -4.7923422 1.9473543
26.35096 -4.785356 1.9466664
26.427452 -4.7824769 1.9516817
26.194887 -4.8398848 2.0471537
26.213579 -4.8514514 2.0500457
26.338001 -4.8059998 2.0525
26.251514 -4.7911344 2.0484884
26.347614 -4.7832532 2.0482652
26.4289 -4.7809591 2.047857
26.196667 -4.923667 2.1553335
26.224998 -4.9542069 2.1503057
26.194958 -4.845304 2.147826
26.214472 -4.847836 2.1489413
26.352501 -4.8059998 2.1315
26.42 -4.8010001 2.1430001
26.252083 -4.7899413 2.148788
26.348927 -4.7812428 2.1504023
26.429195 -4.7791491 2.1500211
26.412498 -5.0139999 2.2880001
26.230536 -4.953825 2.2503827
26.346647 -4.9902511 2.2530003
26.418692 -4.9870625 2.2475624
26.194719 -4.8362222 2.2455552
26.213346 -4.8518105 2.2509286
26.195 -4.7909999 2.227
26.246723 -4.7881145 2.250828
26.347643 -4.7790327 2.2496445
26.431 -4.7784648 2.2512791
26.263 -5.0023336 2.3396668
26.419001 -5.0100002 2.3299999
26.198999 -4.9590001 2.3970001
26.230284 -4.9534054 2.3496189
26.346869 -4.9882584 2.3506455
26.426813 -4.9851871 2.3503752
26.194601 -4.8298674 2.3392003
26.213369 -4.8515272 2.3501067
26.192501 -4.7910004 2.3415
26.250128 -4.7844014 2.3512578
26.34901 -4.7755556 2.3497906
26.430201 -4.7755332 2.3470666
26.281 -5.0009999 2.4419999
26.195999 -4.961 2.4219999
26.228327 -4.9511318 2.4516881
26.356207 -4.9825859 2.452862
26.424856 -4.9841433 2.4477146
26.197145 -4.8292861 2.4327145
26.214056 -4.8510303 2.4500437
26.328667 -4.8053336 2.4403334
26.248947 -4.7823792 2.4496741
26.349873 -4.7726164 2.4497688
26.432167 -4.7743568 2.4511428
26.193602 -4.9246001 2.5611999
26.22295 -4.9516692 2.5479693
26.352251 -4.9801564 2.5505621
26.424374 -4.9836869 2.5483749
26.196159 -4.8579473 2.5690002
26.214048 -4.8528166 2.5471318
26.332001 -4.8099999 2.517
26.248688 -4.775878 2.5555878
26.346752 -4.7684236 2.5487647
26.433231 -4.77034 2.5497661
26.227612 -4.9494925 2.6484692
26.353003 -4.9786663 2.6503937
26.420135 -4.9842672 2.6467998
26.192951 -4.8349504 2.6464503
26.209867 -4.8558087 2.6467001
26.191841 -4.7551961 2.6639414
26.230137 -4.7434669 2.6387773
26.351341 -4.7466054 2.6289468
26.432714 -4.7684522 2.6475713
26.192669 -4.6886668 2.6953335
26.254715 -4.6710315 2.6750443
26.313654 -4.6582308 2.6700003
26.2635 -5.0015001 2.7985001
26.193501 -4.9119997 2.7804999
26.229778 -4.9511781 2.7527039
26.344551 -4.9769645 2.748069
26.41695 -4.9819999 2.7530499
26.195601 -4.8194003 2.7163999
26.214706 -4.854135 2.7514174
26.192623 -4.7402706 2.7385004
26.206163 -4.756074 2.7541473
26.3862 -4.7608004 2.7458
26.42989 -4.7737784 2.7483335
26.189056 -4.6544204 2.7590685
26.233681 -4.6374474 2.7300613
26.314499 -4.6147499 2.7195833
26.186934 -4.5804005 2.7874002
26.248343 -4.5663934 2.7718937
26.313692 -4.5600481 2.7599056
26.240711 -5.0192909 2.8597636
26.338739 -5.0240431 2.8666959
26.173101 -4.9301705 2.8255363
26.220827 -4.9528217 2.8474212
26.358503 -4.9874001 2.8191001
26.413635 -4.9840913 2.8359091
26.192717 -4.8797145 2.8464289
26.215864 -4.849515 2.8507886
26.194557 -4.7291107 2.8394444
26.217474 -4.7577124 2.8463168
26.385 -4.7150002 2.8180001
26.431555 -4.7696671 2.8393335
26.191309 -4.6394658 2.8401124
26.205807 -4.6594844 2.855901
26.186289 -4.5502658 2.8546422
26.233383 -4.5275912 2.8212729
26.318874 -4.5198746 2.81025
26.185444 -4.4763703 2.8812962
26.248823 -4.460969 2.8639922
26.312767 -4.4565291 2.8556175
26.2855 -4.3979998 2.8985
26.230743 -5.0435414 2.9524961
26.333824 -5.063715 2.9513214
26.194836 -4.9348335 2.9581668
26.216656 -4.9496851 2.9485469
26.1985 -4.8817501 2.934
26.217882 -4.8487086 2.9506142
26.195999 -4.7849998 2.9070001
26.239277 -4.775135 2.9503858
26.321636 -4.7615457 2.977818
26.443222 -4.7656665 2.9443333
26.192419 -4.6253333 2.9190834
26.217218 -4.6390934 2.930156
26.190628 -4.5449262 2.9437153
26.206724 -4.5645547 2.9631946
26.182381 -4.4514852 2.9501948
26.229063 -4.4218473 2.9171743
26.320333 -4.4086666 2.9293334
26.182581 -4.3687472 2.9735253
26.247105 -4.3536401 2.9573717
26.313251 -4.3577857 2.9478574
26.281 -4.2919998 2.994
26.304001 -4.2989998 2.9949999
0 0 0 1 0 0 0 1 0 0 0 1 0 0 0 0 0 738 1 0 0
