ply
format ascii 1.0
comment PCL generated
element vertex 1918
property float x
property float y
property float z
element camera 0
property float view_px
property float view_py
property float view_pz
property float x_axisx
property float x_axisy
property float x_axisz
property float y_axisx
property float y_axisy
property float y_axisz
property float z_axisx
property float z_axisy
property float z_axisz
property float focal
property float scalex
property float scaley
property float centerx
property float centery
property int viewportx
property int viewporty
property float k1
property float k2
end_header
6.658 10.057 2.8740001
6.6739998 10.066 2.8699999
6.6669998 10.061 2.8529999
6.671 10.064 2.8429999
6.658 10.056 2.823
6.6760001 10.066 2.8210001
6.6810002 10.068 2.8110001
6.6719999 10.063 2.793
6.678 10.066 2.7839999
6.678 10.067 2.7720001
6.6599998 10.056 2.7490001
6.664 10.059 2.7390001
6.6719999 10.062 2.73
6.665 10.059 2.714
6.6739998 10.063 2.707
6.6880002 10.071 2.7019999
6.6950002 10.074 2.6930001
6.6960001 10.075 2.6819999
6.7140002 10.084 2.6789999
6.7220001 10.088 2.6700001
6.7420001 10.099 2.668
6.75 10.103 2.6600001
6.757 10.106 2.651
6.7659998 10.111 2.6429999
6.796 10.127 2.6470001
6.7969999 10.127 2.6340001
6.7989998 10.128 2.6229999
6.8299999 10.145 2.6259999
6.8400002 10.15 2.619
6.8379998 10.148 2.605
7.7519999 10.597 0.066
7.783 10.613 0.054000001
7.7750001 10.609 0.041999999
7.7680001 10.605 0.029999999
7.777 10.61 0.017999999
6.6989999 10.092 2.99
6.664 10.073 2.9560001
6.6719999 10.077 2.9489999
6.677 10.079 2.938
6.6719999 10.077 2.9230001
6.6799998 10.081 2.915
6.6729999 10.077 2.898
6.6690001 10.075 2.8829999
6.6750002 10.078 2.8729999
6.6700001 10.075 2.858
6.6669998 10.073 2.8440001
6.664 10.071 2.829
6.665 10.072 2.8169999
6.6680002 10.073 2.806
6.6830001 10.081 2.802
6.6789999 10.079 2.7869999
6.6810002 10.08 2.776
6.6789999 10.078 2.7620001
6.664 10.07 2.7409999
6.6789999 10.078 2.737
6.6750002 10.076 2.7219999
6.6789999 10.078 2.7119999
6.6700001 10.073 2.6949999
6.6820002 10.079 2.6889999
6.6789999 10.078 2.675
6.6950002 10.086 2.671
6.717 10.097 2.6700001
6.7270002 10.103 2.6630001
6.7360001 10.107 2.655
6.7420001 10.11 2.6459999
6.7579999 10.118 2.642
6.7779999 10.129 2.6400001
6.7800002 10.13 2.628
6.7940001 10.138 2.6229999
6.8150001 10.149 2.6210001
6.822 10.152 2.612
6.829 10.155 2.6029999
6.8709998 10.178 2.6110001
6.8959999 10.191 2.6110001
7.7030001 10.586 0.114
7.7280002 10.599 0.102
7.7290001 10.599 0.090000004
7.7490001 10.609 0.078000002
7.7459998 10.608 0.066
7.7459998 10.608 0.054000001
7.7459998 10.607 0.041999999
7.7410002 10.605 0.028999999
7.7410002 10.605 0.017000001
6.7030001 10.105 2.9820001
6.664 10.084 2.947
6.6659999 10.085 2.9349999
6.6729999 10.089 2.9260001
6.6739998 10.089 2.914
6.6700001 10.087 2.898
6.677 10.09 2.8900001
6.6659999 10.084 2.8710001
6.664 10.083 2.8570001
6.6659999 10.084 2.845
6.6659999 10.084 2.8329999
6.6630001 10.082 2.8180001
6.6789999 10.091 2.8150001
6.6729999 10.087 2.799
6.6680002 10.085 2.7839999
6.6729999 10.087 2.7739999
6.684 10.093 2.767
6.6739998 10.087 2.7490001
6.6630001 10.081 2.7309999
6.6739998 10.087 2.724
6.6750002 10.087 2.7119999
6.677 10.088 2.701
6.6820002 10.09 2.691
6.6680002 10.083 2.671
6.6880002 10.093 2.6700001
6.6900001 10.095 2.6589999
6.6989999 10.099 2.651
6.724 10.113 2.652
6.7329998 10.117 2.6429999
6.7449999 10.123 2.6370001
6.756 10.129 2.631
6.7639999 10.133 2.622
6.7839999 10.144 2.6199999
6.7820001 10.143 2.6070001
6.8130002 10.159 2.6099999
6.8249998 10.165 2.6040001
6.8260002 10.166 2.592
6.829 10.167 2.5799999
6.8899999 10.2 2.598
7.6869998 10.591 0.15000001
7.7080002 10.602 0.138
7.7280002 10.613 0.127
7.7259998 10.611 0.114
7.7249999 10.611 0.102
7.73 10.613 0.090000004
7.7119999 10.604 0.078000002
7.7129998 10.604 0.064999998
7.7129998 10.604 0.052999999
7.7129998 10.604 0.041000001
7.7090001 10.601 0.028999999
7.7010002 10.597 0.017000001
6.6859999 10.108 2.9619999
6.6630001 10.095 2.9360001
6.6659999 10.096 2.924
6.6760001 10.102 2.918
6.6729999 10.1 2.9030001
6.6719999 10.099 2.8900001
6.6700001 10.098 2.8759999
6.678 10.103 2.868
6.6659999 10.096 2.848
6.671 10.098 2.8380001
6.671 10.098 2.825
6.678 10.101 2.8169999
6.6680002 10.096 2.799
6.6719999 10.098 2.7880001
6.678 10.101 2.779
6.678 10.101 2.766
6.6789999 10.102 2.7550001
6.6890001 10.107 2.747
6.6739998 10.099 2.727
6.678 10.1 2.7160001
6.678 10.1 2.704
6.6700001 10.096 2.688
6.6719999 10.097 2.6760001
6.6789999 10.1 2.6670001
6.6799998 10.101 2.655
6.698 10.11 2.652
6.7080002 10.115 2.645
6.7160001 10.12 2.6370001
6.7160001 10.12 2.625
6.743 10.134 2.6259999
6.7480001 10.136 2.6159999
6.7719998 10.149 2.6159999
6.7729998 10.149 2.6040001
6.783 10.155 2.5969999
6.8070002 10.167 2.5969999
6.8239999 10.176 2.5929999
6.8309999 10.18 2.5840001
6.8260002 10.177 2.569
6.8280001 10.178 2.5569999
7.6700001 10.596 0.17299999
7.6830001 10.603 0.162
7.704 10.614 0.15000001
7.6880002 10.605 0.138
7.6929998 10.608 0.126
7.7059999 10.615 0.114
7.697 10.61 0.102
7.677 10.599 0.089000002
7.7010002 10.612 0.077
7.698 10.61 0.064999998
7.7020001 10.612 0.052999999
7.691 10.606 0.041000001
7.6859999 10.603 0.028999999
7.6880002 10.604 0.016000001
6.7059999 10.13 2.9630001
6.6719999 10.111 2.931
6.664 10.107 2.9130001
6.6620002 10.106 2.9000001
6.6719999 10.111 2.892
6.6830001 10.117 2.8859999
6.6760001 10.113 2.869
6.6739998 10.112 2.855
6.6690001 10.109 2.8399999
6.6799998 10.115 2.8329999
6.6589999 10.103 2.809
6.6620002 10.105 2.7980001
6.671 10.109 2.79
6.6830001 10.116 2.7839999
6.6599998 10.103 2.7590001
6.6810002 10.114 2.7579999
6.6900001 10.119 2.75
6.6849999 10.116 2.7349999
6.6669998 10.106 2.7130001
6.6659999 10.106 2.7
6.6760001 10.111 2.6930001
6.671 10.108 2.678
6.6830001 10.114 2.6719999
6.6789999 10.112 2.6570001
6.6729999 10.109 2.642
6.6960001 10.121 2.641
6.7090001 10.128 2.6359999
6.7059999 10.126 2.622
6.7270002 10.137 2.6210001
6.7459998 10.147 2.618
6.7399998 10.144 2.602
6.7579999 10.153 2.599
6.77 10.16 2.5929999
6.7950001 10.173 2.5929999
6.802 10.177 2.5840001
6.8000002 10.175 2.5699999
6.8239999 10.188 2.5699999
6.8280001 10.19 2.5599999
6.8460002 10.2 2.556
6.8779998 10.217 2.559
7.6329999 10.591 0.19599999
7.664 10.607 0.185
7.6719999 10.611 0.17399999
7.664 10.607 0.161
7.6690001 10.609 0.149
7.6750002 10.612 0.13699999
7.6659999 10.608 0.125
7.6659999 10.607 0.113
7.6620002 10.605 0.101
7.6750002 10.612 0.089000002
7.658 10.602 0.077
7.6620002 10.605 0.064999998
7.6490002 10.598 0.052000001
7.6630001 10.605 0.039999999
7.6500001 10.598 0.028000001
7.664 10.605 0.016000001
6.6830001 10.129 2.927
6.6789999 10.126 2.9119999
6.6739998 10.124 2.8959999
6.6849999 10.129 2.8900001
6.6669998 10.12 2.8670001
6.6690001 10.121 2.855
6.6760001 10.124 2.846
6.6789999 10.126 2.835
6.6719999 10.122 2.819
6.6729999 10.122 2.8069999
6.6669998 10.119 2.79
6.6810002 10.126 2.786
6.671 10.121 2.7679999
6.6799998 10.125 2.76
6.6789999 10.125 2.747
6.6799998 10.125 2.7349999
6.6799998 10.125 2.723
6.6729999 10.121 2.7060001
6.678 10.123 2.6960001
6.6890001 10.129 2.6900001
6.6880002 10.128 2.677
6.6700001 10.118 2.655
6.684 10.126 2.6500001
6.6859999 10.127 2.6389999
6.7010002 10.135 2.6340001
6.7059999 10.138 2.625
6.7030001 10.136 2.6110001
6.723 10.146 2.608
6.7389998 10.155 2.6040001
6.7649999 10.169 2.605
6.7600002 10.166 2.5899999
6.7750001 10.174 2.585
6.7950001 10.185 2.5829999
6.7930002 10.184 2.5699999
6.8130002 10.194 2.5669999
6.8119998 10.194 2.5539999
6.8189998 10.197 2.5450001
6.829 10.203 2.5380001
6.895 10.238 2.5569999
7.6079998 10.592 0.243
7.6059999 10.59 0.23100001
7.6350002 10.606 0.221
7.631 10.604 0.208
7.6339998 10.605 0.19599999
7.6529999 10.615 0.185
7.6500001 10.613 0.17299999
7.6409998 10.608 0.161
7.6370001 10.606 0.148
7.6420002 10.608 0.13600001
7.6339998 10.604 0.124
7.638 10.606 0.112
7.6339998 10.604 0.1
7.6479998 10.611 0.088
7.6350002 10.604 0.075999998
7.6350002 10.604 0.064000003
7.6360002 10.604 0.052000001
7.631 10.601 0.039999999
7.631 10.601 0.028000001
7.6399999 10.606 0.016000001
6.691 10.145 2.9219999
6.671 10.134 2.8970001
6.677 10.137 2.888
6.6680002 10.132 2.8699999
6.6789999 10.137 2.8629999
6.665 10.13 2.8429999
6.678 10.136 2.8369999
6.6729999 10.134 2.822
6.6760001 10.135 2.8110001
6.6820002 10.138 2.802
6.6690001 10.131 2.7820001
6.6739998 10.134 2.7720001
6.6739998 10.134 2.76
6.6789999 10.136 2.7490001
6.678 10.135 2.737
6.6789999 10.136 2.7249999
6.684 10.138 2.7149999
6.6729999 10.132 2.6960001
6.6729999 10.132 2.684
6.6739998 10.133 2.6719999
6.6789999 10.135 2.6619999
6.691 10.142 2.6559999
6.6810002 10.136 2.6389999
6.6810002 10.136 2.6259999
6.6810002 10.136 2.6140001
6.7069998 10.15 2.615
6.71 10.151 2.6040001
6.7210002 10.157 2.598
6.724 10.158 2.586
6.7379999 10.166 2.5810001
6.7709999 10.184 2.586
6.7620001 10.179 2.569
6.7779999 10.188 2.5650001
6.8070002 10.203 2.566
6.8130002 10.206 2.5569999
6.8119998 10.206 2.5439999
6.8189998 10.209 2.5350001
6.8629999 10.233 2.5439999
6.9060001 10.256 2.552
7.5760002 10.588 0.266
7.6040001 10.603 0.255
7.598 10.6 0.243
7.6059999 10.604 0.23199999
7.6160002 10.609 0.22
7.599 10.6 0.207
7.6079998 10.604 0.19599999
7.6129999 10.607 0.184
7.6129999 10.607 0.17200001
7.618 10.609 0.16
7.605 10.602 0.147
7.619 10.609 0.13600001
7.6199999 10.61 0.124
7.6030002 10.6 0.111
7.6160002 10.607 0.1
7.6149998 10.607 0.088
7.6170001 10.607 0.075999998
7.6069999 10.602 0.064000003
7.612 10.604 0.052000001
7.6079998 10.602 0.039999999
7.6300001 10.614 0.028000001
7.612 10.604 0.016000001
6.6869998 10.154 2.9089999
6.6599998 10.139 2.881
6.6630001 10.141 2.8699999
6.6760001 10.147 2.8640001
6.678 10.148 2.8529999
6.6810002 10.15 2.8410001
6.6810002 10.15 2.829
6.6739998 10.146 2.812
6.6820002 10.15 2.8039999
6.6700001 10.143 2.7850001
6.6760001 10.146 2.776
6.6729999 10.145 2.7620001
6.6869998 10.152 2.757
6.678 10.147 2.7390001
6.6820002 10.15 2.7290001
6.677 10.147 2.714
6.664 10.139 2.694
6.6760001 10.146 2.688
6.6900001 10.153 2.6830001
6.6919999 10.154 2.6719999
6.6890001 10.152 2.658
6.6929998 10.154 2.6470001
6.6859999 10.15 2.631
6.6830001 10.149 2.6170001
6.6869998 10.151 2.6070001
6.697 10.156 2.5999999
6.7020001 10.159 2.5899999
6.723 10.17 2.5880001
6.7290001 10.173 2.579
6.7480001 10.183 2.5769999
6.756 10.187 2.5680001
6.7800002 10.2 2.5680001
6.7800002 10.2 2.5550001
6.796 10.209 2.5510001
6.8060002 10.214 2.543
6.8189998 10.221 2.5380001
6.8249998 10.224 2.5280001
6.8270001 10.225 2.516
6.848 10.237 2.5139999
7.539 10.582 0.30000001
7.5609999 10.594 0.289
7.572 10.6 0.278
7.5939999 10.611 0.26699999
7.5819998 10.605 0.255
7.5830002 10.605 0.243
7.5840001 10.605 0.23100001
7.5840001 10.605 0.219
7.5929999 10.61 0.207
7.5799999 10.603 0.19499999
7.586 10.606 0.183
7.585 10.605 0.171
7.586 10.605 0.15899999
7.5949998 10.611 0.147
7.5869999 10.606 0.13500001
7.5879998 10.606 0.123
7.5830002 10.604 0.111
7.579 10.602 0.098999999
7.5710001 10.597 0.086999997
7.5830002 10.604 0.075000003
7.585 10.604 0.063000001
7.6020002 10.613 0.050999999
7.572 10.597 0.039000001
7.5669999 10.594 0.027000001
7.5939999 10.609 0.015
6.704 10.175 2.9089999
6.6719999 10.157 2.8770001
6.664 10.153 2.8599999
6.6789999 10.161 2.8559999
6.6680002 10.154 2.8369999
6.6869998 10.165 2.835
6.6690001 10.155 2.812
6.6830001 10.162 2.8069999
6.6900001 10.166 2.7980001
6.671 10.156 2.776
6.6760001 10.158 2.766
6.678 10.159 2.7539999
6.677 10.158 2.7409999
6.6810002 10.161 2.7309999
6.678 10.158 2.7160001
6.6919999 10.166 2.7119999
6.6849999 10.162 2.6949999
6.6869998 10.163 2.684
6.6810002 10.159 2.668
6.6929998 10.166 2.6619999
6.6900001 10.164 2.648
6.6849999 10.162 2.6329999
6.684 10.161 2.6199999
6.6880002 10.163 2.6099999
6.6900001 10.164 2.599
6.6929998 10.165 2.5880001
6.7140002 10.177 2.586
6.7150002 10.177 2.575
6.7309999 10.186 2.5699999
6.7399998 10.191 2.563
6.7519999 10.197 2.556
6.7610002 10.202 2.5480001
6.7789998 10.211 2.5450001
6.776 10.21 2.5309999
6.7950001 10.22 2.5280001
6.8169999 10.232 2.526
6.8429999 10.246 2.527
6.8270001 10.237 2.506
6.835 10.241 2.4979999
6.8309999 10.239 2.484
7.526 10.589 0.32300001
7.5640001 10.609 0.31400001
7.552 10.603 0.301
7.5570002 10.605 0.289
7.5630002 10.608 0.278
7.5630002 10.608 0.266
7.5630002 10.608 0.25400001
7.5549998 10.604 0.241
7.5510001 10.601 0.229
7.5650001 10.609 0.21799999
7.552 10.602 0.205
7.553 10.602 0.19400001
7.5489998 10.6 0.182
7.5489998 10.6 0.17
7.5539999 10.602 0.15800001
7.5500002 10.6 0.146
7.5549998 10.603 0.134
7.5640001 10.607 0.122
7.5679998 10.609 0.111
7.5640001 10.607 0.098999999
7.5599999 10.605 0.086000003
7.5510001 10.6 0.074000001
7.5749998 10.612 0.063000001
7.552 10.6 0.050999999
7.5710001 10.61 0.039000001
7.5700002 10.609 0.027000001
7.5650001 10.606 0.015
6.7249999 10.198 2.9100001
6.6830001 10.175 2.8740001
6.6719999 10.169 2.855
6.6799998 10.173 2.8469999
6.6750002 10.17 2.8310001
6.6900001 10.178 2.8269999
6.6799998 10.173 2.809
6.6869998 10.176 2.8
6.6739998 10.169 2.78
6.6799998 10.172 2.77
6.6719999 10.168 2.7539999
6.6830001 10.174 2.747
6.6729999 10.168 2.7290001
6.6849999 10.174 2.723
6.6810002 10.172 2.7079999
6.6599998 10.16 2.6849999
6.6880002 10.176 2.687
6.6859999 10.174 2.6730001
6.6789999 10.17 2.6570001
6.678 10.169 2.6440001
6.6789999 10.17 2.632
6.6869998 10.174 2.6240001
6.6830001 10.172 2.6099999
6.697 10.18 2.605
6.6830001 10.172 2.585
6.6989999 10.18 2.5810001
6.7179999 10.19 2.5780001
6.711 10.187 2.563
6.7259998 10.195 2.5580001
6.73 10.197 2.5469999
6.757 10.212 2.549
6.7740002 10.221 2.5450001
6.7880001 10.228 2.539
6.783 10.225 2.5239999
6.7919998 10.23 2.517
6.823 10.247 2.5190001
6.8249998 10.248 2.5079999
6.8189998 10.244 2.4920001
6.8200002 10.245 2.4809999
6.888 10.282 2.5009999
7.5180001 10.598 0.359
7.5320001 10.606 0.34799999
7.5370002 10.609 0.336
7.5279999 10.603 0.324
7.5289998 10.604 0.31200001
7.5300002 10.604 0.30000001
7.5170002 10.597 0.287
7.5300002 10.604 0.27599999
7.526 10.602 0.264
7.54 10.609 0.25299999
7.5320001 10.604 0.23999999
7.5370002 10.607 0.229
7.5380001 10.608 0.21699999
7.546 10.612 0.205
7.5380001 10.607 0.193
7.5250001 10.6 0.18099999
7.5310001 10.603 0.169
7.539 10.607 0.15700001
7.5310001 10.603 0.145
7.5349998 10.605 0.134
7.5450001 10.611 0.122
7.5359998 10.605 0.11
7.5409999 10.608 0.097999997
7.5370002 10.605 0.086000003
7.5240002 10.598 0.074000001
7.5380001 10.606 0.061999999
7.5409999 10.607 0.050000001
7.5380001 10.605 0.037999999
7.5430002 10.608 0.027000001
7.573 10.624 0.015
6.6859999 10.188 2.865
6.6550002 10.171 2.835
6.678 10.184 2.835
6.6750002 10.182 2.8210001
6.6890001 10.19 2.816
6.6739998 10.181 2.7950001
6.6750002 10.181 2.783
6.6820002 10.185 2.7739999
6.6890001 10.189 2.7650001
6.677 10.182 2.7460001
6.6859999 10.187 2.7390001
6.6830001 10.185 2.724
6.678 10.182 2.7090001
6.6900001 10.189 2.7030001
6.6789999 10.182 2.6849999
6.7049999 10.197 2.6860001
6.6890001 10.188 2.665
6.6919999 10.189 2.654
6.6919999 10.189 2.642
6.6830001 10.184 2.625
6.6859999 10.185 2.6140001
6.6880002 10.187 2.6029999
6.6820002 10.183 2.5869999
6.6799998 10.182 2.5739999
6.6939998 10.189 2.569
6.7059999 10.195 2.562
6.7179999 10.202 2.556
6.7329998 10.21 2.5510001
6.7340002 10.211 2.539
6.7449999 10.217 2.533
6.7709999 10.231 2.533
6.7649999 10.227 2.5179999
6.7750001 10.233 2.5109999
6.7909999 10.242 2.506
6.816 10.255 2.506
6.823 10.259 2.497
6.822 10.258 2.484
6.836 10.266 2.4779999
6.836 10.266 2.4660001
6.8629999 10.281 2.4660001
7.473 10.588 0.391
7.4629998 10.583 0.37900001
7.4920001 10.598 0.36899999
7.5149999 10.611 0.359
7.507 10.606 0.34599999
7.513 10.61 0.33500001
7.4970002 10.601 0.322
7.507 10.606 0.31099999
7.5190001 10.612 0.29899999
7.4899998 10.596 0.28600001
7.5110002 10.608 0.27500001
7.4990001 10.601 0.26300001
7.5050001 10.604 0.25099999
7.5009999 10.602 0.23899999
7.5110002 10.607 0.228
7.5100002 10.606 0.21600001
7.5149999 10.609 0.204
7.5190001 10.611 0.192
7.5079999 10.605 0.18000001
7.5029998 10.602 0.168
7.5040002 10.602 0.156
7.5079999 10.604 0.145
7.5050001 10.602 0.133
7.5159998 10.608 0.121
7.4990001 10.599 0.109
7.5139999 10.607 0.097000003
7.5209999 10.611 0.086000003
7.5219998 10.611 0.074000001
7.5370002 10.619 0.061999999
7.5440001 10.623 0.050000001
7.5489998 10.625 0.039000001
7.5539999 10.628 0.027000001
7.5710001 10.637 0.015
6.6950002 10.205 2.8599999
6.6789999 10.196 2.8380001
6.6680002 10.19 2.8199999
6.6760001 10.194 2.8110001
6.6789999 10.195 2.8
6.6830001 10.197 2.79
6.6830001 10.197 2.777
6.6799998 10.195 2.763
6.6919999 10.202 2.757
6.6669998 10.188 2.7309999
6.6880002 10.2 2.73
6.6820002 10.196 2.714
6.6750002 10.192 2.698
6.684 10.197 2.6900001
6.6820002 10.195 2.6760001
6.6919999 10.201 2.6689999
6.6919999 10.201 2.6570001
6.6810002 10.195 2.6389999
6.6830001 10.196 2.6270001
6.6950002 10.202 2.6210001
6.7059999 10.208 2.6140001
6.6760001 10.191 2.5869999
6.6880002 10.197 2.5799999
6.6919999 10.2 2.5699999
6.6849999 10.196 2.5539999
6.697 10.203 2.5480001
6.7129998 10.211 2.5439999
6.7329998 10.222 2.5420001
6.7319999 10.221 2.529
6.737 10.224 2.5190001
6.757 10.235 2.516
6.7579999 10.235 2.5050001
6.777 10.246 2.5020001
6.7919998 10.254 2.4960001
6.802 10.259 2.4890001
6.8130002 10.265 2.4820001
6.8260002 10.272 2.4760001
6.8429999 10.282 2.471
6.8499999 10.285 2.4619999
6.868 10.295 2.4579999
7.4640002 10.597 0.41499999
7.4699998 10.6 0.403
7.4780002 10.604 0.39199999
7.4829998 10.607 0.38100001
7.4850001 10.608 0.36899999
7.4889998 10.61 0.35699999
7.4770002 10.603 0.345
7.4860001 10.608 0.333
7.4920001 10.611 0.322
7.4840002 10.606 0.30899999
7.4840002 10.606 0.29800001
7.4889998 10.609 0.28600001
7.4899998 10.609 0.27399999
7.4720001 10.599 0.26199999
7.4860001 10.606 0.25
7.4899998 10.609 0.23899999
7.487 10.607 0.227
7.4910002 10.609 0.215
7.48 10.603 0.20299999
7.4759998 10.6 0.191
7.48 10.602 0.17900001
7.4809999 10.603 0.167
7.4850001 10.605 0.156
7.4980001 10.612 0.14399999
7.4899998 10.607 0.132
7.5009999 10.613 0.121
7.4920001 10.608 0.109
7.506 10.616 0.097000003
7.5120001 10.619 0.085000001
7.5279999 10.628 0.074000001
7.5170002 10.621 0.061999999
7.5240002 10.625 0.050000001
7.5409999 10.634 0.037999999
7.5570002 10.643 0.027000001
7.5619998 10.645 0.015
6.7129998 10.227 2.8599999
6.6700001 10.202 2.823
6.6669998 10.201 2.809
6.6739998 10.205 2.8010001
6.6929998 10.215 2.7980001
6.6849999 10.21 2.7809999
6.6659999 10.2 2.7579999
6.6739998 10.204 2.75
6.684 10.209 2.743
6.677 10.205 2.7260001
6.6799998 10.206 2.7149999
6.6739998 10.203 2.7
6.6789999 10.206 2.6900001
6.6810002 10.207 2.678
6.697 10.215 2.674
6.7020001 10.218 2.665
6.691 10.212 2.6459999
6.6859999 10.209 2.631
6.6890001 10.21 2.6199999
6.6880002 10.21 2.608
6.691 10.211 2.5969999
6.6820002 10.206 2.5799999
6.6919999 10.212 2.573
6.684 10.207 2.556
6.6890001 10.209 2.546
6.6989999 10.215 2.539
6.711 10.221 2.533
6.7220001 10.228 2.526
6.7249999 10.229 2.5150001
6.724 10.229 2.503
6.7550001 10.245 2.5050001
6.7680001 10.253 2.5
6.7649999 10.251 2.4860001
6.7870002 10.263 2.484
6.8060002 10.273 2.4809999
6.7950001 10.267 2.4630001
6.822 10.282 2.464
6.848 10.296 2.464
6.8520002 10.298 2.4530001
6.8369999 10.29 2.434
7.4349999 10.595 0.46000001
7.4320002 10.593 0.44800001
7.454 10.605 0.43799999
7.4650002 10.611 0.42699999
7.4510002 10.603 0.414
7.4660001 10.611 0.403
7.4559999 10.605 0.391
7.4640002 10.61 0.37900001
7.4569998 10.606 0.36700001
7.4660001 10.61 0.35600001
7.4590001 10.606 0.34400001
7.4580002 10.606 0.33199999
7.4640002 10.609 0.31999999
7.4650002 10.609 0.30899999
7.46 10.606 0.29699999
7.461 10.607 0.285
7.4619999 10.607 0.273
7.4580002 10.605 0.26100001
7.4489999 10.6 0.249
7.4590001 10.605 0.237
7.46 10.606 0.226
7.4650002 10.608 0.214
7.4559999 10.603 0.20200001
7.46 10.605 0.19
7.4530001 10.601 0.178
7.4749999 10.613 0.167
7.4650002 10.607 0.155
7.48 10.616 0.14399999
7.4829998 10.617 0.132
7.4980001 10.625 0.121
7.493 10.622 0.109
7.5040002 10.628 0.097000003
7.513 10.633 0.086000003
7.5089998 10.63 0.074000001
7.5240002 10.638 0.061999999
7.54 10.647 0.050000001
7.5549998 10.655 0.039000001
7.5510001 10.653 0.027000001
7.5609999 10.659 0.015
6.7480001 10.258 2.8699999
6.6739998 10.216 2.816
6.6620002 10.21 2.7969999
6.677 10.218 2.7920001
6.6939998 10.227 2.789
6.6799998 10.219 2.7690001
6.6810002 10.22 2.757
6.6849999 10.222 2.7460001
6.6810002 10.219 2.7309999
6.6869998 10.223 2.7219999
6.6820002 10.22 2.707
6.6810002 10.219 2.6930001
6.6869998 10.222 2.684
6.6929998 10.225 2.675
6.6859999 10.221 2.6589999
6.6890001 10.223 2.648
6.678 10.216 2.6300001
6.697 10.227 2.6270001
6.697 10.226 2.6140001
6.6849999 10.22 2.596
6.6950002 10.225 2.589
6.6919999 10.223 2.575
6.6989999 10.227 2.566
6.6799998 10.217 2.5439999
6.6859999 10.219 2.5350001
6.6880002 10.22 2.5239999
6.7069998 10.231 2.5209999
6.7220001 10.239 2.516
6.73 10.243 2.5079999
6.7459998 10.252 2.503
6.7470002 10.253 2.4920001
6.7719998 10.267 2.4920001
6.7800002 10.271 2.483
6.7870002 10.275 2.474
6.802 10.283 2.4690001
6.8189998 10.292 2.4649999
6.8099999 10.287 2.448
6.8330002 10.3 2.447
6.8460002 10.307 2.4400001
6.8460002 10.307 2.428
6.8410001 10.304 2.4130001
7.4099998 10.594 0.48199999
7.4169998 10.598 0.47
7.441 10.611 0.461
7.4429998 10.612 0.449
7.434 10.607 0.43700001
7.4250002 10.602 0.42399999
7.4310002 10.605 0.41299999
7.427 10.603 0.40099999
7.454 10.617 0.391
7.4400001 10.61 0.37799999
7.4299998 10.604 0.366
7.4429998 10.611 0.35499999
7.4390001 10.609 0.34299999
7.4400001 10.609 0.331
7.4310002 10.604 0.31900001
7.4320002 10.604 0.30700001
7.441 10.61 0.296
7.4429998 10.61 0.28400001
7.4349999 10.606 0.27200001
7.434 10.605 0.25999999
7.4390001 10.608 0.248
7.4349999 10.606 0.236
7.4450002 10.611 0.22499999
7.428 10.601 0.213
7.4289999 10.602 0.20100001
7.4450002 10.61 0.19
7.4499998 10.613 0.178
7.4590001 10.618 0.167
7.4549999 10.615 0.155
7.4710002 10.624 0.14399999
7.4720001 10.624 0.132
7.487 10.632 0.12
7.5040002 10.642 0.109
7.5 10.639 0.097000003
7.5050001 10.642 0.085000001
7.5180001 10.649 0.074000001
7.5310001 10.656 0.061999999
7.5279999 10.654 0.050000001
7.54 10.661 0.037999999
7.5630002 10.674 0.027000001
7.5669999 10.675 0.015
6.6919999 10.238 2.816
6.6820002 10.232 2.7969999
6.6849999 10.234 2.786
6.6789999 10.23 2.77
6.6950002 10.239 2.767
6.6880002 10.235 2.75
6.678 10.229 2.7320001
6.678 10.229 2.72
6.678 10.229 2.707
6.6869998 10.234 2.6989999
6.6960001 10.239 2.691
6.6890001 10.235 2.675
6.677 10.227 2.6559999
6.6880002 10.234 2.6500001
6.6859999 10.232 2.6359999
6.6859999 10.232 2.6240001
6.6880002 10.233 2.612
6.6919999 10.235 2.602
6.7049999 10.242 2.596
6.697 10.238 2.5799999
6.7010002 10.24 2.5699999
6.697 10.238 2.5550001
6.6820002 10.229 2.536
6.6900001 10.234 2.527
6.6900001 10.234 2.5150001
6.697 10.237 2.506
6.7199998 10.25 2.5050001
6.73 10.256 2.4979999
6.7340002 10.258 2.4879999
6.75 10.266 2.483
6.7649999 10.274 2.4779999
6.777 10.281 2.471
6.7789998 10.282 2.46
6.796 10.291 2.4560001
6.8119998 10.301 2.451
6.8260002 10.308 2.4449999
6.8390002 10.315 2.4400001
6.842 10.317 2.4289999
6.848 10.32 2.4189999
7.388 10.596 0.51499999
7.3860002 10.595 0.50300002
7.414 10.61 0.49399999
7.4130001 10.61 0.48199999
7.408 10.607 0.47
7.4180002 10.612 0.45899999
7.4099998 10.607 0.447
7.4050002 10.605 0.435
7.4109998 10.608 0.42300001
7.408 10.606 0.41100001
7.3990002 10.601 0.39899999
7.4089999 10.606 0.38800001
7.3959999 10.599 0.375
7.4099998 10.606 0.36399999
7.4109998 10.607 0.35299999
7.4109998 10.607 0.34099999
7.4159999 10.609 0.33000001
7.415 10.609 0.31799999
7.4180002 10.61 0.30599999
7.4180002 10.61 0.29499999
7.414 10.608 0.28299999
7.4120002 10.606 0.271
7.408 10.604 0.259
7.4070001 10.603 0.24699999
7.408 10.603 0.235
7.408 10.604 0.22400001
7.4299998 10.615 0.213
7.4180002 10.609 0.20100001
7.4380002 10.619 0.19
7.428 10.614 0.178
7.441 10.621 0.16599999
7.4580002 10.63 0.155
7.4720001 10.638 0.14399999
7.4619999 10.632 0.132
7.494 10.65 0.121
7.4860001 10.645 0.109
7.4980001 10.652 0.097000003
7.5079999 10.657 0.085000001
7.5079999 10.657 0.074000001
7.527 10.667 0.061999999
7.5450001 10.677 0.050000001
7.5560002 10.683 0.039000001
7.5609999 10.686 0.027000001
7.5619998 10.686 0.015
6.6919999 10.25 2.806
6.6719999 10.238 2.7820001
6.6880002 10.247 2.7780001
6.6900001 10.248 2.766
6.6830001 10.244 2.75
6.6700001 10.236 2.73
6.6919999 10.249 2.73
6.6690001 10.236 2.7049999
6.6820002 10.243 2.6989999
6.6750002 10.239 2.6830001
6.6830001 10.243 2.675
6.684 10.244 2.6630001
6.6869998 10.245 2.652
6.6890001 10.246 2.6400001
6.6919999 10.248 2.6289999
6.6880002 10.245 2.615
6.6859999 10.244 2.602
6.6900001 10.246 2.5910001
6.6929998 10.248 2.5810001
6.697 10.25 2.5699999
6.6810002 10.241 2.55
6.6820002 10.241 2.5380001
6.6999998 10.251 2.5350001
6.6859999 10.243 2.5150001
6.6999998 10.251 2.51
6.6929998 10.247 2.4949999
6.7210002 10.262 2.4960001
6.7210002 10.262 2.484
6.7350001 10.27 2.4779999
6.743 10.274 2.47
6.7579999 10.282 2.4649999
6.7729998 10.291 2.46
6.7849998 10.297 2.4530001
6.79 10.3 2.4430001
6.8130002 10.313 2.4419999
6.8210001 10.317 2.4330001
6.8260002 10.32 2.4230001
6.8390002 10.327 2.4170001
6.8299999 10.322 2.401
6.8260002 10.32 2.3859999
7.3590002 10.594 0.54799998
7.3460002 10.586 0.53500003
7.388 10.609 0.52700001
7.3850002 10.608 0.51499999
7.3860002 10.608 0.50400001
7.3870001 10.609 0.49200001
7.3709998 10.6 0.479
7.3889999 10.61 0.46900001
7.382 10.605 0.456
7.395 10.613 0.44600001
7.3870001 10.608 0.433
7.388 10.608 0.42199999
7.388 10.608 0.41
7.3990002 10.614 0.39899999
7.381 10.604 0.38600001
7.3860002 10.607 0.375
7.3909998 10.609 0.36300001
7.3920002 10.61 0.352
7.3839998 10.605 0.33899999
7.3930001 10.61 0.32800001
7.3899999 10.608 0.31600001
7.3870001 10.606 0.30500001
7.3870001 10.606 0.29300001
7.3779998 10.601 0.28099999
7.388 10.606 0.27000001
7.3850002 10.604 0.25799999
7.3920002 10.608 0.24600001
7.4099998 10.618 0.236
7.402 10.613 0.223
7.4039998 10.614 0.212
7.4260001 10.627 0.20100001
7.434 10.631 0.19
7.4460001 10.637 0.178
7.448 10.638 0.167
7.4629998 10.647 0.155
7.4689999 10.649 0.14399999
7.4710002 10.651 0.132
7.4840002 10.658 0.12
7.4840002 10.658 0.109
7.5040002 10.669 0.097000003
7.5159998 10.675 0.086000003
7.5180001 10.676 0.074000001
7.5279999 10.682 0.061999999
7.5380001 10.687 0.050000001
7.5430002 10.689 0.037999999
7.5570002 10.697 0.027000001
7.5440001 10.69 0.014
6.6950002 10.263 2.7980001
6.6760001 10.252 2.7739999
6.6750002 10.252 2.7609999
6.6849999 10.257 2.7539999
6.6929998 10.262 2.7460001
6.6859999 10.257 2.7290001
6.6869998 10.258 2.717
6.6859999 10.257 2.704
6.6810002 10.254 2.6889999
6.6939998 10.261 2.6830001
6.678 10.252 2.6619999
6.6810002 10.254 2.651
6.684 10.255 2.6400001
6.684 10.255 2.628
6.6820002 10.253 2.6140001
6.691 10.259 2.6070001
6.6960001 10.261 2.5969999
6.6859999 10.255 2.579
6.6810002 10.253 2.5650001
6.6950002 10.26 2.559
6.6950002 10.26 2.5469999
6.691 10.258 2.5320001
6.698 10.262 2.5239999
6.6989999 10.262 2.5120001
6.6919999 10.258 2.4960001
6.677 10.249 2.477
6.7119999 10.269 2.4820001
6.7220001 10.274 2.474
6.7290001 10.279 2.4660001
6.7449999 10.288 2.461
6.7589998 10.295 2.4549999
6.7610002 10.296 2.444
6.7800002 10.307 2.441
6.7909999 10.312 2.4330001
6.8060002 10.321 2.4289999
6.8109999 10.324 2.4189999
6.822 10.33 2.411
6.8270001 10.332 2.401
6.835 10.337 2.392
6.8260002 10.332 2.3759999
7.329 10.591 0.57999998
7.3280001 10.59 0.56900001
7.3369999 10.595 0.55800003
7.362 10.609 0.54900002
7.3509998 10.603 0.53600001
7.3569999 10.606 0.52499998
7.3579998 10.606 0.51300001
7.3639998 10.609 0.50199997
7.369 10.612 0.491
7.3520002 10.603 0.47799999
7.3610001 10.607 0.46700001
7.3660002 10.61 0.45500001
7.3709998 10.613 0.44400001
7.3639998 10.608 0.43200001
7.3730001 10.613 0.421
7.3740001 10.614 0.40900001
7.3610001 10.606 0.39700001
7.3709998 10.612 0.38600001
7.3590002 10.605 0.373
7.369 10.61 0.36199999
7.3610001 10.606 0.34999999
7.3569999 10.603 0.338
7.3579998 10.604 0.32600001
7.3530002 10.601 0.31400001
7.3629999 10.606 0.303
7.3629999 10.606 0.292
7.3639998 10.606 0.28
7.368 10.608 0.26899999
7.3759999 10.613 0.257
7.3829999 10.617 0.24600001
7.3660002 10.607 0.234
7.3920002 10.621 0.223
7.421 10.637 0.213
7.4260001 10.64 0.20100001
7.428 10.641 0.19
7.4460001 10.651 0.178
7.4510002 10.653 0.167
7.4510002 10.653 0.155
7.461 10.659 0.14399999
7.474 10.666 0.132
7.4790001 10.669 0.12
7.4910002 10.675 0.109
7.5110002 10.686 0.097000003
7.52 10.691 0.086000003
7.527 10.695 0.074000001
7.5149999 10.688 0.061999999
7.5289998 10.696 0.050000001
7.54 10.702 0.037999999
7.5489998 10.707 0.026000001
7.5630002 10.714 0.015
6.7449999 10.303 2.8150001
6.6830001 10.268 2.7679999
6.6739998 10.263 2.7509999
6.6900001 10.272 2.747
6.698 10.276 2.7379999
6.6939998 10.273 2.723
6.6830001 10.267 2.7049999
6.6859999 10.269 2.694
6.684 10.268 2.6800001
6.6859999 10.269 2.6689999
6.6880002 10.27 2.6570001
6.6939998 10.273 2.648
6.684 10.267 2.631
6.6999998 10.276 2.6259999
6.7020001 10.277 2.615
6.691 10.271 2.5969999
6.698 10.275 2.5880001
6.6859999 10.268 2.5699999
6.6960001 10.273 2.562
6.691 10.27 2.5469999
6.704 10.277 2.5420001
6.6859999 10.267 2.52
6.6890001 10.268 2.5090001
6.6830001 10.265 2.494
6.6890001 10.268 2.4849999
6.691 10.269 2.474
6.7069998 10.278 2.4690001
6.7090001 10.279 2.4579999
6.73 10.291 2.4560001
6.7389998 10.296 2.448
6.75 10.302 2.441
6.757 10.306 2.4319999
6.7810001 10.319 2.431
6.7849998 10.321 2.421
6.8039999 10.332 2.418
6.8150001 10.338 2.411
6.8340001 10.349 2.4070001
6.8239999 10.343 2.3900001
6.8319998 10.347 2.381
6.8340001 10.348 2.3699999
7.3000002 10.588 0.60100001
7.2989998 10.587 0.58899999
7.3249998 10.602 0.57999998
7.3319998 10.606 0.56900001
7.3319998 10.605 0.55800003
7.3280001 10.603 0.546
7.329 10.604 0.53399998
7.3299999 10.604 0.523
7.3270001 10.602 0.51099998
7.3319998 10.605 0.49900001
7.3369999 10.607 0.48800001
7.3470001 10.613 0.477
7.3509998 10.615 0.46599999
7.3429999 10.61 0.454
7.335 10.605 0.44100001
7.3410001 10.609 0.43000001
7.3319998 10.603 0.41800001
7.342 10.609 0.40700001
7.3429999 10.609 0.396
7.3439999 10.61 0.384
7.336 10.606 0.37200001
7.3319998 10.603 0.36000001
7.3470001 10.611 0.34900001
7.3470001 10.611 0.338
7.3429999 10.608 0.32600001
7.3530002 10.614 0.315
7.336 10.604 0.30199999
7.3540001 10.614 0.29100001
7.3460002 10.61 0.27900001
7.3670001 10.622 0.26899999
7.381 10.629 0.25799999
7.381 10.629 0.24600001
7.3899999 10.634 0.235
7.408 10.644 0.22400001
7.4000001 10.639 0.212
7.4200001 10.65 0.20100001
7.4310002 10.656 0.19
7.4510002 10.668 0.17900001
7.4390001 10.66 0.16599999
7.448 10.665 0.155
7.4590001 10.671 0.14399999
7.4590001 10.671 0.132
7.4759998 10.681 0.12
7.4860001 10.686 0.109
7.4809999 10.683 0.097000003
7.5089998 10.699 0.085000001
7.5139999 10.701 0.074000001
7.5250001 10.708 0.061999999
7.5300002 10.71 0.050000001
7.539 10.715 0.037999999
7.5560002 10.725 0.026000001
7.5669999 10.73 0.014
6.698 10.289 2.766
6.6869998 10.282 2.747
6.684 10.28 2.733
6.6880002 10.283 2.723
6.6830001 10.28 2.7079999
6.671 10.272 2.6889999
6.6810002 10.278 2.6819999
6.7010002 10.29 2.6800001
6.6760001 10.275 2.654
6.6760001 10.275 2.642
6.7059999 10.292 2.6440001
6.6890001 10.282 2.6229999
6.6820002 10.278 2.6070001
6.6880002 10.281 2.598
6.6880002 10.281 2.586
6.6880002 10.28 2.573
6.698 10.286 2.566
6.6900001 10.282 2.549
6.6900001 10.281 2.5369999
6.6900001 10.281 2.5250001
6.7030001 10.288 2.5190001
6.6939998 10.283 2.5020001
6.6999998 10.287 2.493
6.6919999 10.282 2.477
6.6950002 10.283 2.4660001
6.704 10.288 2.4579999
6.7129998 10.293 2.45
6.7259998 10.301 2.444
6.7340002 10.305 2.4360001
6.7389998 10.308 2.4260001
6.7589998 10.319 2.4230001
6.7719998 10.326 2.4170001
6.783 10.332 2.4100001
6.8039999 10.344 2.4070001
6.8080001 10.346 2.3970001
6.822 10.354 2.391
6.8330002 10.36 2.3840001
6.8429999 10.366 2.3759999
6.8460002 10.367 2.365
6.8330002 10.359 2.3469999
7.2940001 10.598 0.62400001
7.29 10.596 0.61199999
7.309 10.606 0.602
7.322 10.614 0.59200001
7.3109999 10.607 0.579
7.3109999 10.607 0.56800002
7.3210001 10.613 0.55699998
7.3140001 10.608 0.54500002
7.3070002 10.604 0.53200001
7.3109999 10.606 0.52100003
7.3119998 10.607 0.50999999
7.3130002 10.607 0.498
7.3130002 10.607 0.48699999
7.3060002 10.603 0.47400001
7.3189998 10.61 0.46399999
7.3340001 10.619 0.45300001
7.3169999 10.609 0.44
7.3179998 10.609 0.42899999
7.3270001 10.614 0.41800001
7.316 10.607 0.405
7.3119998 10.605 0.39300001
7.3179998 10.609 0.382
7.3099999 10.604 0.37
7.3109999 10.604 0.359
7.316 10.607 0.347
7.323 10.611 0.336
7.336 10.618 0.32600001
7.3330002 10.616 0.31400001
7.3260002 10.612 0.30199999
7.3439999 10.622 0.29100001
7.3600001 10.631 0.28
7.3629999 10.633 0.26899999
7.3730001 10.638 0.25799999
7.3850002 10.644 0.24699999
7.3889999 10.647 0.235
7.4050002 10.655 0.22400001
7.414 10.66 0.213
7.4229999 10.665 0.20100001
7.4330001 10.671 0.19
7.434 10.671 0.178
7.4429998 10.676 0.167
7.4349999 10.672 0.155
7.46 10.685 0.14399999
7.4720001 10.692 0.132
7.48 10.696 0.12
7.4850001 10.699 0.109
7.4879999 10.701 0.097000003
7.507 10.711 0.085000001
7.4970002 10.706 0.072999999
7.533 10.725 0.061999999
7.5349998 10.727 0.050000001
7.5419998 10.73 0.037999999
7.5510001 10.735 0.026000001
7.5619998 10.742 0.014
6.6929998 10.298 2.753
6.6820002 10.291 2.7349999
6.6859999 10.293 2.724
6.691 10.296 2.7149999
6.6960001 10.299 2.704
6.6820002 10.291 2.6849999
6.698 10.3 2.6800001
6.6900001 10.295 2.664
6.6869998 10.293 2.6500001
6.6799998 10.289 2.6340001
6.6799998 10.289 2.6210001
6.6989999 10.299 2.618
6.6880002 10.293 2.5999999
6.6960001 10.297 2.592
6.6900001 10.294 2.576
6.6929998 10.295 2.566
6.6880002 10.292 2.5510001
6.6989999 10.299 2.5439999
6.71 10.305 2.5369999
6.6960001 10.297 2.5179999
6.6900001 10.293 2.5020001
6.6939998 10.295 2.4920001
6.704 10.301 2.4849999
6.704 10.3 2.473
6.7030001 10.3 2.46
6.697 10.296 2.4449999
6.7129998 10.305 2.4400001
6.7220001 10.31 2.4330001
6.7360001 10.318 2.427
6.7399998 10.32 2.4159999
6.7610002 10.332 2.414
6.7659998 10.335 2.404
6.7820001 10.343 2.3989999
6.7880001 10.347 2.3900001
6.8080001 10.358 2.3870001
6.8150001 10.362 2.378
6.8330002 10.372 2.3740001
6.8330002 10.372 2.362
6.8319998 10.372 2.349
6.8499999 10.381 2.345
7.27 10.598 0.65700001
7.2649999 10.595 0.64399999
7.2849998 10.607 0.63499999
7.29 10.609 0.62400001
7.296 10.613 0.61299998
7.2950001 10.612 0.60100001
7.2880001 10.607 0.58899999
7.2930002 10.61 0.57800001
7.29 10.608 0.56599998
7.3070002 10.618 0.55599999
7.283 10.604 0.542
7.3000002 10.614 0.53200001
7.3010001 10.614 0.52100003
7.2940001 10.61 0.50800002
7.289 10.607 0.49599999
7.3000002 10.613 0.486
7.2930002 10.609 0.47299999
7.3010001 10.614 0.463
7.2859998 10.605 0.44999999
7.3070002 10.617 0.44
7.2989998 10.612 0.428
7.296 10.61 0.41600001
7.2979999 10.611 0.40400001
7.3060002 10.616 0.39300001
7.2810001 10.601 0.38
7.2950001 10.609 0.36899999
7.3070002 10.616 0.359
7.296 10.609 0.34599999
7.3099999 10.617 0.336
7.3189998 10.622 0.32499999
7.322 10.624 0.31299999
7.3309999 10.629 0.30199999
7.3410001 10.634 0.29100001
7.3699999 10.65 0.28099999
7.3600001 10.645 0.26899999
7.375 10.653 0.25799999
7.3829999 10.657 0.24699999
7.3940001 10.663 0.235
7.3930001 10.662 0.22400001
7.4050002 10.669 0.213
7.427 10.681 0.20200001
7.4239998 10.68 0.19
7.4439998 10.691 0.17900001
7.4530001 10.696 0.167
7.4429998 10.69 0.155
7.4699998 10.705 0.14399999
7.4650002 10.702 0.132
7.4899998 10.716 0.121
7.4840002 10.713 0.109
7.5019999 10.723 0.097000003
7.513 10.729 0.086000003
7.5040002 10.724 0.072999999
7.526 10.736 0.061999999
7.5349998 10.741 0.050000001
7.5440001 10.746 0.037999999
7.5440001 10.746 0.026000001
7.5619998 10.756 0.014
6.6960001 10.311 2.7449999
6.6880002 10.307 2.7279999
6.6810002 10.303 2.7119999
6.6929998 10.309 2.7060001
6.6890001 10.307 2.691
6.678 10.3 2.6719999
6.6820002 10.302 2.6619999
6.6849999 10.304 2.651
6.6890001 10.306 2.641
6.6859999 10.304 2.6270001
6.6900001 10.306 2.6159999
6.6869998 10.304 2.602
6.6799998 10.3 2.5869999
6.6960001 10.309 2.582
6.6900001 10.306 2.5669999
6.6939998 10.308 2.556
6.6999998 10.311 2.5469999
6.6960001 10.309 2.5320001
6.6869998 10.304 2.516
6.698 10.31 2.5090001
6.6999998 10.311 2.4979999
6.7069998 10.314 2.4890001
6.71 10.317 2.4779999
6.7049999 10.313 2.4630001
6.697 10.309 2.447
6.6999998 10.31 2.4360001
6.6999998 10.31 2.424
6.724 10.324 2.424
6.7379999 10.332 2.418
6.7449999 10.335 2.4089999
6.7579999 10.343 2.4030001
6.7839999 10.358 2.4030001
6.776 10.353 2.3870001
6.7839999 10.357 2.3789999
6.7950001 10.364 2.3710001
6.8189998 10.377 2.3699999
6.8460002 10.392 2.3699999
6.8369999 10.387 2.3540001
6.8460002 10.392 2.345
6.836 10.386 2.329
7.2340002 10.592 0.68699998
7.2340002 10.592 0.676
7.2420001 10.596 0.66500002
7.27 10.612 0.65700001
7.2670002 10.61 0.64499998
7.2600002 10.606 0.63300002
7.2659998 10.609 0.62199998
7.2670002 10.609 0.61000001
7.2719998 10.612 0.59899998
7.256 10.603 0.58600003
7.2610002 10.606 0.57499999
7.27 10.611 0.56400001
7.2659998 10.608 0.55199999
7.276 10.614 0.542
7.277 10.614 0.52999997
7.2659998 10.608 0.51800001
7.2709999 10.611 0.50700003
7.2639999 10.606 0.49399999
7.2690001 10.609 0.48300001
7.2649999 10.607 0.47099999
7.2659998 10.607 0.46000001
7.276 10.612 0.449
7.263 10.605 0.43700001
7.277 10.613 0.426
7.2740002 10.611 0.414
7.27 10.609 0.403
7.2690001 10.608 0.391
7.2789998 10.613 0.38
7.2919998 10.621 0.36899999
7.3049998 10.628 0.359
7.2989998 10.624 0.347
7.3109999 10.631 0.336
7.316 10.634 0.32499999
7.329 10.641 0.31400001
7.3460002 10.65 0.303
7.348 10.651 0.292
7.349 10.652 0.28
7.375 10.667 0.27000001
7.3709998 10.664 0.25799999
7.368 10.662 0.24600001
7.3940001 10.677 0.236
7.4190001 10.691 0.22499999
7.4039998 10.682 0.213
7.4169998 10.69 0.20100001
7.4250002 10.694 0.19
7.4200001 10.691 0.178
7.4380002 10.701 0.167
7.4460001 10.705 0.155
7.454 10.71 0.14399999
7.467 10.717 0.132
7.4840002 10.727 0.121
7.4850001 10.727 0.109
7.5009999 10.736 0.097000003
7.4899998 10.73 0.085000001
7.4990001 10.734 0.072999999
7.5250001 10.749 0.061999999
7.5300002 10.752 0.050000001
7.539 10.757 0.037999999
7.539 10.757 0.026000001
7.5560002 10.766 0.014
6.6849999 10.317 2.717
6.6760001 10.312 2.7
6.684 10.317 2.691
6.6869998 10.318 2.6800001
6.6929998 10.321 2.671
6.6950002 10.323 2.6589999
6.6810002 10.314 2.6389999
6.6880002 10.318 2.631
6.691 10.319 2.619
6.6890001 10.318 2.6059999
6.6810002 10.314 2.5899999
6.6830001 10.314 2.5780001
6.6789999 10.312 2.5639999
6.6750002 10.31 2.549
6.6929998 10.32 2.546
6.6890001 10.318 2.5320001
6.6939998 10.32 2.5220001
6.698 10.322 2.5120001
6.6929998 10.319 2.497
6.6900001 10.317 2.483
6.6999998 10.323 2.4760001
6.7140002 10.331 2.47
6.6939998 10.319 2.448
6.698 10.321 2.438
6.6999998 10.322 2.427
6.697 10.321 2.4130001
6.7129998 10.329 2.4089999
6.7249999 10.336 2.402
6.7449999 10.348 2.4000001
6.7490001 10.35 2.3889999
6.7610002 10.357 2.382
6.777 10.366 2.3770001
6.7779999 10.366 2.3659999
6.796 10.377 2.362
6.8239999 10.393 2.362
6.8150001 10.387 2.346
6.822 10.391 2.3369999
6.8429999 10.403 2.3340001
6.848 10.406 2.3239999
6.875 10.422 2.3239999
7.2220001 10.598 0.69800001
7.243 10.611 0.68900001
7.2470002 10.613 0.67799997
7.2509999 10.615 0.667
7.2350001 10.605 0.65399998
7.2490001 10.613 0.64399999
7.237 10.606 0.63099998
7.2379999 10.607 0.61900002
7.243 10.609 0.60799998
7.2529998 10.615 0.59799999
7.2540002 10.616 0.58600003
7.263 10.621 0.57599998
7.2480001 10.612 0.56300002
7.244 10.61 0.551
7.2410002 10.607 0.53899997
7.2459998 10.61 0.528
7.2519999 10.613 0.51700002
7.2480001 10.611 0.505
7.2449999 10.609 0.493
7.25 10.612 0.48199999
7.2379999 10.605 0.46900001
7.256 10.615 0.45899999
7.2350001 10.603 0.44600001
7.2399998 10.606 0.435
7.2519999 10.612 0.42399999
7.25 10.611 0.41299999
7.2509999 10.611 0.40099999
7.2750001 10.625 0.39199999
7.2740002 10.624 0.38
7.283 10.629 0.36899999
7.302 10.64 0.359
7.3010001 10.639 0.347
7.309 10.644 0.336
7.3060002 10.641 0.324
7.3319998 10.657 0.31400001
7.3410001 10.662 0.303
7.3460002 10.664 0.292
7.3520002 10.667 0.28099999
7.3559999 10.67 0.26899999
7.3520002 10.667 0.257
7.3699999 10.677 0.24600001
7.388 10.688 0.236
7.382 10.684 0.223
7.4109998 10.7 0.213
7.4169998 10.704 0.20200001
7.4250002 10.708 0.19
7.434 10.713 0.17900001
7.434 10.713 0.167
7.4369998 10.715 0.155
7.4559999 10.725 0.14399999
7.4689999 10.733 0.132
7.4780002 10.738 0.121
7.4850001 10.742 0.109
7.4879999 10.743 0.097000003
7.5050001 10.753 0.085000001
7.5009999 10.75 0.072999999
7.5240002 10.763 0.061999999
7.5320001 10.767 0.050000001
7.5170002 10.759 0.037999999
6.7020001 10.339 2.7160001
6.6789999 10.326 2.691
6.691 10.333 2.6849999
6.671 10.321 2.6619999
6.6830001 10.328 2.6559999
6.6789999 10.325 2.641
6.6869998 10.329 2.632
6.6869998 10.329 2.6199999
6.691 10.332 2.6099999
6.6869998 10.329 2.595
6.691 10.331 2.585
6.678 10.323 2.566
6.6859999 10.328 2.5569999
6.698 10.335 2.5510001
6.6929998 10.332 2.536
6.6810002 10.325 2.5179999
6.704 10.338 2.517
6.698 10.334 2.5020001
6.7049999 10.338 2.493
6.6929998 10.331 2.4749999
6.6950002 10.332 2.4630001
6.7030001 10.336 2.4549999
6.6989999 10.334 2.441
6.6989999 10.334 2.428
6.71 10.34 2.4219999
6.6960001 10.332 2.4030001
6.723 10.348 2.404
6.7150002 10.343 2.388
6.7350001 10.354 2.385
6.7490001 10.362 2.3789999
6.7620001 10.369 2.3729999
6.7750001 10.377 2.3670001
6.7859998 10.383 2.3599999
6.7880001 10.384 2.348
6.8109999 10.397 2.3469999
6.823 10.404 2.3399999
6.836 10.412 2.3329999
6.8439999 10.416 2.3239999
6.8439999 10.416 2.312
6.842 10.415 2.299
7.1950002 10.597 0.741
7.1999998 10.6 0.73000002
7.2360001 10.62 0.72399998
7.2309999 10.617 0.71200001
7.224 10.613 0.699
7.2259998 10.614 0.68800002
7.2309999 10.617 0.67699999
7.2189999 10.609 0.66399997
7.2160001 10.608 0.65200001
7.23 10.616 0.64200002
7.2140002 10.606 0.62800002
7.223 10.611 0.61799997
7.2340002 10.617 0.60799998
7.2290001 10.615 0.59600002
7.2350001 10.618 0.58499998
7.2360001 10.618 0.57300001
7.2290001 10.614 0.56099999
7.2379999 10.619 0.55000001
7.2340002 10.617 0.53899997
7.223 10.61 0.52600002
7.2329998 10.616 0.51499999
7.2249999 10.611 0.50300002
7.2210002 10.608 0.491
7.223 10.609 0.47999999
7.2189999 10.607 0.46799999
7.224 10.61 0.45699999
7.2410002 10.62 0.447
7.244 10.621 0.43599999
7.2399998 10.619 0.42399999
7.2399998 10.618 0.412
7.2540002 10.627 0.40200001
7.2680001 10.634 0.391
7.2709999 10.636 0.38
7.2859998 10.644 0.37
7.2979999 10.651 0.359
7.3099999 10.658 0.34799999
7.3169999 10.662 0.33700001
7.3039999 10.654 0.324
7.3239999 10.665 0.31400001
7.3400002 10.675 0.303
7.329 10.668 0.29100001
7.3340001 10.671 0.28
7.362 10.687 0.27000001
7.369 10.691 0.25799999
7.3800001 10.697 0.24699999
7.3790002 10.696 0.235
7.3930001 10.704 0.22400001
7.4029999 10.71 0.213
7.4250002 10.722 0.20200001
7.427 10.723 0.19
7.4229999 10.721 0.178
7.4400001 10.73 0.167
7.4650002 10.744 0.156
7.448 10.734 0.14399999
7.461 10.742 0.132
7.4809999 10.753 0.121
7.4899998 10.758 0.109
7.4860001 10.756 0.097000003
7.4990001 10.763 0.085000001
7.513 10.771 0.074000001
6.7160001 10.359 2.7130001
6.6849999 10.341 2.6849999
6.6820002 10.339 2.6700001
6.691 10.344 2.6619999
6.6989999 10.349 2.654
6.6789999 10.337 2.631
6.6880002 10.342 2.6229999
6.6789999 10.336 2.6059999
6.6929998 10.345 2.6010001
6.6880002 10.342 2.586
6.684 10.339 2.5710001
6.6939998 10.345 2.5639999
6.6929998 10.344 2.5510001
6.7059999 10.351 2.5450001
6.6999998 10.348 2.53
6.6919999 10.343 2.513
6.6999998 10.347 2.5050001
6.7020001 10.348 2.494
6.691 10.342 2.4760001
6.7030001 10.349 2.47
6.7010002 10.347 2.4560001
6.697 10.345 2.4419999
6.7010002 10.347 2.4319999
6.711 10.353 2.425
6.704 10.349 2.4089999
6.6950002 10.343 2.3929999
6.71 10.352 2.388
6.7319999 10.365 2.3859999
6.737 10.368 2.3759999
6.7480001 10.374 2.369
6.756 10.378 2.3599999
6.77 10.386 2.355
6.783 10.393 2.348
6.7859998 10.395 2.3380001
6.8000002 10.403 2.3310001
6.8270001 10.419 2.332
6.8410001 10.427 2.325
6.8449998 10.429 2.3150001
6.8379998 10.425 2.3
6.8340001 10.422 2.286
7.171 10.597 0.76200002
7.197 10.612 0.75400001
7.1950002 10.61 0.74199998
7.197 10.611 0.73100001
7.1950002 10.61 0.71899998
7.2090001 10.618 0.70899999
7.2049999 10.615 0.69700003
7.2160001 10.621 0.68699998
7.1999998 10.612 0.67299998
7.1919999 10.607 0.66100001
7.2020001 10.613 0.65100002
7.2030001 10.613 0.639
7.2030001 10.613 0.62800002
7.2049999 10.614 0.616
7.198 10.61 0.60399997
7.1989999 10.61 0.59299999
7.217 10.621 0.583
7.2090001 10.616 0.57099998
7.21 10.617 0.56
7.1939998 10.607 0.546
7.204 10.612 0.53600001
7.1999998 10.61 0.52399999
7.2059999 10.613 0.51300001
7.1939998 10.606 0.5
7.2160001 10.619 0.491
7.2030001 10.611 0.47799999
7.204 10.612 0.46700001
7.2259998 10.624 0.45699999
7.2199998 10.621 0.44600001
7.223 10.622 0.43399999
7.2160001 10.618 0.42199999
7.25 10.638 0.41299999
7.2519999 10.639 0.40200001
7.2600002 10.643 0.391
7.27 10.649 0.38
7.2639999 10.645 0.368
7.2919998 10.661 0.359
7.3039999 10.668 0.34799999
7.3039999 10.668 0.336
7.316 10.675 0.32600001
7.336 10.686 0.315
7.3390002 10.688 0.30399999
7.3499999 10.694 0.29300001
7.3530002 10.695 0.28099999
7.3559999 10.697 0.26899999
7.3470001 10.691 0.257
7.3769999 10.708 0.24699999
7.4070001 10.726 0.237
7.3940001 10.718 0.22400001
7.395 10.718 0.213
7.4039998 10.723 0.20100001
7.415 10.73 0.19
7.428 10.737 0.17900001
7.447 10.748 0.167
7.4520001 10.751 0.156
7.4489999 10.749 0.14399999
7.4569998 10.753 0.132
7.4590001 10.754 0.12
7.4879999 10.771 0.109
7.4889998 10.771 0.097000003
6.717 10.372 2.704
6.6880002 10.355 2.6760001
6.6810002 10.35 2.6600001
6.6859999 10.353 2.6500001
6.6900001 10.355 2.6389999
6.6900001 10.355 2.6270001
6.6880002 10.354 2.6140001
6.6869998 10.353 2.5999999
6.6929998 10.356 2.5910001
6.6900001 10.354 2.5769999
6.6890001 10.354 2.5639999
6.697 10.358 2.556
6.6880002 10.353 2.539
6.6939998 10.357 2.53
6.6939998 10.356 2.517
6.6960001 10.357 2.506
6.7080002 10.364 2.4990001
6.698 10.358 2.4820001
6.6919999 10.354 2.467
6.6859999 10.351 2.4519999
6.6999998 10.359 2.4460001
6.6999998 10.359 2.434
6.7010002 10.359 2.4219999
6.6989999 10.358 2.4089999
6.7069998 10.362 2.401
6.7129998 10.365 2.391
6.7080002 10.363 2.3770001
6.724 10.372 2.372
6.7449999 10.384 2.3699999
6.7509999 10.387 2.3599999
6.7509999 10.387 2.348
6.776 10.402 2.3469999
6.789 10.409 2.3410001
6.7839999 10.406 2.3269999
6.7919998 10.411 2.3180001
6.8140001 10.423 2.316
6.8189998 10.426 2.306
6.835 10.436 2.3010001
6.835 10.435 2.2880001
6.849 10.443 2.2820001
7.1529999 10.6 0.79400003
7.1700001 10.61 0.78500003
7.178 10.614 0.77499998
7.1859999 10.618 0.764
7.1760001 10.613 0.75199997
7.191 10.621 0.74199998
7.184 10.617 0.73000002
7.1760001 10.612 0.71700001
7.177 10.613 0.70599997
7.1700001 10.608 0.69300002
7.1880002 10.619 0.68400002
7.1760001 10.611 0.671
7.1859999 10.617 0.66100001
7.1820002 10.615 0.64899999
7.1750002 10.61 0.63599998
7.1729999 10.609 0.625
7.177 10.611 0.61400002
7.1750002 10.61 0.602
7.184 10.615 0.59200001
7.177 10.611 0.579
7.1859999 10.616 0.56900001
7.178 10.611 0.55699998
7.1929998 10.619 0.54699999
7.1760001 10.61 0.53399998
7.1690001 10.605 0.52100003
7.1700001 10.606 0.50999999
7.1729999 10.607 0.49900001
7.1960001 10.62 0.49000001
7.197 10.621 0.47799999
7.2150002 10.631 0.46799999
7.1989999 10.622 0.456
7.2160001 10.632 0.44600001
7.217 10.632 0.43399999
7.2350001 10.642 0.42399999
7.2449999 10.648 0.41299999
7.2470002 10.649 0.40200001
7.25 10.651 0.391
7.2680001 10.661 0.38100001
7.2820001 10.669 0.37
7.2909999 10.673 0.359
7.2909999 10.674 0.347
7.2880001 10.672 0.336
7.3140001 10.687 0.32600001
7.335 10.698 0.315
7.3280001 10.695 0.303
7.3369999 10.7 0.292
7.348 10.706 0.28099999
7.3410001 10.702 0.26899999
7.3649998 10.716 0.25799999
7.3730001 10.72 0.24699999
7.3850002 10.727 0.236
7.395 10.732 0.22499999
7.3979998 10.734 0.213
7.4180002 10.745 0.20200001
7.4219999 10.748 0.19
7.4200001 10.746 0.178
7.428 10.75 0.167
7.4390001 10.757 0.155
7.4559999 10.767 0.14399999
7.4530001 10.765 0.132
6.6939998 10.37 2.6689999
6.6869998 10.366 2.6530001
6.6960001 10.371 2.645
