ply
format ascii 1.0
comment PCL generated
element vertex 761
property float x
property float y
property float z
element camera 1
property float view_px
property float view_py
property float view_pz
property float x_axisx
property float x_axisy
property float x_axisz
property float y_axisx
property float y_axisy
property float y_axisz
property float z_axisx
property float z_axisy
property float z_axisz
property float focal
property float scalex
property float scaley
property float centerx
property float centery
property int viewportx
property int viewporty
property float k1
property float k2
end_header
19.472139 2.6661751 0.032684211
19.549686 2.6613567 0.039747816
19.617863 2.6694 0.032523081
19.466022 2.7331433 0.062547624
19.542379 2.7091379 0.083448276
19.625002 2.741972 0.051635504
19.458469 2.8431334 0.057133332
19.634287 2.8606064 0.05245455
19.713501 2.8940001 0.041500002
18.453459 2.9737175 0.043989126
18.552412 2.9740725 0.047009245
18.625326 2.9824598 0.069054067
19.4685 2.9516428 0.049428571
19.511 2.9784999 0.068499997
19.657646 2.911629 0.050680414
19.713419 2.9492435 0.050382607
18.3776 3.0446 0.0252
18.418749 3.0361249 0.071250007
18.587183 3.0254545 0.004818182
18.639591 3.0486884 0.052957989
19.398001 3.0480001 0.014
19.455883 3.0489409 0.047235291
19.534 3.0580001 0.096000001
19.698599 3.0474002 0.0436
19.708286 3.0493493 0.050034195
18.378151 3.1364 0.031950001
18.450888 3.1361094 0.049849298
18.554211 3.1334934 0.046146668
18.640125 3.1208508 0.057108115
19.435728 3.1497273 0.059727274
19.591711 3.1490777 0.049098045
19.645546 3.1261852 0.051953696
19.708448 3.1153753 0.051274996
19.454802 3.2436001 0.061100006
19.594883 3.25125 0.044704545
19.603683 3.2550001 0.055171434
19.460281 3.3537841 0.053594593
19.557999 3.3524065 0.053737279
19.603148 3.3438823 0.034735296
19.457001 3.406111 0.0073333331
19.551411 3.4055293 0.0057647056
19.6185 3.4050002 0.001
19.471315 2.7607143 0.14088891
19.548769 2.7547629 0.14558522
19.616219 2.7583125 0.13756251
19.456537 2.8375006 0.15914284
19.53418 2.8066366 0.18790908
19.632622 2.8615117 0.14764287
19.707201 2.8936002 0.1382
18.479776 2.9827411 0.12733336
18.554403 2.9736896 0.14804125
18.647467 2.977236 0.14726418
18.719421 2.9863155 0.17821051
19.392 2.9450002 0.18000001
19.454502 2.9476252 0.15056251
19.6616 2.9106827 0.15528047
19.712021 2.9484961 0.15207312
20.4718 2.9931335 0.16806667
20.554041 2.990958 0.15038571
18.468 3.0564003 0.1338
18.522778 3.0265555 0.16177778
18.684816 3.0402629 0.11818422
18.732834 3.0485148 0.16551487
19.468359 3.0395715 0.16014287
19.518667 3.0450001 0.11733334
19.697224 3.0640001 0.15022223
19.706671 3.0483792 0.14806193
20.391201 3.0332 0.1874
20.454782 3.0206668 0.15369563
20.542141 3.0059123 0.14750877
18.474121 3.1393898 0.13824393
18.550001 3.1372774 0.15013894
18.65716 3.133862 0.14451727
18.728127 3.1225789 0.16133335
19.457695 3.1465385 0.15438461
19.593517 3.1579263 0.1485
19.645771 3.1247308 0.14975961
19.708023 3.1186736 0.15353058
20.394001 3.1286666 0.19033335
20.458359 3.1428246 0.15496907
20.549444 3.1465104 0.14922628
20.638954 3.1378319 0.14050809
19.461319 3.2646329 0.1553662
19.562063 3.2592282 0.1549035
19.605049 3.2455499 0.13935001
19.455502 3.3133335 0.11375
19.553553 3.3106668 0.11194444
19.6015 3.309 0.106
19.493 2.7969999 0.20900001
19.582001 2.7950001 0.20550001
19.611 2.7946002 0.20899999
19.469625 2.8564141 0.24417074
19.548687 2.8458459 0.25004029
19.618509 2.862433 0.24546267
19.708715 2.8947146 0.25914288
20.551001 2.8800001 0.29499999
18.572666 2.9767001 0.22483332
18.648848 2.9751334 0.2483715
18.74122 2.9809577 0.2521579
18.812 2.9870908 0.28545454
19.389999 2.937 0.20200001
19.443432 2.9443047 0.24791305
19.535999 2.904 0.28099999
19.659693 2.9133136 0.25006863
19.711239 2.9461651 0.24971902
20.174738 2.9624212 0.23815793
20.349501 2.997 0.29049999
20.456104 2.9933686 0.24963158
20.533554 2.9930007 0.23944445
18.560043 3.040833 0.24266669
18.646999 3.0454998 0.2755
18.777031 3.0401468 0.22686766
18.821201 3.0500269 0.27178377
19.399 3.086 0.25999999
19.447367 3.0428424 0.25573683
19.696522 3.0674398 0.24920002
19.704891 3.0433404 0.24835995
20.295 3.046 0.29699999
20.36187 3.028347 0.25741336
20.447378 3.0068171 0.24831711
20.554199 3.0411186 0.25166413
18.561199 3.13696 0.23866671
18.64922 3.1392984 0.25048053
18.754303 3.134011 0.24504602
18.821581 3.1225348 0.26944187
19.457146 3.1656909 0.26412728
19.566925 3.1666472 0.26127273
19.648794 3.1304832 0.24829467
19.705355 3.1215334 0.24664441
20.365221 3.1437445 0.25646338
20.449059 3.1484261 0.24724627
20.544262 3.1412055 0.24631065
20.6066 3.1173999 0.2062
19.459921 3.2198 0.21867999
19.556957 3.2193058 0.22189797
19.603001 3.2019999 0.23899999
19.262001 2.8940001 0.31299999
19.363501 2.89275 0.31424999
19.466553 2.8895712 0.34298214
19.54118 2.8912244 0.34610203
19.649824 2.8936427 0.33842862
19.717299 2.8929002 0.34380001
18.45376 2.9757144 0.31757143
18.561333 2.9773335 0.3194167
18.663338 2.9799626 0.3353962
18.750597 2.9784856 0.34774309
18.845001 2.9792852 0.35671431
18.946001 2.9566336 0.32326666
19.055113 2.9338894 0.31659257
19.150356 2.9237056 0.31299999
19.246809 2.9157312 0.31207696
19.3325 2.9115005 0.31566668
19.461044 2.9255559 0.35157776
19.557289 2.9104316 0.35078415
19.649181 2.912626 0.34995964
19.715611 2.9460418 0.34562498
19.84606 2.9275711 0.31022853
19.948198 2.9367504 0.31369996
20.049154 2.9495497 0.31582496
20.146559 2.96139 0.31751218
20.258738 2.9803481 0.32734782
20.352913 2.9929352 0.34832612
20.43714 2.9934402 0.33798
20.558525 2.9908419 0.30894735
20.60475 2.9877501 0.30250001
18.468 3.0009999 0.324
18.564499 3.0150001 0.30800003
18.64852 3.0439999 0.34281483
18.718 3.0040002 0.37466669
18.869595 3.0398645 0.33784378
18.911848 3.0554497 0.38090003
19.449543 3.0409093 0.35486361
19.697393 3.0583217 0.34885719
19.705336 3.0440345 0.35207963
20.267843 3.0302627 0.36477193
20.348093 3.0098755 0.34640279
20.462448 3.0365686 0.35597289
20.522665 3.0393844 0.31594872
18.578999 3.1094999 0.30599999
18.662281 3.1394908 0.34593445
18.75193 3.1430006 0.34877029
18.851778 3.132117 0.34663829
18.914001 3.1193461 0.37957695
19.460714 3.1306472 0.35167068
19.550419 3.1352243 0.35128728
19.652018 3.1318052 0.34838137
19.705252 3.1229546 0.35465908
20.269699 3.1418505 0.36311671
20.350395 3.1520312 0.347882
20.447788 3.1452622 0.34860283
20.508688 3.1193123 0.31831253
19.477001 2.8924646 0.4375357
19.544041 2.8943079 0.43976924
19.652765 2.8936472 0.44376472
18.766846 2.9780622 0.43964064
18.849327 2.9776406 0.44996998
18.936977 2.9847763 0.45927626
19.002499 2.9879999 0.49700001
19.468573 2.922317 0.45498425
19.552855 2.9121997 0.45032731
19.654322 2.9161139 0.44921961
19.707813 2.9459836 0.45027193
20.198999 2.9960001 0.49900001
20.253946 2.9936666 0.46572223
20.344917 2.9942918 0.43391663
20.412001 2.9960001 0.40700001
18.691 3.0650001 0.40400001
18.745275 3.0337584 0.45103446
18.8536 3.0028002 0.46359998
18.961498 3.0454853 0.44442305
19.005669 3.0500002 0.49294445
19.454603 3.0451505 0.44604999
19.697025 3.0570815 0.4476487
19.703922 3.0471427 0.4497501
20.175297 3.0391083 0.46367568
20.248621 3.0154698 0.44797966
20.355991 3.0273027 0.45428687
20.42061 3.0585687 0.42509806
18.6875 3.1358752 0.41087502
18.751707 3.1419737 0.44636002
18.851517 3.1436052 0.44913581
18.94875 3.1302388 0.44898105
19.007999 3.1243534 0.491
19.463839 3.1358731 0.44778153
19.551277 3.1343038 0.45081377
19.656395 3.1324127 0.44881824
19.705164 3.1229188 0.44578382
20.176636 3.1444852 0.47039393
20.25149 3.1567757 0.45048842
20.35268 3.1493738 0.4493742
20.415564 3.1289687 0.42190626
19.48037 2.8940527 0.5558421
19.528545 2.8939545 0.54509091
19.644001 2.8956666 0.56216669
18.790667 2.9863336 0.5103333
18.860132 2.9807942 0.54302943
18.950977 2.9789338 0.54915094
19.030502 2.9836068 0.5606364
19.470194 2.9229016 0.5483098
19.552187 2.9116375 0.54814279
19.656406 2.9250119 0.55012953
19.7057 2.9459782 0.54453331
20.165077 2.9963849 0.55207694
20.249723 2.9937227 0.54122221
20.313667 2.9943333 0.50766665
18.790127 3.0397499 0.51625001
18.842678 3.0293572 0.55764288
18.962858 3.0007145 0.55800003
19.052092 3.0469563 0.55074286
19.462317 3.0516839 0.54957891
19.696678 3.0458488 0.56215096
19.702688 3.0508962 0.54071641
20.080753 3.0475001 0.57250005
20.150595 3.0197444 0.54982972
20.255924 3.0219324 0.55777115
20.325964 3.0521057 0.53153944
18.782187 3.1431251 0.51824999
18.850988 3.1432624 0.54747504
18.951237 3.1460783 0.55097353
19.044224 3.1304469 0.55397332
19.458105 3.1330576 0.54964364
19.550732 3.139271 0.55010676
19.656546 3.136287 0.55063927
19.706963 3.1261318 0.54949057
20.078209 3.1452632 0.58226317
20.152626 3.1584573 0.55069488
20.25498 3.1555228 0.55324608
20.323397 3.1354313 0.52615511
19.478184 2.8958182 0.63509083
19.537334 2.8955002 0.62683332
19.664749 2.8942499 0.634
18.888668 2.988889 0.61444443
18.955933 2.9808311 0.64171827
19.049717 2.9797165 0.64781672
19.127073 2.986269 0.66853857
19.469027 2.9280384 0.65327841
19.549829 2.9163263 0.65012395
19.661484 2.9297719 0.65081966
19.704159 2.9459844 0.64522231
20.069668 2.9965 0.67533338
20.160002 2.9951334 0.64373338
20.212801 2.9958 0.6336
18.881002 3.0496001 0.61939996
18.935064 3.0216129 0.66435492
19.072849 3.0275495 0.62825006
19.137728 3.0485499 0.65214509
19.458422 3.0505264 0.65252638
19.695402 3.0447011 0.65244991
19.7029 3.0474405 0.64601696
19.982002 3.0615833 0.67866659
20.053839 3.0237558 0.65401214
20.150343 3.016 0.65085703
20.234205 3.0543504 0.63950515
18.875 3.1400692 0.62796545
18.948503 3.1468101 0.64955699
19.047659 3.1467409 0.64940447
19.135275 3.1282325 0.65912616
19.459082 3.1385098 0.64810419
19.553814 3.145364 0.65094948
19.662161 3.1379039 0.65001488
19.704153 3.128 0.64631242
19.985777 3.1408892 0.68266666
20.054665 3.1612573 0.65460384
20.152473 3.1620462 0.65220332
20.228218 3.1383674 0.63607597
19.485001 2.898 0.70099998
19.559002 2.8970001 0.75766671
19.698 2.8989999 0.77700001
18.990835 2.9838333 0.71816671
19.053791 2.9812214 0.74731576
19.150915 2.9805045 0.7489574
19.220778 2.9879515 0.77395117
19.46776 2.9279375 0.75222123
19.547815 2.9210808 0.74914289
19.659607 2.9322102 0.74910259
19.703562 2.951618 0.74920005
20.048668 2.993 0.736
20.101 2.997 0.71399999
18.97237 3.0371852 0.73240739
19.027905 3.0237141 0.76928568
19.181576 3.0406168 0.72153187
19.231281 3.0489795 0.76450998
19.4596 3.0516 0.7432
19.696125 3.0532537 0.74639231
19.702219 3.0436959 0.75276089
19.889999 3.0710001 0.78649998
19.95896 3.0310745 0.75678748
20.04995 3.0169423 0.7504369
20.141186 3.0490344 0.74047869
18.965998 3.1428368 0.7333023
19.048151 3.1499875 0.74928403
19.153351 3.1447594 0.74411011
19.227243 3.1290386 0.7666924
19.460152 3.1409526 0.74938369
19.549774 3.1453612 0.74941242
19.662231 3.1401892 0.74942267
19.7078 3.1338 0.74996001
19.893499 3.1424999 0.79075003
19.95892 3.1607094 0.75770932
20.05208 3.1664569 0.75004244
20.136078 3.1404572 0.74294388
19.078905 2.986762 0.82538086
19.15209 2.9806468 0.84788227
19.249817 2.9820969 0.85087627
19.315535 2.9839334 0.88120002
19.46557 2.9357848 0.84968358
19.546316 2.9247141 0.84826267
19.658653 2.9336774 0.84919226
19.70376 2.9590607 0.84519994
20.038502 2.9944999 0.81949997
19.067501 3.04475 0.84507149
19.138535 3.0095999 0.86846668
19.274391 3.0428553 0.8262465
19.322351 3.0514667 0.86971742
19.458124 3.0560002 0.83800006
19.696228 3.0548241 0.84514862
19.707691 3.0413451 0.85252732
19.864054 3.0394826 0.85946435
19.94952 3.0194125 0.8488825
20.04645 3.0433693 0.84206569
20.1005 3.08125 0.81149995
19.061302 3.1452196 0.83994907
19.148285 3.1496115 0.851412
19.256716 3.1434827 0.84501821
19.32 3.1295307 0.87110204
19.466688 3.1427677 0.8444795
19.551025 3.1475103 0.84987515
19.663364 3.1415448 0.84958631
19.710405 3.1368132 0.85534388
19.8661 3.1572359 0.8633334
19.948494 3.1729994 0.84943622
20.044891 3.1489916 0.84360468
20.105667 3.1136665 0.80966663
19.170677 2.9865406 0.92937833
19.248783 2.9824553 0.94993752
19.341488 2.9833617 0.95387626
19.461786 2.9429028 0.95250553
19.548521 2.9268584 0.94828343
19.654453 2.9302347 0.94969511
19.70261 2.9530559 0.93216676
19.944 2.9979999 0.92900002
19.1525 3.0372379 0.94800007
19.248714 3.0131431 0.95642865
19.367519 3.0470793 0.92842001
19.436001 3.0204999 0.94
19.695194 3.0570483 0.94111282
19.741701 3.0471368 0.950315
19.851776 3.0225458 0.95024222
19.949478 3.0407741 0.94600803
20.007462 3.0663078 0.91000003
19.097334 3.154 0.90733331
19.155376 3.146014 0.9443199
19.24976 3.1520936 0.94763535
19.351337 3.143682 0.94837284
19.453289 3.1412337 0.95628554
19.548628 3.150394 0.95108092
19.663006 3.143888 0.94875997
19.742395 3.1480708 0.95773232
19.849049 3.1731598 0.95112258
19.948051 3.1557982 0.94872391
20.008295 3.1227059 0.91288245
19.267483 2.9867897 1.0391129
19.352594 2.98282 1.0498739
19.455385 2.9518344 1.0507767
19.548697 2.9296255 1.0476871
19.658878 2.9309928 1.0486747
19.701538 2.9433079 1.0482306
19.191 3.0535002 1.008
19.247648 3.038125 1.0518544
19.346998 3.0022223 1.0633333
19.422001 3.0036666 1.0833334
19.597 3.096 1.098
19.680737 3.0374348 1.0530869
19.747923 3.0305867 1.0514714
19.850178 3.0404134 1.0500612
19.916334 3.0626667 1.0158333
19.187201 3.1441 1.0126001
19.250181 3.145735 1.0472288
19.349775 3.1539679 1.0483007
19.449091 3.1526957 1.0490294
19.549683 3.1542962 1.0503877
19.645786 3.1470637 1.0438403
19.754002 3.1778953 1.0526979
19.853304 3.1614053 1.0520793
19.914228 3.1356776 1.0207418
19.295 2.9960001 1.101
19.359539 2.9850137 1.139487
19.4548 2.9506102 1.146821
19.551416 2.9303758 1.1494652
19.659342 2.9320805 1.1486828
19.702091 2.9549091 1.1505456
19.286251 3.033875 1.115
19.341208 3.0278943 1.1551839
19.419001 3.0020001 1.181
19.563999 3.098 1.1390001
19.694874 3.020875 1.1496874
19.751036 3.0376325 1.1518166
19.821028 3.0649717 1.1222285
19.281666 3.1469524 1.1219523
19.350431 3.1493471 1.1490633
19.45022 3.1555271 1.150758
19.550344 3.1509547 1.1484072
19.654533 3.1787064 1.1544942
19.753597 3.1703491 1.1516259
19.822891 3.1376545 1.1302726
19.388401 2.9910002 1.2148
19.460951 2.9474132 1.2458849
19.551382 2.9331911 1.2501169
19.663162 2.9396329 1.251374
19.702812 2.959619 1.2519523
19.380316 3.0444212 1.2188947
19.427889 3.0502777 1.2696667
19.694397 3.0383997 1.2695556
19.721552 3.0493507 1.2336
19.375648 3.1449728 1.225865
19.44873 3.152693 1.2534806
19.548513 3.167681 1.2515417
19.655472 3.1751535 1.2557865
19.728266 3.1432893 1.2341318
19.463562 2.9436533 1.3509867
19.549395 2.9343841 1.3490909
19.663006 2.9430616 1.3504449
19.701931 2.9641786 1.34425
19.454103 3.048414 1.3514138
19.693396 3.053009 1.3495981
19.701624 3.038625 1.3343749
19.396 3.151 1.3839999
19.45175 3.1547084 1.350821
19.551628 3.1702704 1.3491294
19.667589 3.1547258 1.3484267
19.706734 3.1520667 1.3580667
19.631001 3.2 1.321
19.458351 2.9462559 1.4515001
19.55032 2.9380817 1.4499589
19.666607 2.9485989 1.4501531
19.703001 2.9612 1.4316001
19.450359 3.0484288 1.452107
19.691614 3.0491905 1.4489726
19.701778 3.0314443 1.4286667
19.452776 3.1607773 1.4480195
19.549295 3.167274 1.4491578
19.666258 3.1530321 1.4509252
19.704313 3.1441247 1.4446249
19.460024 2.9469767 1.5491177
19.550766 2.9408295 1.5489789
19.666744 2.9517112 1.5483403
19.705 2.964 1.5545
19.450333 3.0512335 1.5492333
19.690605 3.0481496 1.5499816
19.702999 3.05 1.54
19.451927 3.1643643 1.5492396
19.551403 3.1723156 1.5502632
19.666208 3.1542335 1.5491014
19.709181 3.1469092 1.5528182
19.459578 2.950038 1.6503699
19.549643 2.943347 1.6487861
19.663731 2.9523716 1.6495204
19.700001 2.9809999 1.665
19.446074 3.0477412 1.6535925
19.688444 3.0478699 1.6485521
19.454596 3.168191 1.6484548
19.551743 3.1786244 1.6491827
19.666288 3.1577973 1.6492895
19.705124 3.153125 1.6572502
19.46129 2.9528182 1.7497792
19.550413 2.9457788 1.7491579
19.665321 2.9556377 1.7502011
19.702499 2.9844999 1.7135
19.44725 3.0485835 1.7503333
19.68619 3.0502343 1.750216
19.455284 3.1707497 1.75125
19.55393 3.1805451 1.7489109
19.666544 3.1592472 1.7487167
19.70425 3.160625 1.7355001
19.653 3.204 1.7915
19.459892 2.9541423 1.8466671
19.549309 2.949472 1.8500878
19.662081 2.9584124 1.8510629
19.442846 3.048769 1.8473846
19.687408 3.051801 1.8490543
19.456509 3.1736629 1.8522419
19.549799 3.1843886 1.8492236
19.666204 3.163141 1.84982
19.7085 3.1574998 1.8150001
19.4335 3.2014999 1.8875
19.459251 2.9573243 1.9501427
19.547834 2.9541433 1.9485816
19.658573 2.9591415 1.9525095
19.441813 3.0495923 1.9490373
19.686487 3.0479014 1.9493333
19.700001 3.006 1.999
19.45517 3.1783855 1.9506978
19.550266 3.1876454 1.9482405
19.668129 3.1628072 1.9477785
19.707201 3.1536002 1.9602
19.440248 3.20575 1.9432501
19.564999 3.2012501 1.96275
19.660332 3.2026668 1.954
19.458973 2.9613466 2.0503204
19.549562 2.9581442 2.049454
19.659876 2.9612982 2.0509682
19.701 2.9990001 2.0599999
19.438816 3.0484071 2.0484819
19.68491 3.0532358 2.0486507
19.700001 3.0125 2.0619998
19.455561 3.1778569 2.0496101
19.549515 3.1907647 2.0495732
19.666758 3.1658893 2.0476508
19.703251 3.1644998 2.0344999
19.456356 3.2054286 2.0452859
19.5424 3.2032001 2.0436001
19.648399 3.2027001 2.0667999
19.464035 2.9660571 2.1507473
19.549465 2.963196 2.1485181
19.655897 2.9656577 2.1478047
19.722 2.9579999 2.1719999
19.438824 3.0489647 2.1519287
19.683489 3.048177 2.1487944
19.701 3.0179999 2.125
19.453382 3.1772928 2.1488309
19.548748 3.1937783 2.1459587
19.66716 3.1638854 2.1503258
19.702499 3.1643333 2.1666667
19.460144 3.2030478 2.1478095
19.546652 3.2028999 2.1573503
19.653883 3.2040589 2.1428823
19.461329 2.9702787 2.2510672
19.548441 2.9673159 2.2496934
19.652964 2.9693253 2.2479148
19.709 2.9719999 2.253
19.433563 3.0540004 2.2544065
19.5495 3.0005 2.2934999
19.680902 3.0493853 2.2504463
19.449703 3.1779847 2.2484839
19.547625 3.1947567 2.2394595
19.669746 3.1621616 2.2468731
19.461155 3.2044244 2.2542424
19.553043 3.2045507 2.2559795
19.641199 3.2044859 2.2622287
19.454437 2.9619908 2.3555136
19.546762 2.9603429 2.3551223
19.65312 2.9712479 2.3473334
19.431791 3.0495863 2.3482759
19.549999 3.006 2.3464999
19.678825 3.0479147 2.350019
19.381001 3.1849999 2.3510001
19.43825 3.1675556 2.3419168
19.557375 3.1968749 2.3436253
19.676859 3.1538467 2.3478529
19.3925 3.2509999 2.391
19.449589 3.2284997 2.3597147
19.547171 3.2236159 2.3587976
19.644253 3.2061868 2.352221
19.455111 2.8705387 2.4659553
19.53813 2.8717797 2.4634545
19.444056 2.9274783 2.4332464
19.56101 2.9407523 2.4404354
19.650068 2.9733024 2.44841
19.394501 3.04 2.4194999
19.431629 3.0517037 2.4531114
19.678419 3.0482445 2.4484999
19.387501 3.1795001 2.4100001
19.42905 3.1503332 2.4547145
19.581249 3.19625 2.4324999
19.677259 3.1498129 2.4497943
19.705999 3.164 2.447
19.379999 3.2722001 2.4394002
19.445217 3.2709081 2.4296005
19.562565 3.2564631 2.4407682
19.643776 3.2081184 2.4491711
19.389999 3.3334999 2.4775
19.4499 3.3316514 2.4668837
19.542089 3.3282053 2.4695899
19.611 3.336 2.4679999
19.399 2.773 2.592
19.455315 2.7785482 2.5732052
19.535213 2.779161 2.5754638
19.395 2.8010001 2.585
19.447803 2.82967 2.5330319
19.547424 2.8414721 2.5401599
19.433666 2.9489045 2.5560949
19.577349 2.9527729 2.5483637
19.648195 2.9726846 2.5489726
19.440573 3.0501902 2.5557144
19.679337 3.0498881 2.5471427
19.443335 3.1482856 2.5551429
19.677172 3.1507015 2.5484202
19.436251 3.2494373 2.5471251
19.575443 3.2380741 2.5494263
19.645782 3.2123737 2.5512404
19.392 3.3709998 2.513
19.446213 3.3702884 2.5239694
19.56016 3.362396 2.5384157
19.3885 3.4252501 2.5762501
19.446657 3.4299552 2.5658753
19.541136 3.4276218 2.5715265
19.454979 2.6819649 2.681263
19.535099 2.6825917 2.679877
19.392668 2.7543333 2.6443334
19.444008 2.7359071 2.6384575
19.545317 2.7470973 2.6445358
19.428823 2.8449645 2.6565003
19.567591 2.8376665 2.646333
19.435263 2.949316 2.6482108
19.569016 2.9661272 2.6523654
19.640917 2.9770594 2.6509001
19.438684 3.0466366 2.6519544
19.586 3.0109999 2.694
19.677528 3.0499692 2.6497097
19.432894 3.1464739 2.647579
19.677824 3.1512568 2.6473563
19.448814 3.2555001 2.6346874
19.561611 3.2275999 2.6532538
19.645124 3.2133069 2.6510136
19.433475 3.3497145 2.6386189
19.575027 3.3605814 2.6437206
19.375 3.4668751 2.6434999
19.444075 3.4685426 2.6271
19.563631 3.4595587 2.640305
19.389 3.5244999 2.6764998
19.448477 3.5352213 2.6669111
19.544073 3.5280008 2.6724148
19.451679 2.5873573 2.7896433
19.533447 2.5869627 2.7845926
19.395802 2.6302001 2.7670002
19.446978 2.6365595 2.7457759
19.542686 2.6481354 2.7471926
19.42823 2.7466538 2.7581155
19.562458 2.7520797 2.7480795
19.431295 2.8341179 2.748353
19.559654 2.8269312 2.7433102
19.434401 2.9809999 2.75
19.557405 2.9758735 2.7516966
19.642208 2.9778321 2.7507792
19.440647 3.0492353 2.7475884
19.580666 3.0013332 2.7763336
19.674078 3.0456676 2.7502429
19.43335 3.1498001 2.7413497
19.676762 3.1490312 2.747093
19.47377 3.2175386 2.763154
19.547791 3.2200732 2.7519877
19.64814 3.2159886 2.7507467
19.439699 3.3539002 2.7264001
19.553858 3.3512857 2.723429
19.351999 3.4909999 2.7019999
19.438192 3.4416192 2.7406189
19.57773 3.4604051 2.7451482
19.364202 3.5680001 2.7681999
19.446098 3.568738 2.7263932
19.567965 3.558784 2.7422309
19.375 3.609 2.793
19.45064 3.6315565 2.7665973
19.544189 3.6292071 2.7718468
19.601 3.602 2.7620001
19.450125 2.4920626 2.89025
19.527231 2.4936154 2.8876922
19.392286 2.5680003 2.8432858
19.446363 2.5447195 2.84764
19.537596 2.5479739 2.8515482
19.422295 2.6474583 2.8547502
19.55979 2.6467009 2.8462145
19.433401 2.7406502 2.8483002
19.554811 2.7397966 2.8408842
19.445 2.8055 2.8169999
19.543999 2.8344998 2.8140001
19.47821 2.9782102 2.8615789
19.549173 2.9792387 2.8477957
19.64308 2.9815288 2.8512249
19.435909 3.0498638 2.8436368
19.578001 3.0075002 2.8556666
19.67079 3.0466266 2.8473759
19.4296 3.14768 2.8473597
19.676043 3.1521235 2.8482959
19.46225 3.2193079 2.8528845
19.548326 3.2231278 2.8537905
19.650255 3.2207818 2.8478622
19.440401 3.4549 2.8245001
19.565105 3.4792106 2.8316317
19.43445 3.5447998 2.8474002
19.576143 3.553273 2.8477976
19.370001 3.6653333 2.852778
19.444166 3.6683333 2.8286335
19.569002 3.6604607 2.8414476
19.380001 3.7075 2.87975
19.45026 3.7319057 2.8665206
19.543165 3.7292876 2.8710105
19.460249 2.392 2.9914999
19.528 2.39625 2.9905
19.393364 2.4577274 2.9560909
19.450527 2.4503047 2.9484701
19.535875 2.4536495 2.9537945
19.369001 2.5120001 2.9573333
19.429039 2.5437696 2.937077
19.553804 2.5506401 2.9485104
19.446693 2.6499233 2.9533079
19.551878 2.6419511 2.9426377
19.456501 2.7133336 2.9130001
19.532925 2.7191539 2.9263077
19.475674 2.9807436 2.954093
19.551432 2.9849455 2.9465919
19.644135 2.9840121 2.9479265
19.435432 3.0437391 2.9466958
19.566221 3.0072224 2.9670002
19.668966 3.045054 2.949188
19.367332 3.1656671 2.9710002
19.425875 3.1483333 2.947958
19.674957 3.1529903 2.9482398
19.455036 3.2185369 2.9521484
19.549717 3.229835 2.949141
19.64893 3.2231901 2.9480889
19.434502 3.5701251 2.9356248
19.552502 3.5727146 2.9342501
19.438601 3.6439495 2.9606502
19.574829 3.6502171 2.9483979
19.374294 3.7571766 2.9351175
19.446163 3.7685366 2.9309416
19.567837 3.7570403 2.941087
19.377144 3.8090003 2.987572
19.453064 3.8352857 2.9689121
19.545477 3.8266869 2.9721918
19.601 3.8310001 2.9979999
0 0 0 1 0 0 0 1 0 0 0 1 0 0 0 0 0 761 1 0 0
