ply
format ascii 1.0
comment PCL generated
element vertex 730
property float x
property float y
property float z
element camera 1
property float view_px
property float view_py
property float view_pz
property float x_axisx
property float x_axisy
property float x_axisz
property float y_axisx
property float y_axisy
property float y_axisz
property float z_axisx
property float z_axisy
property float z_axisz
property float focal
property float scalex
property float scaley
property float centerx
property float centery
property int viewportx
property int viewporty
property float k1
property float k2
end_header
-0.21882926 2.977488 0.02725609
-0.15049767 2.9743609 0.028427243
-0.088851072 2.9786594 0.025617022
-0.22499996 3.0355935 0.064812504
-0.14873011 3.0188468 0.074333325
-0.049815718 3.0709519 0.05531057
0.01732653 3.0922241 0.047306117
-0.24577777 3.1335552 0.042377781
-0.028154936 3.1103094 0.041267604
0.019496493 3.1346219 0.050139856
-0.89231241 3.2794375 0.089000002
-0.23010525 3.2497368 0.045368418
-0.032414638 3.2782519 0.049219504
0.01574713 3.2572064 0.048471268
-1.1433642 3.3395643 0.046185732
-1.0496174 3.3329813 0.049882729
-0.95522147 3.3221397 0.055018999
-0.89620012 3.3123002 0.092200004
-0.21721999 3.3651402 0.053499993
-0.14959234 3.3692069 0.060792297
-0.071783006 3.3497162 0.050396238
0.017000001 3.3025 0.052999999
-0.21316668 3.4111669 0.0073333336
-0.14997225 3.4098887 0.013194444
-0.079588242 3.4092352 0.012764703
-0.21699999 3.0696852 0.14131477
-0.15133134 3.0702233 0.14597015
-0.058324855 3.0836501 0.14549819
0.016833328 3.0916667 0.14666668
-0.95650387 3.1923187 0.14365114
-0.87458986 3.1916664 0.17646153
-0.75699997 3.1965001 0.17300001
-0.67993331 3.1634336 0.17243335
-0.22563156 3.1348157 0.15889473
-0.14376597 3.1087236 0.18117018
-0.02528318 3.1092305 0.16008848
0.017861539 3.1343541 0.14695385
-0.94389975 3.2085469 0.15054707
-0.86106265 3.2438173 0.15500365
-0.22443901 3.2647314 0.15521953
-0.14872 3.2877729 0.17433333
-0.045634311 3.2820604 0.15597761
0.014806818 3.2571366 0.1501818
-0.95197564 3.3292928 0.15078658
-0.86496019 3.3194122 0.15703179
-0.220561 3.3156581 0.14021949
-0.15317389 3.3195214 0.13118482
-0.077897437 3.314436 0.12666667
0.0115 3.3011665 0.1585
-0.34650001 3.0952501 0.27574998
-0.2228182 3.0909238 0.25181818
-0.15084136 3.0919585 0.24466895
-0.056058839 3.0917346 0.2409706
0.037563633 3.0927279 0.26010913
0.14340909 3.0936821 0.27359095
-0.94457418 3.192522 0.2473478
-0.856058 3.1924067 0.25275365
-0.74659264 3.1827779 0.28722221
-0.66089386 3.1604784 0.27015048
-0.54802632 3.1433549 0.28211841
-0.45401409 3.1311831 0.27856338
-0.35244444 3.1176805 0.27681941
-0.23123682 3.1235707 0.257
-0.14999999 3.10922 0.2524817
-0.04697112 3.1107078 0.25242966
0.024564421 3.1304784 0.25201225
0.15418187 3.1108186 0.27383637
-0.95166844 3.2096629 0.25032625
-0.84014428 3.2180605 0.24167237
-0.77380317 3.2475007 0.26596636
-0.22236766 3.2680287 0.25072062
-0.15192541 3.287739 0.24850008
-0.047941174 3.2843723 0.24893455
0.016246576 3.2523561 0.24930136
-0.9503023 3.3379321 0.24887036
-0.84927118 3.327023 0.24766102
-0.77717096 3.316618 0.26861843
-0.22400002 3.3075387 0.24753846
-0.14651613 3.3055804 0.25619355
-0.057250001 3.3040502 0.24705
0.02575 3.3081875 0.25793749
0.10160001 3.3172002 0.2872
-0.21505001 3.0924506 0.34980002
-0.14713952 3.0935698 0.33617443
-0.058590353 3.0926983 0.34302402
0.018499998 3.0934997 0.34825
-0.94243664 3.1872957 0.33643657
-0.85137033 3.1858788 0.34361875
-0.75817829 3.1914375 0.35240805
-0.68774998 3.168 0.32300001
-0.21736197 3.1195619 0.34988573
-0.15069526 3.1134043 0.35253891
-0.047282815 3.1127408 0.3497709
0.01535948 3.1290789 0.35037243
-0.93559498 3.2190952 0.33662927
-0.85077822 3.2069361 0.35492146
-0.73670232 3.2298253 0.34211066
-0.68390089 3.2518313 0.37908909
-0.21702129 3.2728946 0.34997866
-0.1494123 3.2906768 0.35383332
-0.050901406 3.2886057 0.34898603
0.020711547 3.2584519 0.34204811
0.38313046 3.2619348 0.38321736
0.4459101 3.2752442 0.34620628
-0.93055999 3.336493 0.33159998
-0.85245311 3.3345358 0.35002345
-0.75215191 3.3237684 0.35117877
-0.68770379 3.3114445 0.37496299
-0.22126472 3.3101177 0.35408822
-0.15713727 3.305373 0.34300002
-0.046090908 3.3043036 0.36078793
0.053181823 3.3120458 0.32311362
0.10785715 3.3250475 0.32419047
0.39122224 3.3032222 0.37755555
0.4464696 3.3058033 0.35342431
0.55903631 3.3049092 0.35652733
-0.21650001 3.0964165 0.44124997
-0.14627273 3.0958638 0.44959086
-0.061457142 3.0939717 0.44317138
0.01592857 3.0944285 0.43085709
-0.90499997 3.191 0.405
-0.83750457 3.1915922 0.44168696
-0.7513237 3.1930292 0.45249131
-0.66850895 3.1925094 0.46520913
-0.21958143 3.1214342 0.45190698
-0.15004145 3.1165369 0.44949412
-0.048565362 3.1160343 0.44950843
0.014987651 3.1278145 0.44982705
0.2918182 3.1577275 0.49263635
0.35798618 3.1496899 0.45714825
0.44984978 3.1482575 0.44944501
0.54796541 3.1484225 0.44872692
-0.903 3.2115002 0.4075
-0.83967888 3.2146494 0.44208035
-0.74851668 3.2062142 0.44552347
-0.64556086 3.2377615 0.44758913
-0.59485722 3.2705238 0.49238092
-0.21387881 3.2721515 0.45148492
-0.14789528 3.2916193 0.44899991
-0.048094202 3.2892826 0.44376093
0.011719515 3.2521954 0.44799998
0.28958336 3.256458 0.49004167
0.34706491 3.2713895 0.44905961
0.44751111 3.2917683 0.44653371
0.54722524 3.2799821 0.4433603
0.61307704 3.2561538 0.41446155
-0.84063077 3.3386574 0.44024321
-0.74967569 3.3315959 0.44821844
-0.65577543 3.3196161 0.45547098
-0.59383333 3.3041668 0.49333334
-0.22225931 3.3099451 0.45322222
-0.15387499 3.3058748 0.45334381
-0.052070178 3.3048072 0.46173677
0.010153847 3.3036153 0.46161544
0.28850004 3.3061664 0.48675007
0.35483339 3.3057492 0.45316666
0.45396626 3.3056407 0.45192137
0.54802096 3.3093648 0.44656253
0.60957146 3.313143 0.41142857
-0.22014286 3.0923574 0.53992862
-0.13647224 3.0948613 0.5528056
-0.054238103 3.0947139 0.56200004
0.016555557 3.0937777 0.54488891
-0.81155556 3.1887779 0.51355559
-0.74350339 3.1916249 0.54576504
-0.6531406 3.1919417 0.54949766
-0.57882458 3.1931581 0.57373679
-0.21948528 3.1186178 0.54930866
-0.15250471 3.1181159 0.55006605
-0.050295927 3.1165376 0.54873258
0.013794517 3.1335821 0.54725337
0.111 3.1719999 0.54900002
0.26118529 3.1525729 0.55960089
0.34931079 3.1488712 0.54974812
0.44884732 3.150511 0.54852825
0.52014732 3.1490111 0.52346313
-0.8131538 3.2296927 0.51284617
-0.74982357 3.2100143 0.54560304
-0.64401835 3.2076972 0.54676133
-0.55956882 3.2431757 0.55352753
-0.49900001 3.2509999 0.59200001
-0.21941376 3.262897 0.54889661
-0.14635937 3.2935622 0.54793751
-0.047516137 3.2927854 0.54280645
0.012694442 3.2501805 0.55083334
0.19600001 3.286 0.59099996
0.25012764 3.2667882 0.55195737
0.3489874 3.2939494 0.54345572
0.45205328 3.2802138 0.54888004
0.52076 3.25144 0.52063996
-0.81058329 3.3355832 0.51508331
-0.74954969 3.3381758 0.54545039
-0.65198028 3.3275793 0.55001312
-0.56795102 3.318362 0.55763727
-0.22253124 3.3146412 0.55710918
-0.15040979 3.308418 0.55060667
-0.05220791 3.3060284 0.5543564
0.010391303 3.3069131 0.54943478
0.18525 3.3055 0.58724999
0.25446293 3.3070366 0.5574351
0.34877053 3.3074088 0.5541392
0.44617632 3.3103523 0.54748535
0.5130952 3.3115239 0.5181905
-0.21733332 3.0953331 0.64716673
-0.13780001 3.0945599 0.64471996
-0.080133341 3.095067 0.64826667
0.0099999998 3.0963748 0.66900003
-0.72046149 3.1903074 0.62030774
-0.65051341 3.1924129 0.64439183
-0.55437106 3.1931388 0.65227807
-0.48750004 3.193625 0.68212503
-0.21968833 3.1198618 0.64823174
-0.15104327 3.1165605 0.64991337
-0.049131248 3.1195385 0.64931023
0.014229155 3.139528 0.64791673
0.1676203 3.1543226 0.66212815
0.24969517 3.1479409 0.64887494
0.34969696 3.1487112 0.64951259
0.42426723 3.1484499 0.62863356
-0.72042221 3.2242887 0.62315559
-0.65097553 3.2078602 0.65193284
-0.53821021 3.2189329 0.63782376
-0.47152284 3.2464721 0.6611836
-0.2217778 3.2688892 0.64533335
-0.1440303 3.2953639 0.64609098
-0.044863641 3.2942271 0.64325768
0.010457144 3.251657 0.65008581
0.16083494 3.2622626 0.65085441
0.24690165 3.2925904 0.63940978
0.35417399 3.281239 0.65369576
0.42576471 3.2555585 0.62620592
-0.71763164 3.3406579 0.62700003
-0.64951718 3.3375378 0.64859194
-0.55026615 3.3255317 0.64955211
-0.47327277 3.3143787 0.6692273
-0.22219999 3.318866 0.6516
-0.15101254 3.3117359 0.6508615
-0.053659111 3.3078172 0.65347725
0.012416666 3.3075418 0.64983344
0.16020174 3.30972 0.66252613
0.24833775 3.3077488 0.65285128
0.34962937 3.3106463 0.64876461
0.41978794 3.3124545 0.62154549
-0.215 3.0964999 0.713
-0.14186361 3.0963638 0.74950004
-0.050000001 3.0964999 0.74124992
0.0040000002 3.0966668 0.74266672
-0.62821281 3.1904263 0.73778725
-0.5465911 3.1939704 0.74566424
-0.46448112 3.1942928 0.75713205
-0.39700001 3.1942003 0.78620005
-0.22137816 3.1218083 0.75039124
-0.15142381 3.1171935 0.74944478
-0.050479494 3.1208818 0.75023562
0.045390233 3.152329 0.75583345
0.14939936 3.1517162 0.74918103
0.24957936 3.1508076 0.7497474
0.3278788 3.1513145 0.73230922
-0.62962854 3.2158861 0.73436183
-0.55220014 3.2072268 0.75136226
-0.4398632 3.2254593 0.74138582
-0.38232818 3.2536256 0.77285177
-0.22575 3.2619169 0.74674988
-0.12214287 3.2967143 0.73214287
-0.03825926 3.2951479 0.74648154
0.036020007 3.2515409 0.75603342
0.13288572 3.2771993 0.72477144
0.2625294 3.273824 0.7675882
0.33636957 3.2550659 0.73656523
-0.62696248 3.3385875 0.73578763
-0.54937506 3.3350527 0.7480197
-0.4498553 3.3225534 0.75045288
-0.38147497 3.3127248 0.77799994
-0.22306821 3.3226597 0.74842048
-0.15114054 3.3133347 0.75223243
-0.052209865 3.3095183 0.75015438
0.058813725 3.3099415 0.75926471
0.14892572 3.3101485 0.75085729
0.24927175 3.3138096 0.7486034
0.32036361 3.3171456 0.72563648
-0.13670002 3.0974 0.83469993
-0.055666666 3.0973334 0.82133335
0.0040000002 3.0969999 0.81699997
-0.5400281 3.1934509 0.83584511
-0.45300752 3.1923387 0.84913534
-0.36054763 3.1930478 0.8535952
-0.22331646 3.1292415 0.84883547
-0.15178673 3.1185472 0.84990954
-0.051035661 3.1193666 0.85006011
0.051103864 3.1525524 0.8503713
0.14958847 3.152818 0.85013062
0.23190403 3.1623621 0.83597749
-0.60933334 3.2443333 0.80233335
-0.53974098 3.2134993 0.84251803
-0.44554526 3.2074604 0.84860843
-0.34791183 3.2309279 0.84943426
-0.28827447 3.256 0.88266659
-0.15640001 3.2956002 0.81420004
-0.043589298 3.2726791 0.85983944
0.026742855 3.2602856 0.81960005
0.15700001 3.2828572 0.84171426
0.23976918 3.2541537 0.84653866
-0.5406723 3.3371928 0.84018505
-0.45028573 3.3313382 0.85034406
-0.3547101 3.3195508 0.85513645
-0.22962505 3.3212085 0.84991658
-0.14932065 3.3168368 0.84991872
-0.053684611 3.3138154 0.84378457
0.050680242 3.3130937 0.85238987
0.14932129 3.316803 0.84994298
0.22644445 3.3175683 0.83040762
-0.13133334 3.095 0.94733334
-0.045666669 3.0951111 0.95194447
-0.50785714 3.1895716 0.91514289
-0.44169021 3.1929998 0.94911265
-0.35579792 3.1938601 0.95830321
-0.23197265 3.1446879 0.95081413
-0.15118572 3.1189256 0.94849533
-0.050425295 3.1171207 0.94917256
0.050388709 3.1496298 0.9490236
0.13581501 3.1583736 0.93775976
0.204 3.1786668 0.90533328
-0.51194441 3.2184999 0.91172218
-0.44871625 3.2137613 0.94487351
-0.34852937 3.2091391 0.94593269
-0.27238497 3.2288792 0.94231999
-0.11252942 3.2703531 0.93123525
-0.082812503 3.2686875 0.91581249
0.041000001 3.2535 0.92299998
0.15326227 3.2479017 0.94775391
-0.51033336 3.3353333 0.90811116
-0.4456071 3.3359525 0.94647062
-0.35090965 3.3303339 0.94929218
-0.25464281 3.3196321 0.95075583
-0.15198901 3.3190925 0.94874054
-0.045780879 3.3197701 0.95428646
0.049580302 3.3169482 0.95025367
0.13240594 3.3216434 0.93602955
-0.039750002 3.0947502 1.054
-0.42319998 3.1922503 1.0227501
-0.34855679 3.1939592 1.0461442
-0.23944286 3.1571362 1.0495342
-0.15212172 3.1225996 1.049312
-0.050870027 3.1204886 1.0497373
0.040799171 3.1606262 1.0415982
0.1098 3.1812 1.0062001
-0.41893548 3.2171781 1.0266613
-0.35286447 3.2115383 1.051511
-0.26699153 3.2155128 1.0431511
-0.16619048 3.2851431 1.0560951
-0.064500004 3.2939999 1.0495
0.057931826 3.2503865 1.0547047
0.10585714 3.2390001 1.008
-0.41605559 3.3423889 1.0214722
-0.35061109 3.3380661 1.048467
-0.25086161 3.3290734 1.0502557
-0.14813046 3.320435 1.0512983
-0.046807908 3.3256552 1.0507063
0.036772355 3.3231456 1.0387315
0.101 3.3239999 1.008
-0.032000002 3.0969999 1.1160001
-0.32506126 3.1918776 1.1348368
-0.24026421 3.1589468 1.1497136
-0.15284209 3.1258936 1.1494832
-0.049000025 3.1309574 1.1510324
0.008694442 3.1643882 1.1373609
-0.33089197 3.2174685 1.1333421
-0.27753836 3.2108848 1.1501251
-0.14300001 3.2850001 1.1
-0.024454545 3.2552726 1.1604546
0.0080000004 3.2493641 1.1524242
-0.3263 3.3412428 1.1287284
-0.25213149 3.3389952 1.1491947
-0.15001546 3.3332109 1.1489642
-0.049652405 3.3270485 1.1501284
0.0088444436 3.316622 1.1503998
-0.23089321 3.1499095 1.2443211
-0.15149677 3.1304567 1.2493933
-0.046458758 3.1354995 1.2493941
0.0040000002 3.1835001 1.257
-0.26269227 3.2319803 1.2349808
-0.012235293 3.2417648 1.2542354
0.0062222206 3.2537363 1.2462499
-0.23136066 3.3411067 1.2428443
-0.14954546 3.3372192 1.2500113
-0.050032061 3.3265405 1.2496902
0.007363636 3.315773 1.2452046
-0.2261463 3.1452553 1.3479819
-0.15246791 3.133538 1.3485514
-0.047039993 3.1379037 1.3492081
0.0071666669 3.1946666 1.3426666
-0.23409086 3.2443941 1.3445151
-0.01260714 3.2359645 1.3594644
0.0042542391 3.2600338 1.3487967
-0.22663064 3.3400259 1.3480179
-0.15001665 3.3400106 1.3500445
-0.048699033 3.3279858 1.3490193
0.0077058831 3.3136179 1.3444116
-0.22700623 3.1480768 1.4495796
-0.15172064 3.136759 1.449083
-0.047726225 3.1408088 1.4495879
0.0020000001 3.1570001 1.416
-0.23745456 3.2426667 1.4497578
-0.0097924517 3.2301886 1.4503399
0.0034210526 3.2714736 1.4522105
-0.22721744 3.3398964 1.4496522
-0.14967796 3.3381572 1.4508137
-0.048761912 3.3258312 1.449703
0.0076808515 3.3167872 1.4447023
-0.22703208 3.1510572 1.546013
-0.15014291 3.1405394 1.5499364
-0.048739407 3.1429574 1.5501152
0.0063333339 3.1771109 1.5594444
-0.2398919 3.2455678 1.5504324
-0.011185716 3.235014 1.5511141
0.0037894747 3.264684 1.5500263
-0.22754954 3.3433688 1.5489907
-0.15172412 3.3390114 1.5483221
-0.050154641 3.3282108 1.549902
0.0051764706 3.3172352 1.5472647
-0.22787872 3.155576 1.649388
-0.15053576 3.1447039 1.6503757
-0.049533594 3.1449399 1.6495569
0.0066875005 3.1766877 1.6458124
-0.23543333 3.2486668 1.6468667
-0.008564516 3.2378392 1.6513871
0.0032580642 3.2791936 1.6467098
-0.22680369 3.3487289 1.6464769
-0.15223238 3.3408487 1.6488813
-0.049432419 3.3326113 1.6484976
0.0029599997 3.3175201 1.6449598
-0.22819272 3.1593616 1.7491198
-0.14872392 3.1479204 1.74879
-0.04944038 3.1498046 1.748543
0.0080000004 3.1835001 1.73225
-0.23852777 3.2514997 1.7427222
-0.154 3.201 1.704
-0.011687499 3.2465751 1.7512877
0.0045263162 3.2503161 1.7495264
-0.22728866 3.3463814 1.7468039
-0.15187846 3.3472149 1.7494752
-0.050693132 3.3349528 1.7484702
0.0034999994 3.3216248 1.752025
-0.23022476 3.1609395 1.8492135
-0.14919373 3.1490562 1.8487846
-0.052010611 3.1520424 1.8493406
0.0080000013 3.1895003 1.8646667
-0.24259999 3.2507 1.8451669
-0.01175641 3.2450767 1.8497303
0.0043076924 3.2476923 1.8446923
-0.22814284 3.3452418 1.8478462
-0.15053438 3.352396 1.8504596
-0.048081089 3.340929 1.8486757
0.0034242419 3.3236065 1.849727
-0.23026426 3.1637523 1.9495686
-0.15009861 3.1514196 1.949533
-0.052543398 3.1549969 1.9481171
0.0080000004 3.1860001 1.921
-0.24455258 3.2496049 1.9498159
-0.014233337 3.2514448 1.9477112
0.0058333343 3.2563334 1.9628333
-0.22838373 3.3438141 1.9516046
-0.15174709 3.356632 1.9513733
-0.04660999 3.3419194 1.9502444
0.0030000003 3.3245385 1.9476155
-0.23015618 3.1693873 2.0501564
-0.14884527 3.1549931 2.0502803
-0.055948596 3.157562 2.0480788
0.30949998 3.1615 2.0615001
-0.25105128 3.2495131 2.0551798
-0.013580652 3.2527637 2.050215
0.006181818 3.2664547 2.0575454
-0.22649999 3.3486373 2.0486
-0.15059091 3.360527 2.0501814
-0.044567015 3.3472521 2.0495667
0.0025238097 3.3301904 2.0583811
-0.23562223 3.0903552 2.1850889
-0.18238461 3.089154 2.1923847
-0.23721637 3.1446118 2.1479316
-0.15361899 3.1453586 2.1539035
-0.056029785 3.1614466 2.1493061
0.0015 3.1939998 2.1855001
-0.26415381 3.2444043 2.154423
-0.016977778 3.2451775 2.1504667
0.0040526311 3.2584736 2.152158
-0.24019589 3.3559012 2.1544969
-0.15050003 3.3718402 2.1521187
-0.045252509 3.347075 2.149889
0.0011428572 3.3347144 2.1392858
-0.23083334 3.4058337 2.1955001
-0.16184616 3.4086154 2.1932306
-0.24266666 2.9960001 2.2901669
-0.191 2.9960001 2.2965
-0.23707402 3.04826 2.2507446
-0.16429958 3.0648036 2.2555513
-0.26232556 3.1462328 2.2393954
-0.12734966 3.1304877 2.2325282
-0.056444451 3.1659451 2.2468193
0.0062500001 3.1877499 2.2190001
-0.25638708 3.255548 2.2464838
-0.199 3.283 2.2980001
-0.016791664 3.2393656 2.2477183
0.007280001 3.2313995 2.2303603
-0.25287274 3.359 2.2378182
-0.12611765 3.3847058 2.2158234
-0.045526069 3.3521943 2.2458808
0.011 3.3125 2.29
-0.23623328 3.4452226 2.2529612
-0.14906998 3.4492352 2.2517531
-0.092900001 3.4302754 2.26455
-0.23900001 3.5080001 2.2940001
-0.13733333 3.503 2.2903335
-0.25 2.8929999 2.3970001
-0.24039684 2.9601433 2.3552415
-0.17288268 2.9757767 2.3675735
-0.26037496 3.0251114 2.3287361
-0.14981346 3.0328128 2.3351755
-0.2701579 3.1509473 2.3515263
-0.11489832 3.1450677 2.3479998
-0.060063735 3.168299 2.3502109
-0.24583335 3.2471998 2.3543003
-0.193 3.26525 2.31425
-0.021204816 3.2434444 2.3482528
0.0020000001 3.2645001 2.3095
-0.24264999 3.3499248 2.3541505
-0.15933333 3.342 2.3553336
-0.041735314 3.3506117 2.3490636
0.0055000004 3.3136251 2.3557498
-0.24463074 3.4628923 2.339061
-0.12252381 3.4728575 2.3257856
-0.08413925 3.451 2.3494306
-0.23478751 3.541661 2.3561628
-0.14867358 3.5443811 2.3536108
-0.08950001 3.5324631 2.3671665
-0.25133336 3.6030002 2.393667
-0.12966667 3.6050003 2.3970001
-0.24567309 2.8791347 2.455904
-0.18000001 2.8886669 2.4786668
-0.301 2.9979999 2.4579999
-0.25360405 2.9244573 2.4227047
-0.16075143 2.9487052 2.4327865
-0.308 3.0179999 2.477
-0.27952 3.0500395 2.4382799
-0.13393873 3.0504284 2.4444079
-0.24041176 3.1635294 2.4422352
-0.11448281 3.1548617 2.4491036
-0.060643956 3.1680627 2.4497907
-0.25059259 3.2485929 2.4496663
-0.023215191 3.2447977 2.4496708
-0.24176668 3.3526332 2.4473667
-0.162 3.3640001 2.4809999
-0.040466331 3.3511636 2.4491088
0.0045000003 3.3429999 2.4250002
-0.24189186 3.4567304 2.4463513
-0.11976924 3.4464619 2.4534614
-0.079829775 3.4587026 2.4418294
-0.24406493 3.5633378 2.4347928
-0.13624999 3.5835006 2.4177957
-0.080434777 3.5550001 2.4451745
-0.23306295 3.6345389 2.458657
-0.14860944 3.642159 2.4559565
-0.087452836 3.6307361 2.466038
-0.156 3.7 2.4849999
-0.3075 2.7827501 2.5844998
-0.24923809 2.7791905 2.5780003
-0.19599999 2.7920001 2.586
-0.30633333 2.8658891 2.5591114
-0.26254541 2.8340719 2.5404546
-0.1768667 2.8540666 2.5539663
-0.30440003 2.9308002 2.5513999
-0.29083332 2.9582224 2.5444999
-0.15406065 2.9481215 2.5447574
-0.28445458 3.03 2.5365455
-0.14272222 3.046 2.5287776
-0.24156249 3.1878748 2.5504999
-0.11815383 3.1640306 2.5526774
-0.062712744 3.1694648 2.5485799
-0.25381818 3.2505455 2.5486972
-0.024431819 3.2410681 2.5486815
-0.24606669 3.3455667 2.5429332
-0.12581249 3.3712499 2.5602503
-0.04279048 3.3500865 2.5484519
-0.22800002 3.47925 2.5287499
-0.15663636 3.4739089 2.5289092
-0.089466669 3.4606669 2.5367334
-0.23538236 3.5494711 2.5471179
-0.13177778 3.5392222 2.5516667
-0.07605882 3.5551915 2.5457938
-0.24128884 3.6649568 2.536834
-0.14394644 3.6822319 2.5141783
-0.076990902 3.6542997 2.5450275
-0.2262871 3.7343423 2.563426
-0.14816594 3.7378747 2.5582156
-0.083462663 3.7308054 2.5691633
-0.17966667 3.9420002 2.5750003
-0.31099999 2.6989999 2.694
-0.25484616 2.6876919 2.688154
-0.31015 2.7547002 2.6576002
-0.25562263 2.7391508 2.6413777
-0.17811111 2.7735927 2.6593332
-0.30942863 2.857476 2.6557143
-0.29350001 2.84025 2.641
-0.15822579 2.8380966 2.6486773
-0.3055 2.9213333 2.6428335
-0.28016669 2.9593334 2.6296668
-0.1495 2.9367144 2.6395001
-0.24080002 3.1925335 2.6542666
-0.12346 3.17044 2.6370797
-0.061742835 3.1740475 2.635257
-0.25482759 3.2513106 2.6509655
-0.027235296 3.2422357 2.6507053
-0.24836364 3.3479702 2.6500304
-0.1216818 3.3718181 2.6495457
-0.043980412 3.3531561 2.649035
0.0065000001 3.332 2.6104999
-0.107 3.4389999 2.6370001
-0.230625 3.5735002 2.617125
-0.15899999 3.5753753 2.636375
-0.079153851 3.5612309 2.6264617
-0.23249999 3.6438334 2.6452
-0.14300001 3.6368573 2.6808572
-0.068816908 3.6578872 2.6456902
-0.24078164 3.7613904 2.6369431
-0.14709857 3.7870843 2.614563
-0.073844835 3.7547934 2.6424143
-0.22082415 3.8347371 2.6618896
-0.15062501 3.83775 2.6618307
-0.08161702 3.8360851 2.668128
-0.221 3.934 2.6485
-0.2 3.904 2.6989999
-0.324 2.598 2.799
-0.29699999 2.5899999 2.7920001
-0.31559998 2.6556802 2.756
-0.25045997 2.6511798 2.7513397
-0.18222222 2.6883333 2.7745557
-0.31444445 2.7506666 2.7470002
-0.26655555 2.7357779 2.74
-0.16681395 2.7534189 2.7497208
-0.31145453 2.8289092 2.7362731
-0.27083334 2.8601665 2.7533336
-0.15378261 2.8382175 2.7398262
-0.24370001 3.1904998 2.7503002
-0.13728571 3.1826789 2.7532859
-0.062333323 3.1792145 2.7406669
-0.26000005 3.2460325 2.753129
-0.029507466 3.2533736 2.7437019
-0.2621282 3.3513842 2.7544873
-0.12316667 3.3779545 2.7467728
-0.045223888 3.3538651 2.7481294
-0.12671429 3.4064288 2.7642143
-0.1 3.404 2.7939999
-0.223 3.682143 2.7315717
-0.13575 3.65925 2.73
-0.071181834 3.6837273 2.7281818
-0.23340911 3.7552273 2.7370453
-0.1374 3.7132001 2.7622001
-0.06265334 3.754787 2.7423203
-0.23206578 3.8595128 2.7344074
-0.15241976 3.8841844 2.7179508
-0.06629061 3.8548796 2.7445812
-0.21976194 3.9372745 2.7641315
-0.15066029 3.9361665 2.7624693
-0.076563619 3.9358821 2.7662458
-0.32230005 2.5655665 2.8606334
-0.25490695 2.5608134 2.8601162
-0.19357143 2.5724287 2.8884287
-0.32404992 2.6509252 2.8488753
-0.2339091 2.6167271 2.8242726
-0.1754286 2.6559143 2.8511996
-0.32010525 2.7447896 2.8451579
-0.24075 2.7544999 2.8710001
-0.16614635 2.7441947 2.8452437
-0.31200001 2.8010001 2.8245001
-0.27700001 2.829 2.813
-0.145 2.842 2.809
-0.23211111 3.1935554 2.8494444
-0.13989656 3.1849656 2.8472416
-0.076250002 3.1807148 2.8503573
-0.30399999 3.2780001 2.8740001
-0.26960003 3.2414 2.8467
-0.032912277 3.2451932 2.8479648
-0.30830005 3.3434999 2.8868003
-0.28420693 3.3552759 2.8401036
-0.13583049 3.382237 2.8479664
-0.048089817 3.3618205 2.8466291
-0.31024998 3.4055002 2.86625
-0.249 3.4026668 2.8790002
-0.13222222 3.4050372 2.8600738
-0.075055562 3.4044726 2.8640831
-0.222875 3.7762501 2.8180001
-0.15100001 3.766 2.8387499
-0.067000002 3.7647777 2.8278887
-0.22070588 3.8577652 2.8501174
-0.14049999 3.8144999 2.8860002
-0.054873414 3.8558481 2.8445821
-0.22381577 3.9636965 2.8385925
-0.33210713 2.4728217 2.9636788
-0.25756097 2.4665611 2.965049
-0.33564287 2.5510476 2.943476
-0.23573685 2.5212104 2.9266846
-0.18389289 2.562429 2.9570711
-0.33158338 2.6520836 2.9457088
-0.22024998 2.6683748 2.9642498
-0.17407693 2.6550772 2.9473591
-0.32566667 2.71 2.9286666
-0.23199999 2.7325001 2.9299998
-0.17900001 2.7165997 2.9167001
-0.23775001 3.1914999 2.9475002
-0.14534484 3.1894827 2.9506896
-0.080153845 3.184731 2.9506159
-0.31935295 3.2734113 2.953294
-0.27033335 3.2340953 2.9454763
-0.17025 3.2007501 2.9449997
-0.029928572 3.2487571 2.9467418
0.0088947369 3.2708421 2.9808421
-0.32593939 3.3473334 2.9576671
-0.27249998 3.3742499 2.9260001
-0.15083331 3.3782597 2.947592
-0.033104002 3.3661282 2.9431036
0.010138889 3.3453891 2.9836111
-0.32442862 3.4072859 2.9548571
-0.23733334 3.4023333 2.9631667
-0.13847999 3.4067996 2.9533598
-0.054484531 3.4064944 2.9550509
0.0035000001 3.4142499 2.9844999
-0.21574999 3.8785002 2.91925
-0.15666668 3.8586669 2.9325004
-0.059192311 3.8659616 2.9278848
-0.22400001 3.957792 2.9394584
-0.14216667 3.9388332 2.9608333
0 0 0 1 0 0 0 1 0 0 0 1 0 0 0 0 0 730 1 0 0
