ply
format ascii 1.0
comment PCL generated
element vertex 602
property float x
property float y
property float z
element camera 1
property float view_px
property float view_py
property float view_pz
property float x_axisx
property float x_axisy
property float x_axisz
property float y_axisx
property float y_axisy
property float y_axisz
property float z_axisx
property float z_axisy
property float z_axisz
property float focal
property float scalex
property float scaley
property float centerx
property float centery
property int viewportx
property int viewporty
property float k1
property float k2
end_header
28.255144 3.0543931 0.031821437
28.345388 3.0326672 0.057181813
28.447729 3.0322311 0.053923085
28.5313 3.0468004 0.057700004
28.625999 3.0840001 0.090000004
28.257261 3.1493447 0.042189654
28.302999 3.1224999 0.081
28.270327 3.2485964 0.044576935
28.317501 3.2348335 0.024999999
28.273743 3.3332903 0.048645157
28.333 3.3640001 0.0099999998
27.437002 4.1700001 0.034666669
27.504 4.1929998 0.055
27.250929 4.2296119 0.052567173
27.432873 4.2248693 0.065130435
27.514999 4.211 0.093999997
28.264347 4.2416115 0.053013884
28.345764 4.2666178 0.04808823
28.4289 4.2538004 0.049399998
28.389999 2.9909999 0.119
28.355593 3.0574346 0.14408699
28.442442 3.0300627 0.15546875
28.543369 3.0344446 0.1526296
28.629004 3.0502858 0.15742858
28.278 3.1905 0.147
28.343552 3.1509423 0.14805813
28.270615 3.2523334 0.14974751
28.332333 3.223 0.17433333
28.271967 3.3367808 0.14982812
28.334145 3.3702857 0.15954283
28.434502 3.3759999 0.1795
27.258566 4.1702442 0.1492449
27.4569 4.1522994 0.1596
27.193748 4.2147503 0.10575
27.250801 4.2261086 0.14312311
27.35062 4.2298784 0.14961404
27.449232 4.2264791 0.14856251
27.527231 4.2206364 0.16177271
27.606001 4.204 0.192
28.416748 4.2608752 0.15062499
28.452999 2.994 0.205
28.514999 2.9815001 0.24849999
28.395752 3.06675 0.204
28.445097 3.0548091 0.24249214
28.541599 3.0313001 0.24623334
28.642698 3.0380001 0.25317392
28.732834 3.0583334 0.26666668
28.276297 3.1892002 0.24750002
28.344343 3.1722572 0.24457145
28.439678 3.1476471 0.25220588
28.690201 3.1968 0.26979998
28.7215 3.1860001 0.25099999
28.268431 3.2537498 0.2496704
28.348732 3.2198 0.24240001
28.434769 3.2111542 0.25384614
28.523001 3.214 0.27500001
28.689999 3.204 0.26349998
28.273869 3.3415678 0.24814811
28.348627 3.3755004 0.24140625
28.416624 3.37325 0.24725001
28.308001 3.401 0.24699999
27.27 4.0970001 0.208
27.4 4.073 0.26499999
27.686001 4.0289998 0.26300001
27.285801 4.1496 0.21600001
27.346107 4.1589398 0.25832835
27.458696 4.1473913 0.23708697
27.546915 4.1466393 0.23383334
27.630087 4.1393337 0.24966666
27.293667 4.2150002 0.207
27.351999 4.2236671 0.2432899
27.447926 4.2301316 0.24669811
27.552155 4.2234397 0.2476
27.634785 4.2176843 0.26499996
28.491835 3.0708332 0.30866668
28.545721 3.0508475 0.34841311
28.643137 3.0331724 0.34903446
28.738523 3.0383337 0.35204762
28.823603 3.0523999 0.3698
28.284573 3.1930003 0.33700001
28.334705 3.1939998 0.34188232
28.486336 3.1373336 0.31022224
28.537836 3.1465483 0.35919356
28.780333 3.1966667 0.37966666
28.825001 3.1965001 0.39050001
28.270634 3.2500315 0.35677794
28.355385 3.2050002 0.35976925
28.434139 3.2174289 0.34671429
28.555668 3.2306666 0.333
28.657667 3.2160001 0.38933334
28.742168 3.2050004 0.38516665
28.799999 3.2060001 0.396
28.271215 3.3423638 0.36212721
28.349808 3.3765235 0.37328568
28.426802 3.3738 0.37360001
27.395 4.0445004 0.30800003
27.44578 4.0516667 0.31177774
27.50675 4.0342498 0.30949998
27.392429 4.1694288 0.31171432
27.449591 4.1543341 0.34723529
27.54516 4.1436319 0.35836846
27.648779 4.142518 0.35533339
27.389715 4.2147141 0.3067143
27.450546 4.2244415 0.34444124
27.547338 4.227849 0.34873581
27.648325 4.2232857 0.34755099
27.735266 4.2174215 0.36905268
28.583668 3.0659168 0.41374999
28.643311 3.052911 0.45302236
28.747517 3.0364194 0.44887096
28.836433 3.0443003 0.45603335
28.935169 3.0703332 0.47733337
28.289799 3.1947999 0.46220002
28.318668 3.1954443 0.44500002
28.58354 3.1450768 0.41738465
28.631718 3.14588 0.46520004
28.748501 3.1954999 0.43400002
28.861902 3.1953001 0.4463
28.913 3.1949999 0.47600001
28.272194 3.2508538 0.44637278
28.354271 3.2074547 0.4462727
28.42943 3.2231431 0.44600001
28.589001 3.2019999 0.405
28.671665 3.2073331 0.45324999
28.745344 3.2062695 0.45665386
28.831846 3.2030773 0.45684618
28.900999 3.2030001 0.48800001
28.273384 3.3439882 0.44874418
28.344589 3.3755651 0.44560874
28.43082 3.3736362 0.44981819
28.298 3.4000001 0.49200001
28.312 3.404 0.41800001
27.597 3.9809999 0.49699998
27.551199 4.0778003 0.47760001
27.633749 4.0324998 0.49474996
27.486311 4.155539 0.412
27.551025 4.1594615 0.45694876
27.648464 4.1448922 0.44729728
27.749376 4.1456571 0.44988567
27.494001 4.2129998 0.41300002
27.551313 4.2230883 0.44408771
27.649454 4.2270594 0.44717649
27.743523 4.2237144 0.45092848
28.681217 3.0592859 0.52392858
28.743795 3.0517499 0.55722719
28.849195 3.0417502 0.55080014
28.941311 3.0520003 0.55611539
28.284 3.1989999 0.51300001
28.678576 3.1416841 0.52263159
28.726358 3.15516 0.57340002
28.8675 3.197 0.53250003
28.9596 3.1914001 0.52880001
28.271986 3.2491949 0.542961
28.345152 3.2111211 0.54536361
28.440399 3.2356 0.53479999
28.692333 3.2070003 0.52100003
28.743996 3.2088799 0.53764004
28.847054 3.2050557 0.53855556
28.931583 3.2043333 0.54991668
28.266691 3.3430784 0.53574997
28.351261 3.3794348 0.52639139
28.435125 3.3722498 0.52987504
27.5805 3.849107 0.51621437
27.633287 3.8511431 0.53900003
27.749668 3.8386667 0.53066671
27.8552 3.8421998 0.52380002
27.923 3.813 0.50800002
27.573479 3.9536405 0.51287991
27.618002 3.9296663 0.52222222
27.827002 3.9453335 0.50699997
27.564611 4.0469356 0.51161283
27.640837 4.0585003 0.53500003
27.705 4.085 0.54500002
27.568506 4.1476421 0.51421428
27.648804 4.1572628 0.55836058
27.737999 4.1470833 0.57625008
27.585089 4.2157278 0.51027274
27.649801 4.2224183 0.54739994
27.745016 4.2260609 0.55040812
28.777643 3.0682356 0.62788236
28.840025 3.0487611 0.65323913
28.945452 3.0443571 0.64652389
28.317001 3.194 0.66020006
28.778 3.1545339 0.63843334
28.819204 3.1512003 0.67975986
28.966 3.1989999 0.65899998
28.020847 3.2516923 0.67561549
28.134001 3.2290001 0.69300002
28.271145 3.2554471 0.65364444
28.336447 3.2183335 0.65203708
28.427502 3.2438333 0.63616663
28.786001 3.2099998 0.6426667
28.850399 3.2104399 0.66860008
28.950001 3.2098336 0.68008339
29.048 3.2047145 0.6748572
28.268785 3.3438654 0.65048444
28.347618 3.3828893 0.65115553
28.417004 3.3862724 0.65690911
28.282 3.4119999 0.64300001
27.746 4.0945001 0.64999998
27.679335 4.1598887 0.61633337
27.746044 4.1618185 0.65688634
27.843336 4.1451674 0.65841663
27.688887 4.2163334 0.6147778
27.74992 4.2211576 0.64541173
28.866457 3.0682731 0.72824252
28.942255 3.0524824 0.75501716
28.323002 3.1931667 0.73866671
28.865494 3.1498401 0.73898542
28.911089 3.149435 0.78534782
29.066 3.1989999 0.70200002
27.844936 3.238229 0.74668843
27.950989 3.2471585 0.74154389
28.046846 3.2432442 0.749089
28.113503 3.2325001 0.76600003
28.274546 3.2551174 0.74795562
28.339802 3.2240999 0.75024998
28.415716 3.2500002 0.74542862
28.868601 3.2081337 0.73199999
28.938513 3.2117419 0.75067735
29.040592 3.2102964 0.75422221
27.793264 3.3533335 0.77260017
27.842682 3.3542273 0.76204544
27.953749 3.3070831 0.73766673
28.033001 3.346643 0.74992865
28.266172 3.3460541 0.73794526
28.346655 3.3872757 0.73358619
28.432333 3.3756669 0.73622227
27.79245 3.4503498 0.76630002
27.840731 3.4498489 0.76612115
27.903999 3.4200001 0.75700003
28.089249 3.41925 0.75849998
28.126999 3.4570003 0.75716662
28.294001 3.411 0.71899998
28.3395 3.401 0.73249996
27.789602 3.5490501 0.75779998
27.829128 3.5505164 0.76506448
27.931538 3.5446925 0.74823076
28.041668 3.5213332 0.75033331
28.12443 3.560286 0.74828583
27.790821 3.6494706 0.74841172
27.825451 3.6580963 0.75677413
27.932064 3.6520622 0.74037504
27.791424 3.7487893 0.74415797
27.829903 3.7531335 0.75120002
27.961063 3.7626247 0.73243755
27.787638 3.8493636 0.74050003
27.827583 3.8477745 0.74316126
27.9545 3.803 0.73100001
27.784706 3.9502084 0.7380833
27.852539 3.9502082 0.73420835
27.781796 4.054069 0.72941387
27.780285 4.1512003 0.72568572
27.782917 4.2130003 0.71516669
28.966366 3.0627894 0.83263177
28.955318 3.1483142 0.8360368
29.007101 3.1422999 0.88479996
27.944777 3.2321203 0.84951997
28.048 3.2316051 0.85268432
28.146772 3.2410574 0.85817122
28.269835 3.2543488 0.85483342
28.342684 3.2266316 0.85052633
28.424717 3.2575715 0.84600002
28.966717 3.213429 0.82035714
29.03809 3.2168181 0.82436365
27.863001 3.349 0.80799997
27.96911 3.3082223 0.84488887
28.054544 3.3058286 0.85897142
28.126364 3.3063641 0.86554557
28.269844 3.3570378 0.86137736
28.347614 3.3906155 0.8636924
28.404333 3.3903332 0.86833334
28.299 3.4159999 0.87099999
28.353333 3.4023333 0.86300004
27.970261 3.2459033 0.93106443
28.039927 3.233191 0.95354766
28.145363 3.2244167 0.94930565
28.254017 3.2445743 0.94295776
28.340546 3.2266364 0.95090902
28.419857 3.254143 0.94599998
27.976002 3.3483334 0.99183339
28.062384 3.3214614 0.94130766
28.150396 3.3101158 0.95065123
28.255939 3.3478837 0.9520117
28.341354 3.3884499 0.94594997
28.410122 3.391 0.95037502
27.977278 3.4519441 0.98911107
28.038599 3.4448001 0.98289996
28.157249 3.4775 0.9835
28.349857 3.4045718 0.95771432
27.981823 3.5537503 0.9848929
28.053778 3.5447779 0.97577775
27.981064 3.6524832 0.97780651
28.031 3.6316001 0.97299999
27.986 3.2758336 1.0091667
28.060682 3.2491994 1.0358285
28.146101 3.2326252 1.05275
28.254635 3.2259445 1.0473334
28.337055 3.2226841 1.0526316
28.41857 3.2535717 1.0461429
28.655001 3.2920001 1.096
29.093 3.211 1.008
27.97875 3.3417499 1.009125
28.030836 3.3488336 1.0215
28.1425 3.3225 1.0764999
28.263004 3.352185 1.0747894
28.350248 3.394917 1.0735834
28.515999 3.3395 1.0985
29.0305 3.3790002 1.0825
27.987251 3.4579999 1.00625
28.039251 3.4602499 1.014375
28.273289 3.4572146 1.0875
28.352201 3.4456003 1.0852001
27.985003 3.5415714 1.0028572
28.045599 3.5666001 1.008
28.162445 3.2495558 1.1419168
28.252316 3.228317 1.1470975
28.333055 3.2188888 1.1523334
28.457342 3.2548275 1.1531725
28.548904 3.2505481 1.151774
28.644817 3.2499702 1.1483942
28.7488 3.2449331 1.1522334
28.851721 3.23808 1.1581998
28.951908 3.2372501 1.1568124
29.044653 3.2340002 1.1546764
28.167751 3.3225 1.1224999
28.261461 3.3621995 1.1411999
28.299999 3.3859999 1.143
28.656668 3.3233335 1.1148334
28.762167 3.3321667 1.1251667
28.844337 3.3503335 1.1345556
28.950199 3.3547997 1.1425
29.039301 3.3642998 1.1357001
29.146252 3.34725 1.1719999
28.269079 3.4521797 1.1495371
28.304001 3.4264998 1.1340001
28.444111 3.1871111 1.263
28.53857 3.1905715 1.2774285
28.66 3.1877141 1.2597144
28.755003 3.186125 1.266
28.849201 3.1878002 1.2719001
28.947088 3.1882501 1.2745835
28.195 3.29 1.201
28.25275 3.2460005 1.2455578
28.332001 3.2185836 1.2532918
28.444521 3.2395928 1.2459631
28.552965 3.2375004 1.2366924
28.645994 3.2247396 1.2442176
28.74962 3.2273338 1.2350475
28.844767 3.2236471 1.2317647
28.944538 3.2252147 1.2351071
29.05147 3.2215309 1.2313437
28.26495 3.3572433 1.247865
28.329666 3.3673332 1.2520001
28.269896 3.4497647 1.2339708
28.304998 3.4788003 1.2566
28.295 3.198 1.352
28.307669 3.1880002 1.3466667
28.263594 3.2517145 1.3506073
28.343891 3.2212596 1.3499259
28.427668 3.2428887 1.3488889
28.549999 3.23 1.302
28.827 3.24 1.301
28.966 3.2579999 1.306
29.048201 3.2346001 1.307
28.263128 3.3321025 1.3574872
28.355221 3.3705554 1.3474445
28.403999 3.388 1.3049999
28.386 3.4100001 1.33
28.307499 3.1855001 1.4614999
28.26161 3.2515862 1.4488273
28.34054 3.2242506 1.4533572
28.429558 3.2471111 1.4483334
28.262615 3.3429224 1.4542223
28.346403 3.3556001 1.4679999
28.293333 3.1923332 1.5396667
28.303501 3.1845 1.5235
28.260111 3.2536476 1.5489435
28.339571 3.2192001 1.5498666
28.428997 3.2385457 1.5581818
28.265272 3.3459587 1.5514126
28.340933 3.3806667 1.5580002
28.4235 3.3775001 1.556
28.291 3.1984999 1.62
28.323 3.1624999 1.687
28.262524 3.2520208 1.649245
28.345703 3.2169626 1.646889
28.431768 3.237077 1.6539999
28.261654 3.3473253 1.6491116
28.343176 3.377794 1.6510882
28.420599 3.3584001 1.6536
28.299 3.197 1.716
28.315666 3.1703334 1.744
27.935032 3.2628529 1.7658825
28.261646 3.2541339 1.7479784
28.341516 3.217186 1.7495927
28.428459 3.237308 1.7523078
27.940001 3.3065 1.7460001
28.265612 3.3448164 1.750023
28.341032 3.3780861 1.7471712
28.436001 3.3570001 1.7520001
28.307751 3.181 1.8472501
27.88825 3.2709999 1.8105834
27.950623 3.267091 1.8471943
28.033695 3.268743 1.8658972
28.126999 3.2633333 1.8890002
28.262577 3.2517469 1.8487355
28.344 3.22069 1.8505516
28.4384 3.2442002 1.8502001
27.943335 3.3013334 1.8376665
28.018 3.303 1.886
28.265526 3.3444777 1.8499995
28.347469 3.3800297 1.8473532
28.4305 3.3815 1.8785
28.310001 3.1845 1.9560001
27.982168 3.2646666 1.9076666
28.05179 3.2668591 1.9435775
28.13076 3.2643635 1.9653027
28.261047 3.2544885 1.9516127
28.348131 3.2232337 1.9508004
28.430876 3.2435 1.9405
28.052999 3.304111 1.948889
28.134001 3.3027501 1.97825
28.267611 3.3441331 1.9489441
28.347281 3.381093 1.9456253
28.404669 3.3703334 1.9846667
28.087429 3.277143 2.0104287
28.150845 3.268085 2.0431864
28.249933 3.2519002 2.0433671
28.340366 3.220593 2.0517778
28.428366 3.2421818 2.0580001
28.166431 3.3029284 2.0492857
28.263313 3.344594 2.0512614
28.344559 3.3826177 2.0477648
28.4142 3.3748002 2.0458
28.188751 3.2754998 2.1057498
28.251617 3.2539845 2.152369
28.3419 3.2232997 2.1494002
28.437302 3.2455003 2.1428001
28.260693 3.3432958 2.1511326
28.342773 3.3853142 2.1475427
28.41325 3.378 2.1508751
28.296 3.1960001 2.296
28.322498 3.1764998 2.2865
28.259005 3.2577312 2.2483721
28.345802 3.2247415 2.2476451
28.42643 3.2444289 2.2407143
28.974001 3.2980001 2.2509999
29.067402 3.2956002 2.2422001
29.155569 3.2865002 2.2392144
29.255932 3.2810669 2.2456002
29.425777 3.2578888 2.2446666
28.262733 3.346055 2.251945
28.345835 3.3878331 2.2437222
28.453636 3.3778186 2.2367272
28.557636 3.3757603 2.2426398
28.649614 3.3635278 2.2432225
28.748375 3.3522701 2.2412705
28.848497 3.3448415 2.2400525
28.949879 3.3313415 2.240732
29.052094 3.3225756 2.2426968
29.148216 3.3169291 2.2410717
29.2456 3.3174 2.2376001
29.35 3.3144999 2.2255001
29.418999 3.3055 2.253
28.282249 3.4094167 2.2426667
28.345997 3.4115999 2.24405
28.440834 3.4053333 2.2458334
28.504999 3.4000001 2.2420001
28.695 3.402 2.2290001
28.292999 3.1989999 2.3080001
28.375 3.198 2.3039999
28.258183 3.2553976 2.3496501
28.346174 3.2251179 2.3469117
28.417334 3.2383335 2.3559999
28.261696 3.3509493 2.3498213
28.350004 3.389257 2.3496857
28.410999 3.3889999 2.3659999
28.306999 3.1960001 2.4590001
29.417 3.178 2.404
28.259079 3.2587795 2.4489882
28.345446 3.2287774 2.4504819
28.429287 3.248143 2.446286
29.361652 3.2454157 2.4569609
29.41379 3.2577856 2.4331431
28.258179 3.3460255 2.4449232
28.350779 3.3926113 2.4340556
28.404999 3.3766668 2.4466667
29.368177 3.3168824 2.4798236
29.419203 3.3284001 2.4731998
28.278667 3.402 2.4213333
28.305 3.402 2.411
29.368725 3.149334 2.5493202
29.408337 3.1199999 2.5770001
28.259771 3.2560544 2.541554
28.343874 3.2309065 2.5466256
28.445 3.2608333 2.5513334
29.358112 3.2460637 2.5457625
28.25828 3.3438001 2.5564251
28.345671 3.3935833 2.5746667
29.351366 3.3407223 2.5563333
29.415001 3.3600001 2.5219998
28.279001 3.4035001 2.57025
29.354277 3.4212277 2.5817728
29.407 3.428 2.5755
29.367058 3.0480578 2.6430717
29.403999 3.0480001 2.6500001
29.372519 3.1452997 2.6473749
28.254982 3.2622883 2.6555388
28.340998 3.235059 2.647382
28.446251 3.2655001 2.6377501
29.371916 3.2513397 2.6571398
29.408001 3.2149999 2.6429999
28.253941 3.3532171 2.6505742
28.352039 3.3930769 2.6476154
29.352427 3.3504379 2.6526749
28.277399 3.4035003 2.6391001
28.328287 3.4101431 2.6600003
29.335514 3.4498334 2.6481104
29.407749 3.4832501 2.63325
29.349876 3.5137503 2.6768749
29.41 3.5420001 2.6860001
27.377001 4.112 2.6889999
29.377218 2.7591689 2.7571695
29.441162 2.7344594 2.7346492
29.368809 2.8497195 2.7491574
29.416668 2.830667 2.7546668
29.364914 2.9342284 2.7288287
29.374548 3.0524468 2.756532
29.408001 3.1285 2.7260001
28.258169 3.264106 2.7489853
28.336704 3.2391109 2.7515552
28.415001 3.2563338 2.7446668
29.36956 3.2387099 2.7482259
29.42218 3.2688186 2.7631817
28.249521 3.3499355 2.7498925
28.353064 3.395937 2.7425623
29.366407 3.3598704 2.7421663
29.434221 3.3354445 2.7677777
28.271065 3.4056253 2.7465
28.326145 3.4027145 2.7572143
29.344944 3.4498763 2.7496986
29.340683 3.5421877 2.756125
29.407 3.5910001 2.734
29.3535 3.6100001 2.7774999
29.417999 3.641 2.7839999
29.389 2.5875001 2.8882501
29.447374 2.586375 2.8893747
29.382215 2.6584563 2.8561301
29.443081 2.637897 2.8380001
29.372093 2.7500629 2.8432965
29.384001 2.9119999 2.8080001
29.367697 3.0558619 2.850877
28.309999 3.197 2.855
29.364647 3.1484716 2.8506436
28.252497 3.2644062 2.8490431
28.344376 3.2449167 2.8492916
28.433001 3.2709999 2.806
29.366892 3.2357817 2.8513269
29.450893 3.2659998 2.8517146
28.246189 3.3490419 2.8486423
28.372889 3.3953335 2.8305557
29.3776 3.385 2.8130002
29.414335 3.3713336 2.8406668
28.26582 3.4084821 2.8487778
28.333502 3.4054999 2.8540452
29.360468 3.4562862 2.8407145
29.426001 3.4489999 2.852
29.347973 3.5513785 2.8498919
29.336685 3.6440718 2.8560357
29.35675 3.72175 2.8824999
29.3925 2.487 2.994
29.43325 2.4944999 2.99
29.381428 2.5582752 2.9559751
29.445621 2.5415711 2.9472144
29.375889 2.6495848 2.9487925
29.407 2.6577499 2.9337499
29.372486 2.7368486 2.9398489
29.418501 2.7492502 2.9749999
29.416 2.822 2.9289999
29.399 2.9990001 2.9059999
29.369467 3.053273 2.949156
29.45232 3.0309029 2.9528065
29.362095 3.1467438 2.9490349
28.251013 3.262938 2.9479065
28.334852 3.2482502 2.9498501
28.407333 3.2686667 2.9481666
29.364349 3.2392533 2.9503877
29.444714 3.2725723 2.9507146
28.244919 3.3482003 2.9480422
28.386999 3.3989999 2.9705
28.435602 3.3785999 2.9563999
28.267431 3.4090712 2.9455359
28.338556 3.4068274 2.948586
28.4 3.404 2.98
29.377499 3.4909999 2.9089999
29.360905 3.5666564 2.9421248
29.439001 3.5457499 2.9545002
29.344696 3.6569169 2.9491665
29.339828 3.7573166 2.9487312
29.292334 3.8373332 2.9813335
29.338852 3.8286297 2.9739633
0 0 0 1 0 0 0 1 0 0 0 1 0 0 0 0 0 602 1 0 0
