ply
format ascii 1.0
comment PCL generated
element vertex 588
property float x
property float y
property float z
element camera 1
property float view_px
property float view_py
property float view_pz
property float x_axisx
property float x_axisy
property float x_axisz
property float y_axisx
property float y_axisy
property float y_axisz
property float z_axisx
property float z_axisy
property float z_axisz
property float focal
property float scalex
property float scaley
property float centerx
property float centery
property int viewportx
property int viewporty
property float k1
property float k2
end_header
-2.7520282 10.555602 0.049152382
-2.6489217 10.548738 0.04940198
-2.5705435 10.565875 0.048340596
-2.0272093 10.548742 0.067064516
-1.950745 10.537918 0.050453912
-1.8454769 10.545113 0.056923077
-1.7737441 10.559537 0.030256005
-3.3360004 10.648859 0.039589755
-3.2692857 10.65906 0.064499997
-2.7835333 10.648601 0.043366663
-2.5637369 10.649149 0.051026884
-2.0300488 10.659099 0.065560974
-1.9521214 10.677317 0.046939023
-1.839007 10.663125 0.060845599
-1.7722632 10.638587 0.032644071
-3.4458547 10.770645 0.048604172
-3.338167 10.758944 0.03688889
-3.2739568 10.731043 0.063115947
-2.8010001 10.724 0.003
-2.7524922 10.740911 0.047238812
-2.652123 10.742693 0.045276925
-2.5674069 10.727196 0.049530976
-2.02 10.702 0.074000001
-2.802 10.563 0.185
-2.7534952 10.557921 0.14868467
-2.6496377 10.551733 0.1510098
-2.5703404 10.567392 0.14852896
-2.1204667 10.550133 0.17164443
-2.0495465 10.542912 0.15223843
-1.9454547 10.544991 0.15598723
-1.8678055 10.558998 0.13702777
-3.4201875 10.652437 0.12956251
-3.3495085 10.638762 0.14635594
-3.2394423 10.645046 0.13725224
-3.1805437 10.65094 0.17436767
-2.7825358 10.646894 0.14939287
-2.5667942 10.647938 0.15014865
-2.1253548 10.658905 0.17387098
-2.0530345 10.67362 0.14662069
-1.9403059 10.668927 0.16060187
-1.8673315 10.643475 0.1376276
-3.4263074 10.742155 0.13284616
-3.3517778 10.765777 0.14464818
-3.2369101 10.73952 0.14091
-3.1824477 10.721842 0.17718421
-2.7479861 10.742391 0.1518406
-2.6479397 10.74315 0.14778787
-2.564008 10.726898 0.14939843
-2.0869999 10.704 0.15099999
-2.8010001 10.562 0.214
-2.7475297 10.558149 0.24844
-2.6485598 10.553464 0.24989252
-2.5695221 10.568731 0.2495572
-2.2153635 10.550591 0.27968183
-2.1489999 10.545571 0.24982755
-2.0447001 10.544286 0.2542786
-1.9629748 10.560324 0.2400962
-3.5476665 10.666334 0.20666668
-3.4395554 10.651667 0.22711113
-3.336103 10.641975 0.23992309
-3.2523386 10.623323 0.24701697
-3.1402833 10.641906 0.24406922
-3.0878994 10.648751 0.28445002
-2.7811742 10.641219 0.25047827
-2.5648825 10.650739 0.24973033
-2.2200835 10.655375 0.28108335
-2.1516707 10.675741 0.24990585
-2.046062 10.682791 0.25311112
-1.9611957 10.645441 0.24434634
-3.3237915 10.751586 0.23241666
-3.249125 10.753439 0.25406247
-3.1480775 10.729235 0.24813333
-3.092875 10.711249 0.28549999
-2.8299999 10.735 0.29499999
-2.758893 10.742973 0.25142673
-2.6521819 10.745317 0.25037879
-2.5654123 10.730475 0.25083199
-3.1400001 10.5976 0.36740002
-3.0697777 10.596444 0.37266669
-2.813 10.588 0.389
-2.7437527 10.562044 0.34907869
-2.6506383 10.558818 0.34827659
-2.5696292 10.571137 0.34985343
-2.3198001 10.556999 0.3858
-2.2453213 10.547496 0.35359627
-2.1502426 10.548041 0.34761372
-2.0546236 10.561669 0.34290579
-3.2396045 10.631104 0.3405
-3.1527417 10.610536 0.34825864
-3.0481391 10.643298 0.34931663
-2.9853001 10.6279 0.38750002
-2.7798891 10.663556 0.33577779
-2.5618398 10.65031 0.34895739
-2.3197272 10.673729 0.38200003
-2.2437997 10.683358 0.35108566
-2.1439598 10.688852 0.35244
-2.0526693 10.646932 0.34565932
-1.9895 10.627501 0.30500001
-3.2327776 10.742223 0.33733335
-3.1495626 10.74077 0.34799999
-3.0661645 10.720613 0.35380816
-2.8110003 10.733667 0.36699998
-2.7531908 10.742065 0.34896821
-2.6481364 10.747787 0.34922731
-2.5635002 10.730975 0.35000807
-2.28 10.7045 0.36149999
-2.1229999 10.7 0.36000001
-2.8327858 10.455715 0.44242859
-3.1278999 10.5971 0.45060006
-3.0525386 10.593076 0.44933334
-2.9680479 10.591332 0.47514281
-2.8385336 10.554867 0.44066674
-2.7448139 10.562027 0.44572851
-2.6523438 10.564444 0.44796976
-2.5693033 10.572235 0.44957146
-2.4264998 10.57475 0.49075001
-2.3402796 10.552522 0.45663998
-2.2503641 10.550039 0.45028043
-2.1517315 10.560474 0.44569719
-2.0945001 10.569889 0.40794444
-3.2106004 10.6322 0.40959999
-3.1538293 10.618049 0.43936577
-3.0321999 10.62348 0.42216003
-2.9599011 10.648747 0.44895497
-2.8743751 10.611751 0.45525002
-2.5644307 10.650126 0.44943094
-2.4528003 10.6344 0.4804
-2.3414795 10.6843 0.45257992
-2.2496982 10.690754 0.45104113
-2.1474652 10.652141 0.45031238
-2.0925882 10.63347 0.40582353
-3.1397898 10.732631 0.44086838
-3.0446074 10.725163 0.44335717
-2.9797864 10.713894 0.46410713
-2.8135557 10.728001 0.45155558
-2.7377141 10.75288 0.44450003
-2.6517246 10.751246 0.45044935
-2.5709383 10.727444 0.44483945
-2.484 10.718 0.47499999
-2.3226666 10.709667 0.43566668
-2.2190001 10.703 0.49000001
-2.1389999 10.70125 0.41624999
-3.1166666 10.593334 0.523
-3.0492599 10.589858 0.54393995
-2.9460623 10.583781 0.54767191
-2.8657095 10.585581 0.57435483
-2.744869 10.563608 0.54934418
-2.6481006 10.562479 0.5454666
-2.5687227 10.573589 0.54986733
-2.4368095 10.557938 0.55976188
-2.3483272 10.554224 0.55197531
-2.2452285 10.56347 0.54999292
-2.1879032 10.567515 0.51522577
-3.1210001 10.6422 0.514
-3.0798185 10.637362 0.55500001
-2.9164445 10.653667 0.51366669
-2.8793197 10.627001 0.53959996
-2.5612698 10.645968 0.54205543
-2.4359705 10.687324 0.55676472
-2.3513768 10.69272 0.5494591
-2.2442856 10.656213 0.55280131
-2.1888237 10.639619 0.51308823
-3.1184998 10.7135 0.51224995
-3.0452304 10.724975 0.54241031
-2.9544284 10.71625 0.55146432
-2.8485553 10.721278 0.5677222
-2.7351146 10.754372 0.54711425
-2.6462901 10.75505 0.55083871
-2.5708637 10.735637 0.54510599
-2.3327501 10.702999 0.55862498
-2.26475 10.702 0.54775006
-3.0169287 10.584357 0.62378573
-2.949934 10.578572 0.65093416
-2.8515465 10.574582 0.64931256
-2.7446177 10.566882 0.6503675
-2.6476004 10.565242 0.65039992
-2.5495601 10.562678 0.64664
-2.4489903 10.55648 0.64966375
-2.3473468 10.563835 0.65185416
-2.2822199 10.573731 0.61770737
-3.0280001 10.641901 0.62940007
-2.9909999 10.658167 0.67916667
-2.5511918 10.680539 0.64344239
-2.4518504 10.694724 0.63959998
-2.3387842 10.660161 0.6603539
-2.2836666 10.636785 0.61982358
-3.0254998 10.711 0.61625004
-2.946574 10.713916 0.64746821
-2.8655241 10.718048 0.65157139
-2.7438838 10.757836 0.64813954
-2.644125 10.759645 0.65075004
-2.5723784 10.734695 0.6487425
-2.4376001 10.702668 0.66526675
-2.3629413 10.702234 0.63699991
-2.9276669 10.576999 0.74000001
-2.8513389 10.567661 0.74957633
-2.7501028 10.56696 0.75053853
-2.652209 10.567864 0.74629861
-2.5456297 10.558075 0.75171596
-2.4461002 10.566513 0.7493462
-2.3788753 10.576103 0.72431254
-2.9343002 10.648749 0.74465001
-2.8886666 10.664333 0.78866667
-2.5467646 10.695235 0.73917645
-2.4281621 10.65771 0.7637068
-2.376096 10.640851 0.72531509
-2.9264998 10.709 0.71500003
-2.8683333 10.715335 0.72516668
-2.7508273 10.764086 0.75401735
-2.6483154 10.762706 0.74744421
-2.5599887 10.730922 0.74992043
-2.4618697 10.70387 0.74443477
-2.7374001 10.495201 0.85079998
-2.8426921 10.567256 0.8363077
-2.744674 10.54624 0.8466143
-2.6510751 10.557687 0.85201246
-2.5472522 10.563971 0.85233974
-2.4732203 10.57627 0.82781345
-2.8533912 10.644217 0.85008687
-2.799 10.699 0.85600001
-2.5195928 10.657744 0.87583065
-2.4720893 10.644257 0.83026981
-2.7516186 10.766928 0.84820592
-2.6469998 10.765451 0.84743398
-2.5581217 10.738294 0.85235769
-2.4909999 10.705334 0.80766666
-2.8038001 10.5746 0.91720003
-2.7444139 10.556702 0.94668567
-2.6523619 10.561542 0.95000964
-2.5646627 10.579221 0.94432455
-2.8076253 10.6355 0.91812497
-2.7876396 10.654001 0.95720005
-2.5560353 10.64923 0.95241398
-2.8010001 10.761 0.96399999
-2.7600276 10.763324 0.94989192
-2.652596 10.771001 0.94973093
-2.5617585 10.741982 0.95094442
-2.7490001 10.803 0.92799997
-2.7530751 10.581226 1.0527924
-2.6518123 10.571667 1.044021
-2.5691082 10.584607 1.0490267
-2.8045001 10.6395 1.0415
-2.7844 10.648515 1.0560002
-2.6186001 10.6446 1.0588001
-2.5607104 10.648653 1.0494453
-2.5611935 10.743953 1.0511692
-2.8010001 10.596 1.128
-2.7525234 10.589534 1.1496772
-2.6480138 10.582902 1.1492251
-2.571774 10.584498 1.1500969
-2.8039999 10.613334 1.1793334
-2.7819402 10.644341 1.1535797
-2.6405714 10.618143 1.128143
-2.5638967 10.648309 1.1498398
-2.7487502 10.592035 1.2488571
-2.6488798 10.58676 1.2496667
-2.5741627 10.58693 1.2462556
-2.8054998 10.613501 1.2755001
-2.7780001 10.637742 1.2453405
-2.6530004 10.609667 1.2538335
-2.5640116 10.646795 1.2496924
-2.7456324 10.592468 1.3457959
-2.6503763 10.590026 1.3501737
-2.5735004 10.588886 1.3467275
-2.8015001 10.637501 1.306
-2.7724943 10.633724 1.3498353
-2.6500766 10.608 1.357154
-2.564899 10.646947 1.3502641
-2.7331903 10.596286 1.4436668
-2.6445324 10.59313 1.4504353
-2.5769429 10.593113 1.451457
-2.8069999 10.6335 1.4335001
-2.7659516 10.627168 1.454641
-2.6554546 10.608 1.4601817
-2.5645959 10.647748 1.4498123
-2.74175 10.597625 1.53725
-2.6509128 10.595129 1.5516303
-2.5814409 10.595263 1.5483823
-2.8025 10.6355 1.5865
-2.7613811 10.627114 1.5526859
-2.651659 10.609911 1.5530002
-2.5621479 10.647668 1.5509377
-2.8010001 10.708 1.5089999
-2.7564828 10.768943 1.5501497
-2.5570171 10.748061 1.5497351
-2.7145 10.599 1.6125
-2.639483 10.59562 1.6425862
-2.5750623 10.594092 1.6530938
-2.7645614 10.629903 1.6521062
-2.65783 10.607442 1.6543727
-2.5623016 10.646312 1.6486984
-2.7585368 10.768328 1.6491339
-2.6453848 10.789324 1.6502616
-2.5562034 10.751264 1.6501751
-2.744 10.810374 1.6594999
-2.6605 10.8055 1.6515
-2.5834999 10.814751 1.64125
-2.704 10.597 1.75
-2.62585 10.597198 1.7422501
-2.5721304 10.595566 1.7405216
-2.8045001 10.629 1.742
-2.7590799 10.630892 1.7513328
-2.6539714 10.608912 1.7527428
-2.5640929 10.645307 1.7505714
-2.8010001 10.711 1.745
-2.7673519 10.760851 1.7436112
-2.6435001 10.794067 1.7464565
-2.5554769 10.753275 1.7501577
-2.744432 10.805545 1.7557501
-2.6677501 10.8042 1.76515
-2.5776668 10.803667 1.7309999
-2.6461668 10.597667 1.8393334
-2.5721431 10.596857 1.8257142
-2.8146 10.6336 1.8656
-2.755693 10.631484 1.8482457
-2.6522429 10.612297 1.8533928
-2.562381 10.643982 1.8507938
-2.7704184 10.752708 1.8467636
-2.6409147 10.795516 1.8461716
-2.5515389 10.752655 1.8483877
-2.7434483 10.80962 1.8528278
-2.650423 10.803348 1.8560771
-2.5668001 10.802201 1.8542999
-2.6155 10.596334 1.9395001
-2.5646 10.5978 1.948
-2.8010001 10.634 1.9649999
-2.759037 10.637813 1.9489095
-2.650193 10.61626 1.95
-2.5637624 10.643061 1.9505672
-2.7664812 10.754558 1.9506348
-2.6306667 10.796402 1.9498003
-2.5516608 10.755519 1.9494418
-2.7406409 10.817535 1.9497912
-2.6513753 10.803248 1.9486874
-2.5523334 10.802334 1.965
-2.740773 10.582409 2.0804543
-2.6767147 10.584356 2.0797145
-2.5745001 10.5975 2.049
-2.8109999 10.658 2.0929999
-2.7599659 10.636884 2.0449743
-2.6480181 10.616597 2.0455983
-2.5629895 10.644902 2.0485957
-2.8034 10.721801 2.062
-2.7761741 10.75724 2.047435
-2.6417499 10.79775 2.0174999
-2.5498023 10.755843 2.0503414
-2.738755 10.819717 2.0504909
-2.6523156 10.806912 2.0488067
-2.5762501 10.803 2.0543334
-2.8065002 10.469833 2.1933334
-2.7516875 10.478703 2.1785309
-2.6851053 10.477131 2.1798944
-2.8075361 10.554752 2.1695001
-2.749948 10.537312 2.1334105
-2.6713848 10.547115 2.149102
-2.5900002 10.5925 2.1604998
-2.8053637 10.635182 2.1549094
-2.7893782 10.656461 2.1491618
-2.6401036 10.617922 2.1504025
-2.5637138 10.647013 2.1479132
-2.8046665 10.73 2.1486669
-2.7681777 10.755244 2.1508446
-2.6308751 10.797625 2.144125
-2.5494633 10.752768 2.1487973
-2.7354515 10.821404 2.1489031
-2.6501927 10.808002 2.1491344
-2.5725241 10.808858 2.1571906
-2.8158462 10.379193 2.2776539
-2.7484176 10.378462 2.279254
-2.6897502 10.378224 2.276475
-2.8175642 10.444049 2.2491128
-2.7497292 10.433756 2.2301261
-2.6833978 10.450622 2.2505889
-2.8147109 10.547556 2.2471113
-2.7536249 10.559501 2.2463751
-2.6750913 10.536404 2.2444344
-2.5939999 10.593834 2.2279999
-2.8075998 10.619501 2.2375
-2.7697175 10.657845 2.2546663
-2.6489291 10.623728 2.2498114
-2.5629022 10.647661 2.2500815
-2.8280001 10.795 2.2460001
-2.7720888 10.750244 2.2485116
-2.6185002 10.79625 2.2302501
-2.5493593 10.753869 2.2478418
-2.8095 10.8085 2.273
-2.7387149 10.820857 2.2508216
-2.652564 10.808092 2.2495086
-2.5711906 10.804906 2.2578573
-2.8219409 10.276765 2.3798237
-2.7381461 10.274225 2.3757529
-2.6968002 10.278666 2.3745334
-2.9059999 10.388 2.3469999
-2.8283336 10.340439 2.3441432
-2.7416937 10.334641 2.3370302
-2.6923919 10.353609 2.3512499
-2.82406 10.448518 2.3457601
-2.7197142 10.463857 2.3694761
-2.6879158 10.442657 2.3454006
-2.816474 10.533948 2.3259478
-2.732125 10.536939 2.3466876
-2.6888001 10.521367 2.3264334
-2.802 10.649 2.3929999
-2.7545383 10.64882 2.3545125
-2.6519203 10.628886 2.3485227
-2.5630219 10.649735 2.3492785
-2.8080003 10.731501 2.3601501
-2.7758107 10.761352 2.3386486
-2.6034999 10.799 2.329
-2.545707 10.7541 2.3490815
-2.8239999 10.8025 2.335
-2.7363398 10.823322 2.347554
-2.6530902 10.811893 2.3501816
-2.5742371 10.807158 2.352263
-2.8279095 10.172933 2.4794545
-2.7492137 10.17603 2.4779778
-2.697 10.181 2.474
-2.8342063 10.239077 2.4414456
-2.7300279 10.240362 2.4417007
-2.6970801 10.26552 2.4438398
-2.8374121 10.350725 2.4485683
-2.7114532 10.345198 2.4555929
-2.6940002 10.352779 2.4439452
-2.8246553 10.430863 2.4332411
-2.724972 10.432972 2.4346287
-2.6919165 10.417417 2.4184165
-2.74 10.5525 2.4335001
-2.648 10.556 2.46
-2.586 10.599 2.4619999
-2.8093333 10.666 2.4320002
-2.7520213 10.650031 2.4512844
-2.6525342 10.631317 2.4491594
-2.5622048 10.64931 2.4486129
-2.806087 10.74974 2.443826
-2.7903869 10.751742 2.4571614
-2.5444493 10.752865 2.4473329
-2.8156669 10.812332 2.4676669
-2.7479694 10.82358 2.4547727
-2.646857 10.814001 2.4485178
-2.5664873 10.805923 2.4568977
-2.8361964 10.072998 2.575901
-2.7531312 10.076951 2.5751319
-2.841913 10.136839 2.54037
-2.7354298 10.146526 2.544373
-2.934 10.226 2.5190001
-2.8429255 10.247575 2.550056
-2.7173972 10.248071 2.5479662
-2.6973333 10.273167 2.5391667
-2.8393931 10.330072 2.5309286
-2.7200511 10.329231 2.5302818
-2.6971819 10.317182 2.5236363
-2.7064998 10.5955 2.5787499
-2.6664762 10.590118 2.563452
-2.803 10.671 2.5150001
-2.7521772 10.651606 2.5504065
-2.6478124 10.62521 2.5455
-2.561516 10.651383 2.5484574
-2.8105712 10.761572 2.5677142
-2.7895794 10.744578 2.5518162
-2.5430775 10.7494 2.5487411
-2.8271179 10.836942 2.5421178
-2.7575319 10.855515 2.5511897
-2.6629658 10.837943 2.5539658
-2.5687444 10.808019 2.5489786
-2.7315001 10.9055 2.598
-2.6589999 10.902 2.592
-2.8400834 9.9726677 2.674655
-2.758131 9.9763327 2.6740119
-2.9134998 10.023001 2.6659999
-2.8485985 10.036487 2.6364288
-2.743247 10.045546 2.6427627
-2.7 10.059 2.6040001
-2.8566041 10.14846 2.6531873
-2.7305527 10.146832 2.6464267
-2.8423684 10.226422 2.631737
-2.7378721 10.231681 2.6293831
-2.7251759 10.587214 2.6542158
-2.6593976 10.587453 2.6481135
-2.5906003 10.590734 2.6791332
-2.8066669 10.674999 2.6456668
-2.7614365 10.649338 2.6465917
-2.6269403 10.615099 2.6332195
-2.5626912 10.646069 2.649348
-2.8104999 10.755249 2.6475
-2.7849765 10.749513 2.651659
-2.5402763 10.750205 2.6490951
-2.8421431 10.869859 2.6211429
-2.7798047 10.850314 2.6435852
-2.6538808 10.850486 2.6502972
-2.5689428 10.810801 2.6465144
-2.8176253 10.909624 2.6577499
-2.7529867 10.922791 2.6569607
-2.667793 10.922656 2.6645525
-2.9355001 9.882 2.7845001
-2.8480332 9.8712511 2.7728677
-2.7728853 9.8773928 2.7759664
-2.855257 9.9330797 2.7367103
-2.7540472 9.9479399 2.7466521
-2.9070001 10.012 2.7360001
-2.8688598 10.045739 2.7530603
-2.7451417 10.046929 2.7452826
-2.8511906 10.129286 2.727953
-2.756489 10.132443 2.7324224
-2.7727499 10.22075 2.70825
-2.812 10.59125 2.7827501
-2.7446516 10.585223 2.7458138
-2.6526706 10.584097 2.7430487
-2.5642524 10.581857 2.7578568
-2.8118401 10.642601 2.7783597
-2.7775311 10.637369 2.7377145
-2.6452 10.6073 2.7397001
-2.5366681 10.646582 2.7467959
-2.4950001 10.637714 2.7908571
-2.8085003 10.728334 2.7735002
-2.7795365 10.748196 2.7457073
-2.5388682 10.749987 2.7472978
-2.7803569 10.844665 2.7494049
-2.6420896 10.851392 2.7494378
-2.5616395 10.81348 2.7498796
-2.9217999 9.766901 2.8822
-2.8516574 9.7702436 2.8693514
-2.7791541 9.7759428 2.8742115
-2.912333 9.8287621 2.8440001
-2.855499 9.8344364 2.8286419
-2.7660236 9.8480082 2.8467329
-2.9039998 9.9337502 2.85025
-2.8776462 9.9504175 2.8484583
-2.7597702 9.9444847 2.8427777
-2.8542695 10.028039 2.8298461
-2.7735927 10.033444 2.8330743
-2.8219171 10.595083 2.8507085
-2.7475421 10.589301 2.8500242
-2.6643634 10.588885 2.8401592
-2.5409606 10.584598 2.8487754
-2.4851482 10.58574 2.868222
-2.8402171 10.634119 2.8487976
-2.7620003 10.605934 2.8411999
-2.6548862 10.616544 2.8550231
-2.5218532 10.637926 2.826488
-2.4767499 10.643707 2.8554289
-2.8307915 10.727877 2.8447082
-2.778353 10.767412 2.8347647
-2.6880002 10.702667 2.8753333
-2.5326738 10.747485 2.8474269
-2.4840004 10.708231 2.8656158
-2.7765756 10.841182 2.8481209
-2.6355922 10.85605 2.8484943
-2.5624149 10.816398 2.8534532
-2.8461998 10.984801 2.8288
-2.7747943 10.946824 2.8434706
-2.878 9.592 2.9979999
-2.9118419 9.6753159 2.9656842
-2.8518245 9.6670008 2.9706631
-2.7839999 9.6774292 2.9728339
-2.9131668 9.7462502 2.9490001
-2.8466823 9.7255535 2.9242585
-2.7780437 9.7509022 2.9484313
-2.9111004 9.8336992 2.9537001
-2.8684287 9.8548222 2.9520714
-2.7729526 9.8447847 2.9411776
-2.9030001 9.9020004 2.905
-2.8505001 9.9383993 2.9277501
-2.7857082 9.9288349 2.9239166
-2.8470001 10.037 2.9264998
-2.8264842 10.595803 2.9499354
-2.7532506 10.589818 2.9452169
-2.6745999 10.589601 2.9078002
-2.5366664 10.585456 2.9482985
-2.4543335 10.583065 2.9540763
-2.3989999 10.599 2.9979999
-2.9200323 10.641032 2.9677739
-2.8632591 10.617774 2.941242
-2.741684 10.621658 2.9599211
-2.6502876 10.623931 2.9525614
-2.5677309 10.612924 2.9601157
-2.435544 10.644495 2.9481783
-2.3929002 10.6413 2.9909999
-2.9176252 10.72625 2.9741249
-2.8744545 10.738 2.9242728
-2.7541251 10.741499 2.9685001
-2.694 10.713 2.9489999
-2.5331106 10.756908 2.9466872
-2.4718838 10.714046 2.9545119
-2.7670767 10.846847 2.9500771
-2.6398263 10.847577 2.933769
-2.5729029 10.844482 2.9567273
-2.7616248 10.929375 2.9400003
-2.5806015 10.950222 2.961859
0 0 0 1 0 0 0 1 0 0 0 1 0 0 0 0 0 588 1 0 0
