ply
format ascii 1.0
comment PCL generated
element vertex 1847
property float x
property float y
property float z
element camera 0
property float view_px
property float view_py
property float view_pz
property float x_axisx
property float x_axisy
property float x_axisz
property float y_axisx
property float y_axisy
property float y_axisz
property float z_axisx
property float z_axisy
property float z_axisz
property float focal
property float scalex
property float scaley
property float centerx
property float centery
property int viewportx
property int viewporty
property float k1
property float k2
end_header
-27.65 3.408 1.232
-27.653999 3.408 1.21
-27.665001 3.408 1.188
-27.667999 3.408 1.166
-27.657 3.405 1.143
-27.677 3.4059999 1.1
-27.658001 3.401 1.076
-27.700001 3.4070001 1.057
-28.851999 3.6059999 1.141
-28.865 3.6059999 1.0930001
-28.393999 3.2249999 2.9679999
-28.365999 3.22 2.9360001
-28.35 3.2160001 2.908
-28.323999 3.211 2.878
-28.309 3.207 2.8499999
-28.302 3.2049999 2.8239999
-28.284 3.201 2.7950001
-28.274 3.198 2.7690001
-28.263 3.1949999 2.7420001
-28.259001 3.1930001 2.717
-28.24 3.1889999 2.6889999
-28.254999 3.1900001 2.668
-28.254 3.188 2.6429999
-28.256001 3.187 2.619
-28.236 3.1830001 2.5910001
-28.261 3.1849999 2.572
-28.233 3.1800001 2.543
-28.259001 3.1819999 2.523
-28.254 3.1800001 2.4979999
-28.27 3.181 2.4779999
-28.252001 3.177 2.45
-28.261 3.177 2.428
-28.257 3.175 2.4030001
-28.264 3.175 2.3800001
-28.291 3.178 2.3610001
-29.084 3.2939999 2.4849999
-29.07 3.29 2.457
-29.077999 3.29 2.4330001
-29.079 3.2880001 2.408
-29.083 3.2880001 2.3840001
-29.068001 3.2839999 2.355
-29.077999 3.2839999 2.332
-29.077 3.283 2.306
-29.052 3.2780001 2.277
-29.066999 3.2780001 2.2539999
-29.076 3.2780001 2.23
-29.08 3.277 2.2049999
-29.07 3.2739999 2.178
-29.079 3.2739999 2.155
-29.077999 3.273 2.1289999
-29.070999 3.2709999 2.1029999
-29.080999 3.2709999 2.079
-29.084999 3.27 2.0550001
-29.065001 3.2650001 2.026
-29.077999 3.266 2.003
-29.091999 3.267 1.98
-29.096001 3.266 1.956
-29.084999 3.263 1.929
-29.079 3.2609999 1.903
-29.087 3.26 1.8789999
-29.096001 3.26 1.855
-29.084999 3.257 1.8279999
-29.087999 3.256 1.804
-29.082001 3.2539999 1.778
-29.094999 3.2550001 1.755
-29.089001 3.2520001 1.729
-29.087 3.2509999 1.7029999
-29.091 3.25 1.679
-29.094 3.2490001 1.654
-29.082001 3.2460001 1.628
-29.091 3.2460001 1.604
-29.089001 3.244 1.579
-29.091999 3.243 1.554
-29.093 3.2420001 1.529
-29.098 3.2409999 1.505
-29.080999 3.2379999 1.478
-29.089001 3.237 1.454
-29.098 3.237 1.4299999
-29.096001 3.2360001 1.405
-29.113001 3.2309999 1.2819999
-29.111 3.2290001 1.257
-29.09 3.2219999 1.1799999
-29.103001 3.223 1.1569999
-29.099001 3.221 1.131
-29.107 3.221 1.107
-29.106001 3.211 0.93400002
-29.09 3.207 0.90799999
-29.101999 3.2079999 0.884
-29.103001 3.2060001 0.85900003
-29.1 3.2049999 0.83399999
-29.108 3.204 0.81
-29.103001 3.2019999 0.78500003
-29.1 3.201 0.75999999
-29.101999 3.2 0.73500001
-29.094 3.197 0.70999998
-29.111 3.198 0.68699998
-29.098 3.1949999 0.66100001
-29.104 3.194 0.63700002
-29.106001 3.1930001 0.61199999
-29.112 3.1930001 0.588
-29.114 3.191 0.56300002
-29.115 3.1900001 0.53899997
-29.115999 3.1889999 0.514
-29.118 3.188 0.48899999
-29.104 3.184 0.46399999
-29.110001 3.184 0.44
-29.111 3.1830001 0.41499999
-29.117001 3.1819999 0.391
-29.114 3.1800001 0.366
-29.115 3.1789999 0.34099999
-29.101 3.1760001 0.31600001
-29.097 3.174 0.29100001
-29.107 3.174 0.26699999
-29.108 3.1730001 0.242
-29.114 3.1719999 0.21799999
-29.115 3.171 0.193
-29.125 3.171 0.169
-29.124001 3.1700001 0.14399999
-29.111 3.1659999 0.119
-29.104 3.164 0.094999999
-29.122999 3.165 0.07
-29.118999 3.1630001 0.045000002
-29.113001 3.161 0.021
-28.371 3.1989999 2.9630001
-28.347 3.194 2.9330001
-28.347 3.1930001 2.908
-28.327999 3.188 2.8789999
-28.301001 3.1830001 2.848
-28.285 3.1789999 2.8210001
-28.292999 3.1789999 2.7980001
-28.285 3.177 2.7720001
-28.294001 3.177 2.7490001
-28.289 3.174 2.724
-28.280001 3.1719999 2.698
-28.306 3.174 2.6789999
-28.296 3.1719999 2.6530001
-28.282 3.168 2.6259999
-28.304001 3.1700001 2.6059999
-28.295 3.1670001 2.5799999
-28.292999 3.1659999 2.5550001
-28.281 3.1630001 2.529
-28.306 3.165 2.51
-28.294001 3.1619999 2.483
-28.318001 3.164 2.4630001
-28.302 3.1600001 2.4360001
-28.354 3.1670001 2.4219999
-29.073 3.2709999 2.5350001
-29.073 3.27 2.51
-29.073 3.2679999 2.484
-29.077999 3.267 2.46
-29.063999 3.263 2.4319999
-29.077 3.2639999 2.4089999
-29.062 3.26 2.3800001
-29.062 3.2590001 2.355
-29.076 3.26 2.332
-29.070999 3.257 2.306
-29.083 3.2579999 2.283
-29.086 3.257 2.2579999
-29.09 3.256 2.233
-29.087999 3.2539999 2.2079999
-29.073 3.2509999 2.1800001
-29.087 3.2509999 2.1570001
-29.070999 3.2479999 2.1289999
-29.056 3.244 2.1010001
-29.07 3.2449999 2.0780001
-29.063999 3.243 2.052
-29.073 3.2420001 2.0280001
-29.072001 3.2409999 2.003
-29.094999 3.243 1.982
-29.094 3.2409999 1.956
-29.077999 3.2379999 1.929
-29.077 3.2360001 1.903
-29.070999 3.234 1.877
-29.065001 3.2320001 1.851
-29.083 3.233 1.829
-29.072001 3.23 1.802
-29.075001 3.2290001 1.778
-29.073999 3.227 1.753
-29.087 3.2279999 1.729
-29.076 3.2249999 1.7029999
-29.089001 3.2249999 1.679
-29.077999 3.2219999 1.653
-29.08 3.221 1.628
-29.089001 3.221 1.604
-29.068001 3.217 1.577
-29.086 3.2179999 1.554
-29.075001 3.2149999 1.528
-29.093 3.2160001 1.505
-29.086 3.214 1.479
-29.103001 3.2149999 1.456
-29.091999 3.2119999 1.4299999
-29.094 3.211 1.406
-29.107 3.211 1.382
-29.084999 3.207 1.355
-29.083 3.2049999 1.33
-29.105 3.207 1.307
-29.083 3.2030001 1.28
-29.096001 3.2030001 1.256
-29.108 3.2030001 1.233
-29.091 3.2 1.206
-29.108 3.201 1.183
-29.101 3.198 1.158
-29.093 3.1960001 1.132
-29.096001 3.1949999 1.107
-29.083 3.1919999 1.082
-29.094999 3.1919999 1.058
-29.087999 3.1900001 1.0319999
-29.09 3.1889999 1.008
-29.087 3.1860001 0.98299998
-29.099001 3.187 0.95899999
-29.106001 3.1860001 0.935
-29.103001 3.184 0.91000003
-29.115 3.1849999 0.88599998
-29.082001 3.1789999 0.85900003
-29.099001 3.1800001 0.83499998
-29.096001 3.178 0.81
-29.113001 3.1789999 0.787
-29.105 3.1760001 0.76200002
-29.106001 3.175 0.73699999
-29.077999 3.1700001 0.71100003
-29.094999 3.171 0.68699998
-29.096001 3.1700001 0.662
-29.087999 3.1670001 0.63700002
-29.094 3.1670001 0.61299998
-29.096001 3.1659999 0.588
-29.097 3.165 0.56400001
-29.106001 3.164 0.53899997
-29.115 3.164 0.51499999
-29.096001 3.1600001 0.49000001
-29.112 3.161 0.46599999
-29.094 3.1570001 0.44
-29.09 3.155 0.41499999
-29.106001 3.1559999 0.391
-29.097 3.154 0.366
-29.098 3.152 0.34200001
-29.108999 3.1530001 0.31799999
-29.1 3.1500001 0.29300001
-29.084999 3.1470001 0.26800001
-29.091 3.1459999 0.243
-29.098 3.1459999 0.219
-29.113001 3.1459999 0.19400001
-29.114 3.145 0.17
-29.124001 3.145 0.145
-29.125 3.1440001 0.121
-29.106001 3.1400001 0.096000001
-29.111 3.1389999 0.071000002
-29.097 3.1359999 0.046999998
-29.107 3.1359999 0.022
-28.364 3.174 2.9619999
-28.357 3.1719999 2.9349999
-28.33 3.1659999 2.905
-28.320999 3.164 2.878
-28.326 3.1630001 2.855
-28.323 3.1619999 2.8299999
-28.327 3.161 2.806
-28.332001 3.1600001 2.783
-28.308001 3.155 2.753
-28.34 3.1589999 2.7360001
-28.327999 3.155 2.7090001
-28.334999 3.155 2.6860001
-28.339001 3.154 2.6630001
-28.348 3.154 2.6400001
-28.332001 3.151 2.612
-28.35 3.152 2.592
-28.348 3.1500001 2.5669999
-28.339001 3.148 2.5409999
-28.368 3.1500001 2.523
-28.386999 3.152 2.5020001
-29.075001 3.2509999 2.6129999
-29.055 3.2460001 2.5829999
-29.070999 3.247 2.5610001
-29.072001 3.2460001 2.5350001
-29.066 3.243 2.5090001
-29.056999 3.24 2.4820001
-29.051001 3.2379999 2.4549999
-29.061001 3.2379999 2.4319999
-29.061001 3.237 2.4059999
-29.07 3.237 2.3829999
-29.07 3.2349999 2.3570001
-29.049999 3.2309999 2.3280001
-29.054001 3.23 2.3039999
-29.079 3.2320001 2.283
-29.066 3.2290001 2.2550001
-29.062 3.227 2.2290001
-29.072001 3.227 2.2060001
-29.080999 3.227 2.1819999
-29.061001 3.223 2.1530001
-29.075001 3.223 2.1300001
-29.083 3.223 2.1059999
-29.063 3.2190001 2.0780001
-29.070999 3.2190001 2.0539999
-29.08 3.2190001 2.03
-29.055 3.214 2.0020001
-29.068001 3.214 1.978
-29.073 3.2130001 1.954
-29.082001 3.2130001 1.9299999
-29.075001 3.211 1.904
-29.069 3.2090001 1.878
-29.073 3.2079999 1.854
-29.072001 3.2060001 1.8279999
-29.061001 3.204 1.802
-29.073999 3.204 1.779
-29.082001 3.204 1.755
-29.084999 3.2030001 1.73
-29.079 3.201 1.704
-29.069 3.198 1.678
-29.072001 3.197 1.653
-29.08 3.197 1.6289999
-29.073999 3.194 1.604
-29.056 3.1900001 1.576
-29.084999 3.1930001 1.5549999
-29.073 3.1900001 1.529
-29.1 3.1919999 1.507
-29.059 3.1849999 1.477
-29.096001 3.1889999 1.457
-29.09 3.187 1.431
-29.080999 3.184 1.405
-29.096001 3.1849999 1.382
-29.108 3.1849999 1.358
-29.080999 3.1800001 1.331
-29.084 3.1789999 1.306
-29.091999 3.1789999 1.2819999
-29.099001 3.1789999 1.258
-29.091999 3.1760001 1.232
-29.084 3.174 1.207
-29.077 3.171 1.181
-29.089001 3.1719999 1.158
-29.072001 3.168 1.131
-29.084 3.168 1.108
-29.097 3.168 1.084
-29.084 3.165 1.058
-29.086 3.164 1.033
-29.098 3.164 1.01
-29.096001 3.1630001 0.98500001
-29.083 3.1589999 0.95899999
-29.084999 3.158 0.93400002
-29.087 3.1570001 0.91000003
-29.098 3.1570001 0.88599998
-29.084 3.154 0.86000001
-29.091999 3.154 0.83600003
-29.089001 3.152 0.81099999
-29.075001 3.1489999 0.78600001
-29.073 3.1470001 0.76099998
-29.098 3.1489999 0.73799998
-29.091 3.1470001 0.71200001
-29.091999 3.1459999 0.68800002
-29.099001 3.145 0.66399997
-29.096001 3.1440001 0.639
-29.103001 3.1429999 0.61400002
-29.091999 3.1400001 0.58899999
-29.080999 3.1370001 0.56400001
-29.076 3.135 0.53899997
-29.087999 3.1359999 0.51499999
-29.094999 3.135 0.491
-29.084999 3.1329999 0.46599999
-29.087 3.132 0.44100001
-29.096001 3.131 0.417
-29.094 3.1300001 0.39199999
-29.104 3.1300001 0.368
-29.09 3.1270001 0.34299999
-29.096001 3.1259999 0.31799999
-29.097 3.125 0.294
-29.087 3.122 0.26899999
-29.098 3.122 0.245
-29.103001 3.122 0.22
-29.108999 3.1210001 0.19599999
-29.112 3.1199999 0.171
-29.091999 3.1159999 0.146
-29.103001 3.1159999 0.122
-29.094 3.1140001 0.097000003
-29.094 3.112 0.071999997
-29.098 3.1110001 0.048
-29.110001 3.112 0.023
-28.370001 3.152 2.964
-28.358 3.1489999 2.9360001
-28.344 3.145 2.9089999
-28.344 3.1440001 2.8840001
-28.372 3.1470001 2.8659999
-28.365999 3.1440001 2.8399999
-28.344 3.1400001 2.8110001
-28.354 3.1400001 2.7880001
-28.351 3.138 2.763
-28.374001 3.1400001 2.744
-28.378 3.1389999 2.72
-28.392 3.1400001 2.6989999
-28.395 3.1389999 2.675
-28.375 3.135 2.6459999
-28.395 3.1359999 2.6259999
-28.4 3.1359999 2.6029999
-28.417 3.1370001 2.582
-29.059999 3.2279999 2.687
-29.049999 3.2249999 2.6600001
-29.059 3.2249999 2.6359999
-29.051001 3.2219999 2.609
-29.059999 3.2219999 2.585
-29.059999 3.221 2.5599999
-29.065001 3.22 2.5350001
-29.065001 3.2190001 2.51
-29.065001 3.217 2.484
-29.059999 3.2149999 2.4579999
-29.055 3.2130001 2.431
-29.055 3.2119999 2.4059999
-29.063999 3.2119999 2.382
-29.058001 3.2090001 2.3559999
-29.052999 3.207 2.3299999
-29.063 3.207 2.306
-29.052999 3.204 2.279
-29.056999 3.2030001 2.2550001
-29.076 3.204 2.233
-29.065001 3.201 2.2060001
-29.055 3.1989999 2.1789999
-29.063999 3.1989999 2.155
-29.073 3.198 2.131
-29.062 3.1960001 2.1040001
-29.076 3.1960001 2.0810001
-29.084999 3.1960001 2.0569999
-29.069 3.1919999 2.03
-29.077 3.1919999 2.006
-29.072001 3.1900001 1.98
-29.052 3.1860001 1.952
-29.084999 3.1889999 1.931
-29.069 3.1849999 1.904
-29.073 3.184 1.88
-29.066 3.1819999 1.854
-29.061001 3.1800001 1.8279999
-29.073999 3.1800001 1.804
-29.082001 3.1800001 1.781
-29.072001 3.177 1.7539999
-29.065001 3.175 1.728
-29.063999 3.174 1.7029999
-29.072001 3.1730001 1.679
-29.069 3.1719999 1.654
-29.063 3.1689999 1.628
-29.077 3.1700001 1.605
-29.09 3.1700001 1.582
-29.083 3.168 1.556
-29.070999 3.165 1.529
-29.065001 3.1630001 1.5039999
-29.077 3.1630001 1.48
-29.070999 3.161 1.455
-29.097 3.1630001 1.433
-29.07 3.158 1.405
-29.073999 3.1570001 1.381
-29.072001 3.1559999 1.355
-29.079 3.155 1.331
-29.082001 3.154 1.307
-29.084999 3.1530001 1.2819999
-29.087999 3.152 1.258
-29.084999 3.151 1.233
-29.083 3.1489999 1.2079999
-29.087 3.148 1.183
-29.076 3.145 1.1569999
-29.09 3.1459999 1.1339999
-29.077999 3.1429999 1.108
-29.08 3.142 1.0829999
-29.091999 3.142 1.0599999
-29.089001 3.1400001 1.035
-29.101 3.1400001 1.011
-29.084 3.1370001 0.98500001
-29.091 3.1359999 0.96100003
-29.083 3.1340001 0.935
-29.075001 3.131 0.91000003
-29.091999 3.132 0.88700002
-29.084 3.1300001 0.861
-29.096001 3.1300001 0.83700001
-29.093 3.128 0.81199998
-29.08 3.125 0.787
-29.080999 3.1240001 0.76200002
-29.087999 3.1240001 0.73799998
-29.075001 3.1210001 0.713
-29.076 3.119 0.68800002
-29.103001 3.122 0.66500002
-29.089001 3.118 0.63999999
-29.080999 3.1159999 0.61400002
-29.087 3.115 0.58999997
-29.084 3.1140001 0.565
-29.070999 3.1099999 0.54000002
-29.082001 3.1099999 0.51599997
-29.093 3.1099999 0.49200001
-29.084 3.108 0.46700001
-29.09 3.1070001 0.44299999
-29.077 3.1040001 0.417
-29.091999 3.105 0.39300001
-29.106001 3.105 0.36899999
-29.09 3.102 0.34400001
-29.101 3.102 0.31999999
-29.097 3.0999999 0.29499999
-29.077999 3.096 0.27000001
-29.093 3.0969999 0.24600001
-29.084 3.0940001 0.221
-29.084999 3.0929999 0.19599999
-29.101 3.0940001 0.17200001
-29.082001 3.0899999 0.147
-29.107 3.092 0.123
-29.103001 3.0899999 0.097999997
-29.093 3.0869999 0.074000001
-29.111 3.0880001 0.048999999
-29.094 3.085 0.025
-28.382999 3.1300001 2.967
-28.392 3.1300001 2.9449999
-28.393 3.1289999 2.9200001
-28.408001 3.1289999 2.8989999
-28.413 3.1289999 2.8759999
-28.408001 3.1270001 2.8499999
-28.389999 3.1229999 2.8210001
-28.407 3.1240001 2.8010001
-28.413 3.1229999 2.777
-28.413 3.122 2.753
-28.434999 3.1240001 2.733
-28.440001 3.1229999 2.71
-28.427 3.1199999 2.6819999
-28.441 3.1210001 2.661
-29.061001 3.2079999 2.7650001
-29.066 3.207 2.74
-29.076 3.207 2.717
-29.055 3.2030001 2.687
-29.058001 3.2019999 2.6619999
-29.054001 3.2 2.6359999
-29.059 3.1989999 2.6110001
-29.059 3.197 2.586
-29.059 3.1960001 2.5599999
-29.054001 3.194 2.5339999
-29.063 3.194 2.51
-29.056999 3.1919999 2.483
-29.052999 3.1900001 2.457
-29.039 3.1860001 2.4289999
-29.056999 3.187 2.4070001
-29.056999 3.1860001 2.382
-29.062 3.1849999 2.3570001
-29.056999 3.1830001 2.3310001
-29.066 3.1830001 2.3080001
-29.061001 3.181 2.2809999
-29.065001 3.1800001 2.257
-29.063999 3.1789999 2.2309999
-29.069 3.178 2.207
-29.063 3.1760001 2.181
-29.062 3.174 2.155
-29.069 3.174 2.131
-29.075001 3.1730001 2.1070001
-29.079 3.1719999 2.0829999
-29.083 3.1719999 2.0580001
-29.073 3.1689999 2.0309999
-29.072001 3.1670001 2.006
-29.084999 3.168 1.983
-29.073999 3.165 1.956
-29.073 3.1630001 1.931
-29.062 3.1600001 1.904
-29.086 3.1619999 1.882
-29.084 3.161 1.857
-29.077999 3.158 1.831
-29.077 3.1559999 1.806
-29.070999 3.154 1.78
-29.065001 3.152 1.7539999
-29.077999 3.152 1.7309999
-29.062 3.1489999 1.704
-29.07 3.148 1.6799999
-29.069 3.1470001 1.655
-29.072001 3.1459999 1.63
-29.07 3.1440001 1.605
-29.068001 3.1429999 1.58
-29.062 3.1400001 1.554
-29.07 3.1400001 1.53
-29.083 3.1400001 1.507
-29.080999 3.1389999 1.482
-29.079 3.1370001 1.457
-29.084999 3.1370001 1.432
-29.07 3.1329999 1.406
-29.073 3.132 1.381
-29.07 3.131 1.3559999
-29.077999 3.1300001 1.332
-29.066 3.1270001 1.306
-29.083 3.128 1.283
-29.080999 3.1270001 1.258
-29.089001 3.1259999 1.234
-29.073999 3.1229999 1.2079999
-29.089001 3.1229999 1.184
-29.080999 3.1210001 1.159
-29.084 3.1199999 1.1339999
-29.070999 3.1170001 1.109
-29.087999 3.118 1.085
-29.080999 3.1159999 1.0599999
-29.082001 3.1140001 1.035
-29.094 3.115 1.012
-29.072001 3.1099999 0.98500001
-29.089001 3.1110001 0.96200001
-29.091 3.1099999 0.93699998
-29.091999 3.109 0.912
-29.09 3.1070001 0.88800001
-29.082001 3.105 0.86199999
-29.089001 3.1040001 0.838
-29.091 3.1029999 0.81400001
-29.087999 3.102 0.78899997
-29.094 3.1010001 0.764
-29.091 3.099 0.74000001
-29.087999 3.098 0.71499997
-29.099001 3.098 0.69099998
-29.066 3.092 0.66399997
-29.087999 3.0929999 0.64099997
-29.094 3.0929999 0.616
-29.080999 3.0899999 0.59100002
-29.082001 3.089 0.56699997
-29.079 3.086 0.542
-29.1 3.0880001 0.51800001
-29.091 3.085 0.493
-29.073 3.0810001 0.46799999
-29.089001 3.082 0.44400001
-29.084999 3.0799999 0.419
-29.086 3.079 0.39399999
-29.091999 3.079 0.37
-29.083 3.076 0.345
-29.089001 3.075 0.32100001
-29.08 3.073 0.296
-29.080999 3.072 0.271
-29.077 3.0699999 0.24699999
-29.097 3.0710001 0.223
-29.098 3.0699999 0.198
-29.073999 3.0650001 0.17299999
-29.08 3.0650001 0.149
-29.1 3.066 0.124
-29.096001 3.0639999 0.1
-29.087 3.062 0.075000003
-29.077 3.059 0.050000001
-29.097 3.0599999 0.026000001
-28.436001 3.1140001 2.98
-28.426001 3.112 2.9530001
-28.431999 3.1110001 2.9300001
-28.445 3.112 2.908
-28.452999 3.1110001 2.885
-28.454 3.1099999 2.8610001
-28.454 3.109 2.836
-28.459 3.108 2.813
-28.466 3.108 2.79
-28.472 3.1070001 2.766
-28.468 3.105 2.7409999
-29.115999 3.1960001 2.8540001
-29.124001 3.1949999 2.8299999
-29.136 3.1949999 2.8069999
-29.120001 3.1919999 2.7780001
-29.129 3.1919999 2.7539999
-29.138 3.191 2.73
-29.138 3.1900001 2.704
-29.129 3.187 2.677
-29.114 3.1830001 2.648
-29.141001 3.1860001 2.628
-29.118999 3.181 2.598
-29.139 3.1819999 2.576
-29.129 3.1800001 2.549
-29.139 3.1800001 2.5250001
-29.134001 3.177 2.4990001
-29.132999 3.1760001 2.473
-29.127001 3.174 2.4460001
-29.143 3.175 2.424
-29.122999 3.1700001 2.395
-29.142 3.1719999 2.3729999
-29.138 3.1700001 2.346
-29.146999 3.1700001 2.323
-29.122 3.165 2.293
-29.127001 3.164 2.2679999
-29.141001 3.164 2.2449999
-29.135 3.1619999 2.2190001
-29.135 3.161 2.1930001
-29.134001 3.1589999 2.168
-29.132999 3.158 2.142
-29.132 3.1559999 2.1170001
-29.127001 3.154 2.0910001
-29.132999 3.154 2.0669999
-29.134001 3.152 2.0420001
-29.138 3.152 2.017
-29.132 3.1489999 1.9910001
-29.127001 3.1470001 1.965
-29.135 3.1470001 1.941
-29.129 3.145 1.915
-29.118 3.142 1.888
-29.117001 3.1400001 1.863
-29.125 3.1400001 1.839
-29.124001 3.138 1.813
-29.128 3.138 1.789
-29.111 3.1340001 1.761
-29.120001 3.1340001 1.737
-29.097 3.1289999 1.709
-29.103001 3.1289999 1.6849999
-29.094999 3.1259999 1.659
-29.097 3.125 1.6339999
-29.101999 3.1240001 1.61
-29.099001 3.1229999 1.585
-29.097 3.1210001 1.559
-29.093 3.119 1.534
-29.096001 3.118 1.5089999
-29.094 3.1159999 1.484
-29.106001 3.1170001 1.461
-29.093 3.1129999 1.434
-29.101999 3.1129999 1.411
-29.087 3.1099999 1.3839999
-29.09 3.109 1.359
-29.094 3.108 1.335
-29.118 3.1099999 1.313
-29.108999 3.108 1.2869999
-29.101 3.105 1.261
-29.104 3.1040001 1.237
-29.101 3.102 1.212
-29.099001 3.1010001 1.186
-29.097 3.098 1.1619999
-29.104 3.098 1.137
-29.112 3.098 1.113
-29.118 3.0969999 1.089
-29.1 3.0929999 1.063
-29.114 3.0940001 1.039
-29.106001 3.0910001 1.0140001
-29.097 3.089 0.98799998
-29.117001 3.0899999 0.96499997
-29.134001 3.0910001 0.94099998
-29.117001 3.0869999 0.91500002
-29.120001 3.0869999 0.89099997
-29.125999 3.086 0.86699998
-29.108999 3.082 0.84100002
-29.118999 3.082 0.81699997
-29.107 3.079 0.79100001
-29.113001 3.079 0.76700002
-29.107 3.0769999 0.74199998
-29.087 3.073 0.71600002
-29.1 3.073 0.69199997
-29.107 3.073 0.66799998
-29.108999 3.0710001 0.64300001
-29.1 3.069 0.61799997
-29.104 3.0680001 0.59299999
-29.118 3.069 0.56999999
-29.115999 3.0669999 0.54500002
-29.111 3.0650001 0.51999998
-29.108999 3.063 0.495
-29.118 3.063 0.47099999
-29.117001 3.062 0.44600001
-29.111 3.059 0.421
-29.122 3.0599999 0.39700001
-29.117001 3.0580001 0.37200001
-29.132 3.0580001 0.34799999
-29.129 3.056 0.32300001
-29.127001 3.0550001 0.29899999
-29.127001 3.053 0.27399999
-29.134001 3.053 0.25
-29.129999 3.0510001 0.22499999
-29.128 3.05 0.2
-29.120001 3.0469999 0.175
-29.118999 3.046 0.15099999
-29.118999 3.0439999 0.126
-29.131001 3.0450001 0.102
-29.127001 3.043 0.077
-29.136999 3.043 0.052000001
-29.138 3.0409999 0.028000001
-28.481001 3.096 2.967
-28.485001 3.095 2.9430001
-28.486 3.0940001 2.918
-28.516001 3.0969999 2.9000001
-28.49 3.092 2.8699999
-28.511999 3.0929999 2.8499999
-28.497 3.0899999 2.822
-29.184999 3.1159999 1.722
-29.201 3.1170001 1.699
-29.186001 3.1140001 1.6720001
-29.163 3.109 1.6440001
-29.166 3.108 1.619
-29.145 3.1040001 1.591
-29.153 3.1040001 1.567
-29.166 3.1040001 1.544
-29.145 3.0999999 1.516
-29.177999 3.1029999 1.495
-29.184999 3.102 1.471
-29.174999 3.0999999 1.4450001
-29.165001 3.0969999 1.418
-29.184 3.098 1.396
-29.16 3.0940001 1.368
-29.163 3.0929999 1.3430001
-29.152 3.0899999 1.317
-29.167 3.0899999 1.294
-29.188999 3.092 1.271
-29.191999 3.0910001 1.2460001
-29.190001 3.089 1.221
-29.211 3.0910001 1.198
-29.191 3.0869999 1.171
-29.200001 3.0869999 1.147
-29.215 3.0869999 1.123
-29.212 3.085 1.098
-29.190001 3.0810001 1.071
-29.207001 3.082 1.048
-29.188999 3.0780001 1.021
-29.195999 3.0780001 0.99699998
-29.183001 3.075 0.97100002
-29.190001 3.0739999 0.94700003
-29.197001 3.0739999 0.92299998
-29.194 3.072 0.89700001
-29.201 3.072 0.87300003
-29.193001 3.069 0.84799999
-29.188999 3.0669999 0.82200003
-29.183001 3.0650001 0.79699999
-29.191999 3.0650001 0.773
-29.181999 3.062 0.74699998
-29.186001 3.0610001 0.72299999
-29.190001 3.0599999 0.69800001
-29.187 3.0580001 0.67299998
-29.181 3.056 0.648
-29.177 3.0539999 0.62300003
-29.176001 3.053 0.59799999
-29.191999 3.053 0.574
-29.169001 3.049 0.54900002
-29.174999 3.049 0.52399999
-29.177 3.0469999 0.49900001
-29.193001 3.0480001 0.47499999
-29.188999 3.046 0.44999999
-29.184999 3.0439999 0.42500001
-29.195999 3.0439999 0.40099999
-29.191999 3.043 0.37599999
-29.193001 3.0409999 0.35100001
-29.188999 3.039 0.32699999
-29.195 3.039 0.30199999
-29.201 3.0380001 0.27700001
-29.191999 3.036 0.252
-29.188 3.0339999 0.228
-29.204 3.0339999 0.20299999
-29.198999 3.033 0.178
-29.195 3.0309999 0.153
-29.195999 3.029 0.12899999
-29.211 3.03 0.104
-29.207001 3.0280001 0.079000004
-29.197001 3.026 0.055
-29.198 3.0239999 0.029999999
-28.530001 3.079 2.9790001
-28.546 3.0799999 2.957
-28.540001 3.0780001 2.931
-28.569 3.0799999 2.9130001
-29.291 2.8469999 2.9820001
-29.302 2.846 2.9579999
-29.278999 2.8199999 2.98
-29.295 2.8199999 2.957
-29.287001 2.796 2.9820001
-29.292 2.7950001 2.957
-29.298 2.7939999 2.9330001
-29.302999 2.7939999 2.908
-29.26 2.7679999 2.977
-29.280001 2.7690001 2.9560001
-29.290001 2.7690001 2.9319999
-29.301001 2.7679999 2.908
-29.277 2.7449999 2.9820001
-29.287001 2.7449999 2.9579999
-29.302999 2.7449999 2.9349999
-29.292999 2.7420001 2.9070001
-29.304001 2.7420001 2.8840001
-27.686001 2.118 0.78100002
-27.677 2.1159999 0.75800002
-27.6 2.1099999 0.73100001
-27.547001 2.105 0.70599997
-27.572001 2.105 0.685
-27.565001 2.1029999 0.66299999
-27.548 2.1010001 0.63999999
-27.524 2.098 0.61699998
-27.782 2.1259999 1.2130001
-27.774 2.1240001 1.1900001
-27.767 2.1229999 1.1670001
-27.733999 2.119 1.141
-27.747 2.119 1.12
-27.676001 2.1129999 1.091
-27.665001 2.1099999 1.068
-27.694 2.1110001 1.048
-27.681999 2.109 1.025
-27.650999 2.1059999 1
-27.634001 2.1029999 0.977
-27.632 2.102 0.954
-27.653999 2.102 0.93400002
-27.614 2.098 0.90899998
-27.611 2.0969999 0.88700002
-27.614 2.096 0.86500001
-27.591 2.0929999 0.84100002
-27.579 2.0910001 0.81800002
-27.566 2.089 0.79500002
-27.565001 2.0880001 0.77399999
-27.556999 2.086 0.75099999
-27.546 2.0840001 0.72799999
-27.548 2.0829999 0.70700002
-27.521 2.0799999 0.68300003
-27.540001 2.0799999 0.66299999
-27.305 2.029 0.029999999
-27.308001 2.0280001 0.0080000004
-27.868999 2.1289999 1.562
-27.863001 2.1270001 1.539
-27.829 2.1229999 1.512
-27.796 2.1199999 1.485
-27.795 2.119 1.462
-27.781 2.1159999 1.438
-27.773001 2.115 1.415
-27.764 2.1129999 1.391
-27.764 2.1110001 1.369
-27.729 2.108 1.342
-27.739 2.1070001 1.321
-27.726 2.105 1.2970001
-27.729 2.1040001 1.275
-27.705999 2.1010001 1.251
-27.705999 2.0999999 1.228
-27.697001 2.098 1.205
-27.712 2.098 1.184
-27.681 2.095 1.159
-27.68 2.0929999 1.137
-27.667 2.0910001 1.113
-27.646999 2.0880001 1.089
-27.657 2.0880001 1.068
-27.639999 2.086 1.044
-27.645 2.085 1.023
-27.645 2.0829999 1.001
-27.615 2.0799999 0.97600001
-27.598 2.0780001 0.95300001
-27.599001 2.0769999 0.93099999
-27.591999 2.075 0.90799999
-27.594 2.0739999 0.88599998
-27.582001 2.0710001 0.86299998
-27.579 2.0699999 0.84100002
-27.57 2.0680001 0.81900001
-27.558001 2.066 0.796
-27.552 2.0639999 0.77399999
-27.558001 2.0639999 0.75199997
-27.532 2.0610001 0.72899997
-27.545 2.0599999 0.708
-27.315001 2.0109999 0.072999999
-27.32 2.01 0.052000001
-27.302 2.007 0.030999999
-27.296 2.006 0.0089999996
-28.007 2.1400001 2.0190001
-27.986 2.138 1.992
-27.974001 2.135 1.967
-27.959 2.1329999 1.942
-27.941999 2.131 1.916
-27.923 2.128 1.89
-27.948999 2.1289999 1.8710001
-27.9 2.1240001 1.841
-27.913 2.1229999 1.8200001
-27.895 2.1210001 1.794
-27.885 2.118 1.77
-27.860001 2.1159999 1.744
-27.865999 2.115 1.722
-27.847 2.112 1.696
-27.848 2.1110001 1.674
-27.832001 2.108 1.649
-27.820999 2.1059999 1.625
-27.816999 2.105 1.602
-27.809 2.1029999 1.5779999
-27.801001 2.1010001 1.554
-27.787001 2.099 1.53
-27.777 2.0969999 1.506
-27.767 2.095 1.482
-27.759001 2.0929999 1.459
-27.756001 2.092 1.436
-27.761999 2.0910001 1.415
-27.749001 2.089 1.391
-27.735001 2.0869999 1.3660001
-27.737 2.086 1.344
-27.721001 2.0829999 1.3200001
-27.729 2.0829999 1.299
-27.705999 2.0799999 1.274
-27.700001 2.0780001 1.251
-27.707001 2.0769999 1.23
-27.674999 2.0739999 1.204
-27.677 2.073 1.182
-27.658001 2.0699999 1.158
-27.655001 2.069 1.135
-27.653 2.0680001 1.113
-27.636999 2.0650001 1.089
-27.642 2.0639999 1.068
-27.617001 2.062 1.043
-27.636999 2.062 1.023
-27.615 2.059 0.99900001
-27.601 2.0569999 0.97600001
-27.607 2.056 0.95499998
-27.604 2.0550001 0.93199998
-27.573 2.0510001 0.90799999
-27.586 2.0510001 0.88700002
-27.577999 2.049 0.86400002
-27.559999 2.0469999 0.84100002
-27.558001 2.0450001 0.81900001
-27.535 2.043 0.79500002
-27.531 2.0409999 0.773
-27.534 2.04 0.75199997
-27.320999 1.9910001 0.117
-27.311001 1.99 0.096000001
-27.311001 1.989 0.075000003
-27.290001 1.9859999 0.052999999
-27.285999 1.985 0.032000002
-27.296 1.984 0.011
-28.17 2.1570001 2.543
-28.166 2.155 2.5179999
-28.127001 2.151 2.487
-28.117001 2.1489999 2.461
-28.098 2.1459999 2.434
-28.103001 2.145 2.411
-28.091999 2.1429999 2.385
-28.083 2.141 2.3599999
-28.059999 2.138 2.332
-28.066 2.1370001 2.3099999
-28.037001 2.1340001 2.2809999
-28.02 2.132 2.2550001
-28.017 2.1300001 2.2309999
-28.003 2.128 2.2049999
-27.995001 2.125 2.1800001
-27.957001 2.1210001 2.1500001
-27.983999 2.122 2.132
-27.969999 2.1199999 2.1059999
-27.973 2.119 2.0840001
-27.938999 2.115 2.0550001
-27.927 2.1129999 2.03
-27.93 2.112 2.007
-27.913 2.109 1.9809999
-27.921 2.109 1.96
-27.892 2.105 1.932
-27.885 2.1040001 1.908
-27.891001 2.1029999 1.886
-27.889999 2.1010001 1.863
-27.870001 2.099 1.837
-27.879 2.098 1.816
-27.862 2.096 1.791
-27.843 2.0929999 1.765
-27.837 2.0910001 1.7410001
-27.823999 2.089 1.717
-27.830999 2.089 1.6950001
-27.816999 2.086 1.671
-27.819 2.085 1.648
-27.788 2.082 1.6210001
-27.785 2.0799999 1.598
-27.792999 2.0799999 1.577
-27.771 2.0769999 1.551
-27.77 2.076 1.529
-27.757 2.0739999 1.505
-27.745001 2.072 1.4809999
-27.725 2.069 1.456
-27.757 2.0699999 1.437
-27.726999 2.0669999 1.411
-27.718 2.0650001 1.388
-27.726 2.0639999 1.3660001
-27.716999 2.062 1.3430001
-27.700001 2.0599999 1.319
-27.691 2.0580001 1.296
-27.681999 2.056 1.272
-27.691 2.056 1.251
-27.674999 2.053 1.227
-27.673 2.052 1.205
-27.671 2.0510001 1.182
-27.643 2.0469999 1.1569999
-27.653 2.0469999 1.136
-27.646999 2.0450001 1.114
-27.618 2.0420001 1.089
-27.618999 2.0409999 1.067
-27.627001 2.04 1.045
-27.608 2.0380001 1.022
-27.6 2.036 0.99900001
-27.589001 2.0339999 0.97600001
-27.597 2.033 0.95499998
-27.576 2.0309999 0.93099999
-27.568001 2.029 0.90799999
-27.559999 2.027 0.88599998
-27.545 2.0250001 0.86299998
-27.549 2.0239999 0.84100002
-27.535 2.0220001 0.81800002
-27.535999 2.0209999 0.79699999
-27.34 1.974 0.162
-27.346001 1.973 0.14
-27.327 1.97 0.119
-27.315001 1.969 0.097000003
-27.316999 1.967 0.075999998
-27.306999 1.966 0.054000001
-27.287001 1.9630001 0.033
-27.282 1.962 0.012
-28.271 2.161 2.9260001
-28.238001 2.1570001 2.8940001
-28.233 2.1559999 2.869
-28.224001 2.154 2.842
-28.223 2.152 2.8180001
-28.219999 2.151 2.793
-28.198 2.148 2.7639999
-28.191999 2.1459999 2.7390001
-28.167999 2.1429999 2.71
-28.153 2.141 2.6830001
-28.127001 2.1370001 2.654
-28.134001 2.1370001 2.631
-28.111 2.1329999 2.6029999
-28.115999 2.132 2.5799999
-28.094 2.1289999 2.552
-28.087999 2.1270001 2.527
-28.068001 2.125 2.4990001
-28.065001 2.1229999 2.4749999
-28.077 2.1229999 2.454
-28.051001 2.1199999 2.425
-28.028999 2.1170001 2.398
-28.031 2.1159999 2.375
-28.003 2.112 2.346
-28.017 2.112 2.325
-28.011 2.1099999 2.3010001
-27.987 2.1070001 2.273
-27.996 2.1070001 2.2509999
-27.983999 2.105 2.2260001
-27.992001 2.1040001 2.204
-27.971001 2.1010001 2.177
-27.951 2.098 2.1500001
-27.955 2.0969999 2.128
-27.948999 2.096 2.1040001
-27.933001 2.0929999 2.0780001
-27.926001 2.092 2.0539999
-27.912001 2.089 2.0280001
-27.913 2.0880001 2.006
-27.884001 2.085 1.978
-27.886999 2.0840001 1.955
-27.885 2.0829999 1.932
-27.881001 2.0810001 1.909
-27.857 2.0780001 1.882
-27.863001 2.0769999 1.86
-27.854 2.075 1.836
-27.854 2.0739999 1.813
-27.836 2.072 1.788
-27.829 2.0699999 1.7640001
-27.818001 2.0680001 1.74
-27.812 2.066 1.716
-27.797001 2.0639999 1.691
-27.796 2.063 1.669
-27.771 2.0599999 1.643
-27.775999 2.059 1.6210001
-27.767 2.0569999 1.597
-27.761 2.0550001 1.574
-27.763 2.0539999 1.551
-27.749001 2.052 1.527
-27.761 2.052 1.506
-27.735001 2.049 1.4809999
-27.732 2.0469999 1.4579999
-27.723 2.0450001 1.434
-27.705999 2.043 1.41
-27.712999 2.0420001 1.388
-27.707001 2.0409999 1.365
-27.698 2.039 1.342
-27.690001 2.0369999 1.319
-27.677 2.0350001 1.295
-27.66 2.033 1.271
-27.674999 2.0320001 1.251
-27.656 2.029 1.226
-27.648001 2.0280001 1.2029999
-27.639999 2.026 1.1799999
-27.638 2.0250001 1.158
-27.636 2.023 1.136
-27.613001 2.0209999 1.1109999
-27.617001 2.02 1.09
-27.6 2.017 1.066
-27.601999 2.016 1.044
-27.587999 2.0139999 1.021
-27.573 2.0120001 0.99800003
-27.561001 2.01 0.97500002
-27.563 2.0090001 0.95300001
-27.559 2.007 0.93099999
-27.559999 2.006 0.90899998
-27.552999 2.0050001 0.88700002
-27.544001 2.003 0.86400002
-27.539 2.0009999 0.84200001
-27.537001 2 0.81999999
-27.375999 1.9579999 0.228
-28.212 2.1359999 2.961
-28.195999 2.1329999 2.9330001
-28.188 2.131 2.9070001
-28.179001 2.1300001 2.881
-28.174 2.128 2.8559999
-28.155001 2.125 2.8280001
-28.16 2.1240001 2.8050001
-28.143 2.122 2.777
-28.15 2.1210001 2.7550001
-28.136 2.119 2.7279999
-28.124001 2.1159999 2.7019999
-28.121 2.115 2.677
-28.098 2.112 2.648
-28.1 2.1110001 2.625
-28.103001 2.1099999 2.602
-28.08 2.1070001 2.5739999
-28.080999 2.1059999 2.55
-28.062 2.1029999 2.523
-28.056999 2.1010001 2.4979999
-28.039 2.099 2.471
-28.028999 2.0969999 2.4449999
-28.033001 2.096 2.4230001
-28.013 2.0929999 2.3959999
-28.013 2.092 2.372
-28.006001 2.0899999 2.348
-27.997 2.0880001 2.322
-27.99 2.086 2.2980001
-27.978001 2.0840001 2.2720001
-27.988001 2.0840001 2.2509999
-27.981001 2.082 2.2260001
-27.961 2.079 2.2
-27.945999 2.0769999 2.174
-27.938999 2.075 2.1489999
-27.926001 2.073 2.1240001
-27.929001 2.072 2.1010001
-27.941999 2.072 2.0810001
-27.912001 2.0680001 2.052
-27.898001 2.066 2.027
-27.882999 2.0639999 2.0020001
-27.885 2.063 1.979
-27.886999 2.062 1.957
-27.875 2.0599999 1.932
-27.874001 2.0580001 1.909
-27.851 2.0550001 1.882
-27.849001 2.0539999 1.859
-27.834 2.052 1.834
-27.813 2.049 1.808
-27.802999 2.0469999 1.784
-27.823999 2.0469999 1.7640001
-27.806999 2.0450001 1.739
-27.798 2.043 1.715
-27.785999 2.0409999 1.691
-27.780001 2.039 1.6670001
-27.777 2.0380001 1.645
-27.771 2.036 1.6210001
-27.768 2.0350001 1.598
-27.752001 2.033 1.574
-27.764999 2.0320001 1.553
-27.737 2.029 1.527
-27.735001 2.027 1.5039999
-27.726999 2.026 1.4809999
-27.702999 2.023 1.455
-27.709999 2.0220001 1.434
-27.694 2.02 1.41
-27.711 2.02 1.3890001
-27.690001 2.017 1.364
-27.677999 2.0150001 1.341
-27.66 2.013 1.317
-27.666 2.0120001 1.295
-27.674999 2.0109999 1.274
-27.674999 2.01 1.252
-27.659 2.0079999 1.228
-27.658001 2.006 1.205
-27.624001 2.003 1.1799999
-27.632999 2.0020001 1.159
-27.618999 2 1.135
-27.625 1.999 1.114
-27.625 1.998 1.092
-27.606001 1.9960001 1.068
-27.608 1.995 1.046
-27.597 1.993 1.023
-27.586 1.9910001 1
-27.584 1.99 0.97799999
-27.58 1.988 0.95599997
-27.559 1.9859999 0.93199998
-27.559999 1.985 0.91000003
-27.555 1.983 0.88800001
-27.559999 1.982 0.866
-28.191999 2.1129999 2.9820001
-28.195999 2.112 2.9579999
-28.179001 2.109 2.9300001
-28.181 2.108 2.9070001
-28.17 2.1059999 2.8800001
-28.162001 2.1040001 2.8540001
-28.150999 2.102 2.8280001
-28.136999 2.0999999 2.8010001
-28.145 2.099 2.779
-28.114 2.096 2.7479999
-28.111 2.0940001 2.723
-28.101 2.092 2.698
-28.103001 2.0910001 2.674
-28.077 2.0880001 2.645
-28.091 2.0869999 2.6240001
-28.066 2.085 2.595
-28.075001 2.0840001 2.5739999
-28.065001 2.082 2.5480001
-28.047001 2.079 2.5209999
-28.035 2.0769999 2.4949999
-28.021999 2.075 2.4690001
-28.028999 2.0739999 2.447
-28.007999 2.072 2.4189999
-28.007 2.0699999 2.395
-28 2.0680001 2.3710001
-27.987 2.066 2.345
-27.976999 2.0639999 2.3199999
-27.976 2.063 2.296
-27.969999 2.0610001 2.2720001
-27.954 2.059 2.2460001
-27.969 2.059 2.2249999
-27.952999 2.056 2.1989999
-27.947001 2.0550001 2.175
-27.931999 2.052 2.1489999
-27.940001 2.052 2.128
-27.921 2.049 2.1010001
-27.914 2.0469999 2.0769999
-27.889999 2.0450001 2.05
-27.886999 2.043 2.026
-27.888 2.0420001 2.0039999
-27.872999 2.04 1.978
-27.865999 2.0380001 1.954
-27.855 2.036 1.929
-27.856001 2.0350001 1.9069999
-27.844 2.033 1.882
-27.834999 2.0309999 1.858
-27.813999 2.0280001 1.832
-27.806999 2.027 1.808
-27.816999 2.026 1.7869999
-27.813 2.0239999 1.7640001
-27.799999 2.0220001 1.739
-27.787001 2.02 1.715
-27.795 2.02 1.693
-27.775 2.017 1.668
-27.771999 2.016 1.645
-27.782 2.0150001 1.624
-27.757 2.0120001 1.598
-27.753 2.0109999 1.575
-27.753 2.0090001 1.552
-27.754 2.0079999 1.53
-27.731001 2.006 1.505
-27.736 2.0050001 1.483
-27.718 2.0020001 1.4579999
-27.712999 2 1.4349999
-27.705999 1.999 1.4119999
-27.698999 1.997 1.3890001
-27.695999 1.995 1.3660001
-28.179001 2.089 2.98
-28.184 2.0880001 2.957
-28.174999 2.086 2.931
-28.165001 2.0840001 2.904
-28.165001 2.0829999 2.8800001
-28.153999 2.0810001 2.8540001
-28.132 2.0780001 2.825
-28.136 2.0769999 2.802
-28.115999 2.0739999 2.773
-28.110001 2.073 2.7479999
-28.097 2.0699999 2.7219999
-28.096001 2.069 2.697
-28.075001 2.066 2.6689999
-28.07 2.0650001 2.645
-28.059999 2.063 2.619
-28.069 2.062 2.5969999
-28.049999 2.059 2.569
-28.042999 2.0580001 2.5439999
-28.028 2.0550001 2.5179999
-28.042999 2.0550001 2.497
-28.01 2.052 2.467
-28.011999 2.05 2.444
-28.007999 2.049 2.4200001
-28.000999 2.0469999 2.395
-27.979 2.0439999 2.368
-27.981001 2.043 2.345
-27.976 2.0420001 2.3210001
-27.966 2.04 2.2950001
-27.965 2.0380001 2.2720001
-27.943001 2.036 2.2449999
-27.941999 2.0339999 2.221
-27.931 2.0320001 2.1960001
-27.923 2.0309999 2.1719999
-27.912001 2.029 2.1470001
-27.931999 2.029 2.1270001
-27.916 2.026 2.1010001
-27.903 2.0239999 2.076
-27.882999 2.0220001 2.05
-27.885 2.0209999 2.027
-27.885 2.0190001 2.0039999
-27.882 2.0179999 1.9809999
-28.169001 2.066 2.9779999
-28.157 2.0639999 2.951
-28.143999 2.0610001 2.924
-28.138 2.0599999 2.8989999
-28.131001 2.0580001 2.8729999
-28.125999 2.056 2.848
-28.122 2.0550001 2.823
-28.097 2.052 2.7939999
-28.113001 2.0510001 2.7739999
-28.091999 2.049 2.7449999
-28.104 2.0480001 2.724
-28.091 2.046 2.697
-28.077999 2.0439999 2.671
-28.087 2.043 2.6489999
-28.063 2.04 2.6199999
-28.059 2.039 2.596
-28.052 2.0369999 2.5710001
-28.063 2.036 2.55
-28.034 2.033 2.52
-28.041 2.0320001 2.4979999
-28.176001 2.043 2.9809999
-26.961 4.237 2.8840001
-26.959 4.2350001 2.533
-26.959 4.2350001 2.5039999
-26.958 4.2340002 2.474
-26.976 4.2480001 2.3900001
-26.993999 4.2620001 2.335
-26.966999 4.2410002 2.273
-26.987 4.257 2.247
-26.982 4.2529998 2.188
-26.976999 4.2490001 1.984
-26.968 4.2420001 1.954
-26.959 4.2350001 1.924
-27.003 4.2680001 1.756
-26.964001 4.2030001 2.7060001
-26.962999 4.2030001 2.618
-26.964001 4.204 2.5020001
-26.964001 4.2030001 2.473
-26.962 4.2020001 2.4430001
-26.959999 4.1999998 2.3269999
-26.959 4.1999998 2.2969999
-26.959999 4.2010002 2.2690001
-26.969999 4.2080002 2.1830001
-26.968 4.2059999 2.154
-26.966 4.2049999 2.096
-26.973 4.21 2.0680001
-26.961 4.2010002 2.0079999
-26.965 4.204 1.98
-26.965 4.204 1.951
-26.972 4.2090001 1.923
-26.962999 4.2020001 1.893
-26.962999 4.2030001 1.864
-26.975 4.211 1.837
-26.962 4.2020001 1.807
-26.968 4.2059999 1.779
-26.969999 4.2080002 1.75
-26.964001 4.2030001 1.721
-26.974001 4.211 1.664
-26.962 4.2020001 1.6339999
-26.968 4.2059999 1.6059999
-26.962 4.2020001 1.577
-26.975 4.211 1.52
-26.965 4.204 1.4910001
-26.971001 4.2090001 1.4630001
-26.969 4.2069998 1.434
-26.962999 4.2030001 1.404
-26.961 4.2010002 1.318
-26.962999 4.2020001 1.261
-26.975 4.211 1.233
-26.969999 4.2080002 1.204
-26.972 4.2090001 1.176
-26.959 4.1989999 1.146
-26.964001 4.2030001 1.118
-26.969 4.2069998 1.09
-26.966999 4.2049999 1.061
-26.959 4.198 1.0319999
-26.961 4.2010002 1.003
-26.962999 4.2010002 0.97500002
-26.964001 4.2020001 0.94599998
-26.997999 4.2280002 0.89099997
-26.962 4.2010002 0.861
-26.966999 4.2049999 0.83200002
-26.958 4.164 2.9649999
-26.959 4.165 2.9360001
-26.959 4.164 2.848
-26.958 4.1630001 2.76
-26.961 4.1659999 2.6730001
-26.964001 4.1680002 2.615
-26.965 4.1690001 2.5280001
-26.958 4.1630001 2.4979999
-26.965 4.1690001 2.325
-26.962 4.1669998 2.2950001
-26.966 4.1700001 2.267
-26.964001 4.1680002 2.2379999
-26.968 4.171 2.2090001
-26.966 4.1700001 2.1800001
-26.959 4.164 2.1500001
-26.974001 4.1750002 2.1229999
-26.959999 4.165 2.0929999
-26.962 4.1669998 2.0639999
-26.976999 4.178 2.0369999
-26.964001 4.1680002 1.978
-26.962999 4.1669998 1.949
-26.975 4.1760001 1.921
-26.962999 4.1659999 1.862
-26.962999 4.1669998 1.8329999
-26.969999 4.171 1.8049999
-26.966 4.1680002 1.776
-26.971001 4.1719999 1.719
-26.971001 4.1719999 1.691
-26.966999 4.1700001 1.661
-26.972 4.1729999 1.633
-26.966999 4.1690001 1.604
-26.972 4.1729999 1.576
-26.971001 4.1719999 1.5470001
-26.968 4.1700001 1.518
-26.966999 4.1690001 1.489
-26.966 4.1680002 1.46
-26.962999 4.1669998 1.431
-26.971001 4.1719999 1.404
-26.966 4.1680002 1.317
-26.969 4.171 1.232
-26.962999 4.1659999 1.202
-26.965 4.1669998 1.174
-26.958 4.1630001 1.145
-26.966999 4.1690001 1.117
-26.962 4.1659999 1.0599999
-26.964001 4.1669998 1.031
-26.966 4.1680002 0.97399998
-26.959 4.1630001 0.94499999
-26.962999 4.1659999 0.88800001
-26.959999 4.1290002 2.8150001
-26.962 4.1300001 2.612
-26.969999 4.1360002 2.5840001
-26.959 4.1279998 2.4949999
-26.959 4.1279998 2.4660001
-26.959 4.1279998 2.3210001
-26.964001 4.132 2.293
-26.962 4.1300001 2.2060001
-26.965 4.132 2.177
-26.974001 4.1389999 2.1210001
-26.959999 4.1290002 2.0899999
-26.976 4.1399999 2.063
-26.982 4.145 2.0350001
-26.959 4.1279998 2.003
-26.969 4.1360002 1.976
-26.962999 4.131 1.946
-26.969999 4.1360002 1.89
-26.964001 4.131 1.86
-26.98 4.1440001 1.8329999
-26.959999 4.1290002 1.802
-26.974001 4.1389999 1.775
-26.973 4.138 1.7460001
-26.974001 4.1389999 1.7180001
-26.965 4.1329999 1.688
-26.978001 4.1420002 1.661
-26.969 4.1350002 1.631
-26.966 4.1329999 1.602
-26.976 4.1399999 1.574
-26.974001 4.1389999 1.546
-26.965 4.132 1.516
-26.978001 4.1420002 1.489
-26.966 4.1329999 1.459
-26.959999 4.1279998 1.429
-26.958 4.1269999 1.401
-26.972 4.1360002 1.373
-26.959999 4.1269999 1.344
-26.962 4.1290002 1.3150001
-26.959999 4.1279998 1.2869999
-26.958 4.1259999 1.258
-26.966999 4.1329999 1.23
-26.965 4.132 1.201
-26.966 4.132 1.173
-26.964001 4.131 1.1440001
-26.961 4.1279998 1.115
-26.966 4.132 1.087
-26.959999 4.1269999 1.058
-26.968 4.1339998 1.03
-26.961 4.1290002 1.001
-26.962999 4.1300001 0.97299999
-26.958 4.1259999 0.94400001
-26.962 4.0949998 2.9289999
-26.969 4.0999999 2.901
-26.961 4.0949998 2.812
-26.961 4.0939999 2.7539999
-26.962999 4.0960002 2.6670001
-26.962999 4.0960002 2.638
-26.962999 4.0960002 2.464
-26.962 4.0949998 2.405
-26.959999 4.0939999 2.3759999
-26.958 4.092 2.3469999
-26.965 4.0970001 2.319
-26.959999 4.092 2.26
-26.965 4.0970001 2.204
-26.962999 4.0949998 2.145
-26.958 4.0910001 2.1159999
-26.959999 4.092 2.059
-26.966 4.0970001 2.0309999
-26.965 4.0960002 2.0020001
-26.968 4.098 1.973
-26.958 4.0910001 1.943
-26.966999 4.098 1.887
-26.965 4.0960002 1.858
-26.959999 4.092 1.829
-26.962 4.0939999 1.8
-26.98 4.1069999 1.774
-26.969999 4.099 1.744
-26.972 4.1009998 1.715
-26.959 4.0910001 1.6849999
-26.979 4.1069999 1.659
-26.959 4.092 1.628
-26.964001 4.0949998 1.6
-26.971001 4.1009998 1.572
-26.968 4.098 1.543
-26.978001 4.1059999 1.516
-26.969 4.099 1.4859999
-26.975 4.1040001 1.4579999
-26.964001 4.0949998 1.428
-26.972 4.1009998 1.4
-26.971001 4.0999999 1.372
-26.976999 4.105 1.344
-26.962 4.0939999 1.314
-26.966999 4.098 1.286
-26.966 4.0960002 1.257
-26.976999 4.105 1.229
-26.978001 4.1059999 1.201
-26.966999 4.0970001 1.1720001
-26.968 4.099 1.143
-26.966 4.0970001 1.114
-26.962999 4.0949998 1.086
-26.965 4.0960002 1.057
-26.959 4.092 1
-26.962999 4.0609999 2.9549999
-26.966 4.0630002 2.9260001
-26.961 4.059 2.8959999
-26.958 4.0570002 2.8659999
-26.965 4.0619998 2.8380001
-26.965 4.0619998 2.809
-26.969 4.0650001 2.7520001
-26.966 4.0619998 2.6930001
-26.965 4.0609999 2.664
-26.959 4.0570002 2.6340001
-26.976 4.0689998 2.608
-26.962999 4.0599999 2.576
-26.959999 4.0580001 2.5469999
-26.969 4.0640001 2.5190001
-26.983999 4.0749998 2.493
-26.961 4.0580001 2.46
-26.968 4.0630002 2.4030001
-26.966 4.0619998 2.3740001
-26.962 4.0580001 2.345
-26.969999 4.0650001 2.3169999
-26.961 4.0580001 2.2869999
-26.959999 4.0570002 2.2579999
-26.958 4.0560002 2.2290001
-26.962 4.0580001 2.2
-26.961 4.0580001 2.171
-26.983 4.0739999 2.1459999
-26.966 4.0619998 2.115
-26.969 4.0640001 2.086
-26.965 4.0609999 2.0569999
-26.966999 4.0630002 2.0280001
-26.978001 4.0700002 2.0009999
-26.976 4.0689998 1.972
-26.976999 4.0700002 1.944
-26.976999 4.0700002 1.915
-26.962999 4.0599999 1.8839999
-26.971001 4.0650001 1.857
-26.965 4.0609999 1.827
-26.979 4.0710001 1.8
-26.969 4.0640001 1.77
-26.964001 4.0599999 1.7410001
-26.978001 4.0710001 1.714
-26.964001 4.0599999 1.684
-26.966999 4.0619998 1.656
-26.961 4.0580001 1.626
-26.981001 4.073 1.6
-26.973 4.0669999 1.5700001
-26.974001 4.0679998 1.5420001
-26.976999 4.0700002 1.5140001
-26.975 4.0679998 1.485
-26.959999 4.0570002 1.455
-26.959 4.0560002 1.426
-26.972 4.066 1.399
-26.966 4.0619998 1.37
-26.975 4.0679998 1.342
-26.973 4.066 1.313
-26.966 4.0619998 1.284
-26.976 4.0689998 1.257
-26.976999 4.0689998 1.171
-26.966 4.0619998 1.142
-26.962999 4.0599999 1.113
-26.959999 4.0229998 2.98
-26.968 4.0279999 2.9519999
-26.971001 4.0310001 2.924
-26.975 4.0339999 2.895
-26.98 4.0370002 2.8670001
-26.964001 4.0250001 2.835
-26.982 4.039 2.809
-26.981001 4.0380001 2.7509999
-26.969 4.0289998 2.72
-26.971001 4.0300002 2.691
-26.966 4.027 2.661
-26.969999 4.0300002 2.632
-26.965 4.026 2.6029999
-26.966999 4.0279999 2.5739999
-26.959 4.0219998 2.5439999
-26.971001 4.0300002 2.517
-26.973 4.0320001 2.4879999
-26.969 4.0289998 2.4590001
-26.973 4.0320001 2.4300001
-26.975 4.033 2.402
-26.983 4.039 2.3740001
-26.976999 4.0349998 2.3440001
-26.985001 4.04 2.3169999
-26.98 4.0370002 2.2869999
-26.983 4.039 2.2590001
-26.979 4.0359998 2.2290001
-26.985001 4.04 2.201
-26.969 4.0289998 2.1700001
-26.975 4.033 2.142
-26.989 4.0440001 2.1159999
-26.971001 4.0300002 2.0840001
-26.98 4.0370002 2.0569999
-26.971001 4.0300002 2.027
-26.972 4.0310001 1.998
-26.983 4.039 1.971
-26.969 4.0289998 1.9400001
-26.973 4.0310001 1.9119999
-26.966999 4.027 1.883
-26.975 4.033 1.855
-26.968 4.0279999 1.825
-26.972 4.0310001 1.7970001
-26.976999 4.0339999 1.7690001
-26.968 4.0279999 1.74
-26.966999 4.027 1.711
-26.964001 4.0240002 1.682
-26.964001 4.0240002 1.653
-26.978001 4.0339999 1.626
-26.968 4.027 1.597
-26.973 4.0300002 1.569
-26.962999 4.0229998 1.539
-26.974001 4.0310001 1.512
-26.986 4.0409999 1.484
-26.973 4.0310001 1.454
-26.968 4.027 1.425
-26.965 4.0250001 1.397
-26.968 4.027 1.34
-26.969999 4.0279999 1.312
-26.966999 4.026 1.283
-26.976 4.033 1.255
-26.986 4.04 1.227
-26.975 4.0320001 1.198
-26.966999 4.026 1.169
-26.993 4.0110002 2.983
-26.985001 4.006 2.9519999
-26.981001 4.0029998 2.9219999
-26.981001 4.0029998 2.8929999
-26.985001 4.006 2.865
-26.989 4.0079999 2.836
-26.976 3.9990001 2.8050001
-26.98 4.0019999 2.777
-27 4.0170002 2.7509999
-26.996 4.013 2.721
-26.979 4.0009999 2.6889999
-26.976 3.9990001 2.6600001
-26.99 4.0100002 2.6329999
-26.983 4.0040002 2.6029999
-26.969999 3.9949999 2.572
-26.969999 3.994 2.543
-26.997 4.0139999 2.5190001
-26.976999 3.9990001 2.4860001
-26.983999 4.0050001 2.4579999
-26.979 4.0009999 2.4289999
-26.974001 3.9979999 2.3989999
-26.976999 3.9990001 2.3699999
-26.973 3.997 2.3410001
-26.986 4.006 2.3139999
-26.969999 3.9949999 2.283
-26.982 4.0029998 2.256
-26.985001 4.0050001 2.2279999
-26.988001 4.0079999 2.1989999
-26.975 3.9979999 2.168
-26.982 4.0029998 2.141
-26.976 3.9990001 2.1110001
-26.969999 3.994 2.0810001
-26.973 3.997 2.053
-26.973 3.9960001 2.0250001
-26.971001 3.9949999 1.9960001
-26.976999 4 1.9680001
-26.976999 3.9990001 1.939
-26.971001 3.9949999 1.91
-26.969 3.993 1.881
-26.968 3.993 1.852
-26.974001 3.9979999 1.824
-26.973 3.9960001 1.795
-26.969999 3.9949999 1.766
-26.985001 4.0050001 1.74
-26.98 4.0009999 1.71
-26.978001 4 1.682
-26.981001 4.0029998 1.625
-26.964001 3.99 1.594
-26.974001 3.997 1.567
-26.968 3.993 1.538
-26.974001 3.997 1.51
-26.971001 3.9949999 1.4809999
-26.969 3.994 1.452
-26.975 3.9979999 1.425
-26.971001 3.9949999 1.396
-26.964001 3.99 1.367
-26.966 3.9909999 1.3380001
-26.966999 3.9920001 1.3099999
-26.976999 3.9990001 1.2819999
-26.969 3.994 1.253
-27.037001 4.0100002 2.96
-27.049 4.0180001 2.9330001
-27.028999 4.0040002 2.9000001
-27.025 4.0009999 2.8699999
-27.041 4.0120001 2.8440001
-27.045 4.0149999 2.816
-27.048 4.0180001 2.7869999
-27.032 4.006 2.7550001
-27.02 3.9960001 2.723
-27.031 4.0050001 2.6960001
-27.044001 4.013 2.6689999
-27.031 4.0040002 2.638
-27.031 4.0040002 2.609
-27.030001 4.0040002 2.5799999
-27.018 3.994 2.5480001
-27.021 3.997 2.52
-27.024 3.9990001 2.4920001
-27.035999 4.0079999 2.4649999
-27.031 4.0040002 2.4349999
-27.023001 3.9979999 2.404
-27.018 3.9949999 2.375
-27.017 3.994 2.346
-27.017 3.993 2.3169999
-27.035999 4.007 2.2909999
-27.023001 3.9979999 2.26
-27.01 3.9879999 2.2290001
-27.013 3.9909999 2.201
-27.02 3.9960001 2.1730001
-27.025999 4.0009999 2.145
-27.028999 4.0029998 2.1170001
-27.031 4.0040002 2.0880001
-27.025999 4 2.059
-27.042 4.0120001 2.0320001
-27.018999 3.9949999 2
-27.025 4 1.972
-27.017 3.994 1.942
-27.014999 3.9920001 1.913
-27.014 3.9909999 1.8839999
-27.025 3.9990001 1.857
-27.014999 3.9920001 1.827
-27.006001 3.9849999 1.7970001
-27.011999 3.99 1.77
-27.018 3.9949999 1.742
-27.017 3.993 1.7130001
-27.007 3.9860001 1.683
-27.017 3.993 1.656
-27.027 4.0009999 1.628
-27.000999 3.9820001 1.597
-27.003 3.983 1.568
-26.997 3.9790001 1.539
-26.987 3.9719999 1.51
-26.997 3.9790001 1.482
-26.987 3.971 1.4529999
-27.000999 3.9820001 1.425
-26.999001 3.98 1.397
-27 3.9809999 1.368
-26.997999 3.98 1.34
-26.993 3.9760001 1.311
-27.097 4.0190001 2.97
-27.089001 4.013 2.9389999
-27.084999 4.0100002 2.908
-27.093 4.0159998 2.881
-27.089001 4.013 2.8510001
-27.113001 4.0300002 2.826
-27.105 4.0229998 2.7950001
-27.097 4.0170002 2.7639999
-27.108999 4.026 2.737
-27.089001 4.0110002 2.704
-27.091999 4.0139999 2.6760001
-27.091999 4.013 2.6459999
-27.091 4.013 2.6170001
-27.099001 4.0180001 2.589
-27.09 4.0120001 2.559
-27.077999 4.0029998 2.527
-27.065001 3.994 2.4960001
-27.084 4.0079999 2.47
-27.068001 3.9960001 2.438
-27.079 4.0040002 2.411
-27.082001 4.006 2.3829999
-27.084999 4.0089998 2.3540001
-27.073 3.9990001 2.323
-27.084 4.007 2.296
-27.094999 4.0149999 2.2690001
