ply
format ascii 1.0
comment PCL generated
element vertex 1705
property float x
property float y
property float z
element camera 0
property float view_px
property float view_py
property float view_pz
property float x_axisx
property float x_axisy
property float x_axisz
property float y_axisx
property float y_axisy
property float y_axisz
property float z_axisx
property float z_axisy
property float z_axisz
property float focal
property float scalex
property float scaley
property float centerx
property float centery
property int viewportx
property int viewporty
property float k1
property float k2
end_header
8.6029997 -4.5640001 0.51099998
8.5679998 -4.5929999 0.47999999
9.302 -4.0089998 2.964
9.3140001 -3.9990001 2.9300001
9.3179998 -3.9960001 2.898
9.3000002 -4.0110002 2.8699999
9.3030005 -4.0089998 2.8380001
9.3039999 -4.0079999 2.8069999
9.2969999 -4.0149999 2.777
9.2740002 -4.0349998 2.75
9.2360001 -4.066 2.7260001
9.21 -4.0879998 2.7
9.1700001 -4.1220002 2.6760001
9.1400003 -4.1469998 2.6500001
8.8039999 -4.4359999 0.98299998
8.7980003 -4.441 0.95099998
8.7969999 -4.4419999 0.91900003
8.7849998 -4.4520001 0.88800001
8.7950001 -4.4429998 0.85600001
8.7919998 -4.4460001 0.824
8.7930002 -4.4450002 0.792
8.7670002 -4.467 0.76200002
8.7580004 -4.4749999 0.73000002
8.7489996 -4.4829998 0.699
8.7559996 -4.4770002 0.667
8.6590004 -4.559 0.574
8.6239996 -4.5879998 0.54299998
9.3059998 -4.046 2.967
9.3070002 -4.0450001 2.9360001
9.3000002 -4.052 2.9059999
9.3109999 -4.0419998 2.872
9.3109999 -4.0419998 2.8410001
9.3079996 -4.0450001 2.8099999
9.3009996 -4.0510001 2.78
9.316 -4.039 2.7460001
9.2779999 -4.0700002 2.7219999
9.2410002 -4.1020002 2.698
9.2119999 -4.1269999 2.6719999
9.1709995 -4.1609998 2.648
9.1350002 -4.1919999 2.6229999
8.8529997 -4.4349999 1.044
8.835 -4.4489999 1.0140001
8.842 -4.4439998 0.98199999
8.8330002 -4.4520001 0.94999999
8.8280001 -4.4559999 0.91900003
8.823 -4.46 0.88700002
8.8310003 -4.454 0.85500002
8.8219995 -4.461 0.824
8.8050003 -4.4749999 0.79299998
8.8079996 -4.473 0.76099998
8.8079996 -4.474 0.72899997
8.7799997 -4.4970002 0.699
8.7489996 -4.5229998 0.66799998
8.6719999 -4.5890002 0.60699999
8.6429996 -4.6129999 0.57599998
9.3120003 -4.0809999 2.97
9.3269997 -4.0689998 2.9360001
9.302 -4.0900002 2.9100001
9.3120003 -4.0819998 2.8759999
9.2969999 -4.0939999 2.848
9.3050003 -4.0879998 2.8150001
9.309 -4.085 2.783
9.302 -4.0910001 2.753
9.3170004 -4.0780001 2.7179999
9.2910004 -4.0999999 2.6919999
9.2539997 -4.132 2.668
9.2320004 -4.1500001 2.6400001
9.1870003 -4.1880002 2.6170001
9.158 -4.2129998 2.5910001
8.9060001 -4.4310002 1.1059999
8.8999996 -4.4369998 1.075
8.8830004 -4.4510002 1.044
8.882 -4.4520001 1.012
8.8850002 -4.4499998 0.98000002
8.8800001 -4.454 0.949
8.868 -4.4640002 0.91799998
8.8669996 -4.4650002 0.88599998
8.8620005 -4.4689999 0.85500002
8.8570004 -4.473 0.82300001
8.8529997 -4.4759998 0.792
8.8369999 -4.4910002 0.76099998
8.8079996 -4.5149999 0.73000002
8.7779999 -4.5409999 0.69999999
8.7279997 -4.5830002 0.67000002
9.3129997 -4.1209998 2.9430001
9.302 -4.131 2.914
9.3129997 -4.1209998 2.8800001
9.2919998 -4.1389999 2.8529999
9.302 -4.131 2.819
9.3140001 -4.1209998 2.786
9.3039999 -4.1300001 2.756
9.2930002 -4.138 2.727
9.3000002 -4.1329999 2.694
9.3000002 -4.1329999 2.6630001
9.2779999 -4.152 2.6359999
9.2410002 -4.1830001 2.6110001
9.1929998 -4.224 2.5880001
9.1520004 -4.2589998 2.5639999
9.1309996 -4.277 2.536
8.9329996 -4.4499998 1.169
8.934 -4.4489999 1.137
8.9589996 -4.427 1.104
8.9390001 -4.4450002 1.073
8.927 -4.4549999 1.043
8.9329996 -4.4499998 1.01
8.9209995 -4.46 0.98000002
8.9160004 -4.4640002 0.94800001
8.9180002 -4.4629998 0.91600001
8.9029999 -4.4749999 0.88599998
8.9090004 -4.4710002 0.85399997
8.8959999 -4.4819999 0.82300001
8.8660002 -4.5079999 0.792
8.823 -4.5450001 0.76200002
8.7959995 -4.5679998 0.73199999
8.7650003 -4.5939999 0.70099998
9.2030001 -4.224 0.064000003
9.2329998 -4.198 0.033
9.3009996 -4.1729999 2.9189999
9.3039999 -4.1700001 2.8859999
9.3079996 -4.1669998 2.8540001
9.3190002 -4.158 2.8199999
9.3039999 -4.171 2.7920001
9.3050003 -4.1700001 2.76
9.309 -4.1669998 2.7279999
9.3129997 -4.164 2.6960001
9.2939997 -4.1789999 2.668
9.2950001 -4.1789999 2.6370001
9.2729998 -4.197 2.609
9.2480001 -4.2199998 2.582
9.1990004 -4.2610002 2.5599999
9.1730003 -4.283 2.533
9.1379995 -4.3130002 2.507
9.0109997 -4.4260001 1.228
8.9809999 -4.4510002 1.198
8.9980001 -4.4369998 1.166
8.9890003 -4.4439998 1.135
8.9770002 -4.4549999 1.104
8.9709997 -4.46 1.073
8.9849997 -4.448 1.04
8.9689999 -4.4619999 1.01
8.96 -4.4689999 0.97899997
8.967 -4.4640002 0.94700003
8.9429998 -4.4840002 0.91600001
8.9420004 -4.4850001 0.88499999
8.9180002 -4.506 0.85399997
8.8879995 -4.5320001 0.824
8.8520002 -4.5619998 0.79400003
8.8059998 -4.6009998 0.764
9.2159996 -4.2529998 0.094999999
9.2449999 -4.2280002 0.064000003
9.2609997 -4.2150002 0.033
9.3009996 -4.2140002 2.891
9.3170004 -4.1999998 2.8559999
9.3100004 -4.2059999 2.826
9.3100004 -4.2059999 2.7950001
9.3129997 -4.204 2.763
9.3070002 -4.2090001 2.733
9.2880001 -4.2249999 2.7049999
9.2930002 -4.2210002 2.6719999
9.2969999 -4.2179999 2.6400001
9.2939997 -4.2210002 2.609
9.283 -4.23 2.5799999
9.2489996 -4.2589998 2.5539999
9.2159996 -4.2870002 2.529
9.1829996 -4.316 2.503
9.1379995 -4.3540001 2.4790001
9.0979996 -4.388 2.454
9.0430002 -4.4390001 1.258
9.0439997 -4.4390001 1.227
9.0430002 -4.4400001 1.1950001
9.0340004 -4.448 1.165
9.0249996 -4.4549999 1.1339999
9.0159998 -4.4629998 1.103
9.0220003 -4.4580002 1.071
9.0290003 -4.4520001 1.039
9.0089998 -4.4699998 1.0089999
9.007 -4.4710002 0.977
8.9989996 -4.4780002 0.94599998
8.9639997 -4.5079999 0.91600001
8.9399996 -4.5289998 0.88599998
8.9090004 -4.5549998 0.85600001
8.8590002 -4.598 0.82700002
8.8339996 -4.619 0.796
9.2049999 -4.3039999 0.15700001
9.2349997 -4.2779999 0.126
9.2690001 -4.2490001 0.094999999
9.2910004 -4.23 0.064000003
9.3100004 -4.2129998 0.033
9.1470003 -4.3860002 2.9909999
9.1669998 -4.368 2.9549999
9.1540003 -4.3800001 2.9260001
9.1059999 -4.421 2.904
9.3039999 -4.2509999 2.832
9.3070002 -4.2490001 2.799
9.3109999 -4.2449999 2.767
9.2969999 -4.257 2.7379999
9.3009996 -4.2540002 2.7060001
9.3009996 -4.2540002 2.675
9.2980003 -4.257 2.6440001
9.2910004 -4.263 2.6129999
9.2910004 -4.263 2.582
9.2919998 -4.263 2.55
9.2659998 -4.2849998 2.523
9.2180004 -4.3270001 2.5
9.1999998 -4.342 2.4719999
9.1409998 -4.3940001 2.451
9.125 -4.4070001 2.4219999
9.1020002 -4.4289999 1.318
9.0939999 -4.4369998 1.2869999
9.0959997 -4.4349999 1.256
9.0830002 -4.4460001 1.225
9.0780001 -4.4499998 1.194
9.0769997 -4.4520001 1.163
9.0749998 -4.4530001 1.132
9.0699997 -4.4569998 1.1
9.0649996 -4.4619999 1.069
9.0640001 -4.4629998 1.038
9.0629997 -4.4640002 1.006
9.033 -4.4899998 0.977
8.9849997 -4.5310001 0.94800001
8.9460001 -4.5650001 0.91900003
8.9160004 -4.5910001 0.889
8.8859997 -4.6170001 0.85799998
9.1960001 -4.3520002 0.219
9.2250004 -4.3270001 0.18799999
9.2550001 -4.3010001 0.15700001
9.2819996 -4.2779999 0.126
9.3050003 -4.2589998 0.094999999
9.3339996 -4.2340002 0.064000003
9.3459997 -4.224 0.033
9.1850004 -4.395 2.9879999
9.177 -4.401 2.957
9.1920004 -4.388 2.9219999
9.1890001 -4.3920002 2.891
9.1850004 -4.395 2.8599999
9.2600002 -4.3299999 2.813
9.3050003 -4.2909999 2.7720001
9.3170004 -4.2820001 2.7390001
9.3059998 -4.2909999 2.7090001
9.2880001 -4.3070002 2.681
9.3030005 -4.2940001 2.6470001
9.2930002 -4.302 2.6170001
9.2889996 -4.3060002 2.586
9.2930002 -4.302 2.5539999
9.29 -4.3049998 2.523
9.2679996 -4.3239999 2.4949999
9.2270002 -4.3590002 2.471
9.2019997 -4.381 2.444
9.1700001 -4.4089999 2.4170001
9.151 -4.4250002 2.3889999
9.1630001 -4.415 2.355
9.1569996 -4.4200001 2.3239999
9.1569996 -4.4200001 2.293
9.1599998 -4.4180002 2.26
9.1560001 -4.421 2.2290001
9.1569996 -4.4200001 2.198
9.151 -4.4260001 2.1670001
9.1549997 -4.4219999 2.135
9.1700001 -4.4089999 2.1010001
9.177 -4.4039998 2.0680001
9.165 -4.414 2.0380001
9.1680002 -4.4120002 2.006
9.1459999 -4.4310002 1.978
9.1479998 -4.4310002 1.3789999
9.1400003 -4.4380002 1.348
9.1499996 -4.4299998 1.316
9.1289997 -4.447 1.286
9.1280003 -4.4489999 1.255
9.1230001 -4.4530001 1.224
9.1070004 -4.467 1.194
9.1160002 -4.4590001 1.1619999
9.1110001 -4.4640002 1.131
9.1029997 -4.4710002 1.1
9.0860004 -4.4850001 1.069
9.0839996 -4.487 1.038
9.0450001 -4.52 1.0089999
9.0059996 -4.5539999 0.98000002
8.9639997 -4.5900002 0.95099998
8.9350004 -4.6149998 0.921
9.2180004 -4.3720002 0.28200001
9.2180004 -4.3730001 0.25
9.2480001 -4.3470001 0.219
9.2790003 -4.3210001 0.18799999
9.3009996 -4.3010001 0.15700001
9.3170004 -4.2880001 0.126
9.3540001 -4.256 0.094999999
9.3389997 -4.2690001 0.064000003
9.3610001 -4.25 0.034000002
9.2349997 -4.3920002 2.9820001
9.2349997 -4.3920002 2.95
9.2419996 -4.3860002 2.9159999
9.2349997 -4.3920002 2.8859999
9.2309999 -4.395 2.855
9.2279997 -4.3979998 2.8239999
9.243 -4.3850002 2.789
9.3070002 -4.3299999 2.7449999
9.2919998 -4.3429999 2.7160001
9.3070002 -4.3299999 2.681
9.3039999 -4.3330002 2.6500001
9.2930002 -4.342 2.6210001
9.2860003 -4.348 2.5899999
9.2980003 -4.3379998 2.5569999
9.2910004 -4.3439999 2.526
9.2880001 -4.3470001 2.4949999
9.2810001 -4.3530002 2.4649999
9.2519999 -4.3779998 2.4389999
9.2119999 -4.4130001 2.414
9.2130003 -4.4120002 2.382
9.2019997 -4.421 2.352
9.1929998 -4.4299998 2.322
9.191 -4.4320002 2.2909999
9.1850004 -4.4369998 2.26
9.1949997 -4.428 2.227
9.1820002 -4.4400001 2.197
9.1940002 -4.4289999 2.164
9.1759996 -4.4439998 2.135
9.198 -4.4250002 2.0999999
9.1969995 -4.427 2.0680001
9.1929998 -4.4299998 2.0369999
9.198 -4.4260001 2.0050001
9.1879997 -4.434 1.975
9.1870003 -4.4349999 1.943
9.2040005 -4.4219999 1.91
9.1800003 -4.4429998 1.881
9.1800003 -4.4429998 1.85
9.1929998 -4.4320002 1.817
9.184 -4.4390001 1.786
9.177 -4.4450002 1.756
9.1709995 -4.4510002 1.725
9.184 -4.4400001 1.692
9.1780005 -4.4450002 1.661
9.1789999 -4.4439998 1.6289999
9.1750002 -4.448 1.598
9.1700001 -4.4520001 1.568
9.1780005 -4.4450002 1.535
9.1890001 -4.4359999 1.503
9.1809998 -4.4429998 1.472
9.1739998 -4.4489999 1.441
9.1920004 -4.4330001 1.408
9.1800003 -4.4429998 1.378
9.1750002 -4.448 1.347
9.177 -4.4460001 1.3150001
9.1719999 -4.4510002 1.284
9.1669998 -4.4559999 1.2539999
9.1610003 -4.46 1.223
9.1639996 -4.4580002 1.191
9.1549997 -4.4660001 1.16
9.1540003 -4.467 1.1289999
9.1409998 -4.4780002 1.098
9.0979996 -4.5149999 1.0700001
9.0819998 -4.5289998 1.04
9.0279999 -4.5760002 1.012
8.9919996 -4.6069999 0.98199999
9.1949997 -4.4330001 0.31299999
9.2309999 -4.402 0.28200001
9.2720003 -4.3660002 0.25
9.2799997 -4.3600001 0.219
9.3219995 -4.3249998 0.18799999
9.3330002 -4.3150001 0.15700001
9.3470001 -4.303 0.126
9.3470001 -4.303 0.094999999
9.3739996 -4.2800002 0.064000003
9.3739996 -4.2800002 0.034000002
9.2770004 -4.3959999 2.977
9.2849998 -4.3899999 2.9430001
9.2810001 -4.3930001 2.9119999
9.2740002 -4.4000001 2.882
9.2849998 -4.3899999 2.848
9.2709999 -4.4029999 2.819
9.2670002 -4.4060001 2.7880001
9.2709999 -4.402 2.756
9.2939997 -4.3829999 2.7190001
9.283 -4.3920002 2.6900001
9.2869997 -4.3889999 2.6570001
9.302 -4.375 2.6229999
9.2950001 -4.382 2.5929999
9.2849998 -4.3909998 2.563
9.2889996 -4.3870001 2.5309999
9.2819996 -4.3930001 2.5
9.29 -4.3860002 2.467
9.2799997 -4.3959999 2.437
9.2539997 -4.4180002 2.4100001
9.2550001 -4.4169998 2.378
9.2539997 -4.4180002 2.3469999
9.2489996 -4.4219999 2.316
9.2580004 -4.415 2.283
9.2419996 -4.4299998 2.2539999
9.2600002 -4.414 2.22
9.243 -4.4289999 2.191
9.2510004 -4.4219999 2.158
9.2390003 -4.4330001 2.1289999
9.2349997 -4.4359999 2.0969999
9.2399998 -4.4320002 2.0650001
9.2379999 -4.434 2.0339999
9.2250004 -4.4450002 2.0039999
9.2250004 -4.4450002 1.973
9.2349997 -4.4369998 1.9400001
9.2279997 -4.4429998 1.909
9.2150002 -4.454 1.88
9.217 -4.4530001 1.848
9.2229996 -4.447 1.816
9.2379999 -4.434 1.7819999
9.2220001 -4.448 1.753
9.2259998 -4.4450002 1.721
9.2229996 -4.447 1.6900001
9.2220001 -4.448 1.659
9.2309999 -4.4400001 1.626
9.2250004 -4.4460001 1.595
9.2229996 -4.448 1.564
9.2209997 -4.4489999 1.533
9.2189999 -4.4510002 1.502
9.2320004 -4.4400001 1.469
9.2379999 -4.4349999 1.437
9.2290001 -4.4429998 1.4069999
9.224 -4.448 1.376
9.2449999 -4.4289999 1.3430001
9.2200003 -4.4499998 1.314
9.2150002 -4.4549999 1.283
9.21 -4.46 1.252
9.198 -4.4699998 1.221
9.1960001 -4.4720001 1.1900001
9.198 -4.4699998 1.159
9.1890001 -4.4780002 1.128
9.1929998 -4.474 1.096
9.1890001 -4.4780002 1.0650001
9.1820002 -4.4840002 1.034
9.1920004 -4.4759998 1.002
9.1940002 -4.474 0.97100002
9.1820002 -4.4840002 0.94
9.1960001 -4.4720001 0.90799999
9.1969995 -4.4720001 0.87699997
9.1870003 -4.4809999 0.84600002
9.1859999 -4.4809999 0.815
9.1870003 -4.48 0.78299999
9.1969995 -4.4720001 0.75199997
9.1820002 -4.4840002 0.72100002
9.1960001 -4.473 0.68900001
9.1859999 -4.4809999 0.65799999
9.1949997 -4.4749999 0.59500003
9.1949997 -4.4749999 0.56400001
9.1949997 -4.4749999 0.53299999
9.1429996 -4.52 0.50300002
9.2010002 -4.4699998 0.47
9.1859999 -4.4829998 0.40799999
9.1639996 -4.5019999 0.377
9.2189999 -4.454 0.345
9.2670002 -4.4130001 0.31299999
9.2930002 -4.3899999 0.28099999
9.3039999 -4.3800001 0.25
9.3269997 -4.3610001 0.219
9.3459997 -4.3449998 0.18799999
9.3610001 -4.3319998 0.15700001
9.368 -4.3260002 0.126
9.3789997 -4.316 0.094999999
9.3859997 -4.3099999 0.064999998
9.3649998 -4.3280001 0.034000002
9.323 -4.3990002 2.9719999
9.3199997 -4.401 2.9400001
9.3280001 -4.3940001 2.9070001
9.3240004 -4.3969998 2.8759999
9.3210001 -4.4000001 2.845
9.3210001 -4.4000001 2.813
9.3290005 -4.3940001 2.78
9.3140001 -4.4070001 2.7509999
9.3100004 -4.4099998 2.72
9.3179998 -4.4029999 2.687
9.3219995 -4.3990002 2.655
9.3120003 -4.4089999 2.625
9.3009996 -4.4180002 2.595
9.3129997 -4.4070001 2.562
9.3039999 -4.4159999 2.5320001
9.3000002 -4.4190001 2.5009999
9.3039999 -4.4159999 2.4679999
9.302 -4.4169998 2.437
9.3059998 -4.414 2.405
9.3030005 -4.4169998 2.3740001
9.3030005 -4.4169998 2.342
9.3039999 -4.4159999 2.3110001
9.3009996 -4.4190001 2.28
9.2869997 -4.4310002 2.25
9.3030005 -4.4169998 2.2160001
9.2969999 -4.4229999 2.1860001
9.2969999 -4.4219999 2.154
9.3059998 -4.415 2.122
9.2880001 -4.4299998 2.0929999
9.2930002 -4.4260001 2.0610001
9.2869997 -4.4320002 2.03
9.2729998 -4.4439998 2.0009999
9.2889996 -4.4289999 1.967
9.2720003 -4.4450002 1.938
9.2749996 -4.4419999 1.906
9.283 -4.4349999 1.873
9.2629995 -4.4530001 1.845
9.2720003 -4.4450002 1.812
9.2729998 -4.4439998 1.781
9.2679996 -4.4489999 1.75
9.283 -4.4359999 1.717
9.2700005 -4.447 1.687
9.2650003 -4.4510002 1.656
9.2530003 -4.4619999 1.626
9.2819996 -4.4359999 1.591
9.2729998 -4.4450002 1.561
9.2790003 -4.4400001 1.529
9.2889996 -4.4320002 1.497
9.2869997 -4.434 1.466
9.2770004 -4.4419999 1.4349999
9.276 -4.4429998 1.404
9.2740002 -4.4450002 1.373
9.2650003 -4.4530001 1.3430001
9.2559996 -4.461 1.312
9.2539997 -4.4619999 1.281
9.2379999 -4.4770002 1.251
9.2360001 -4.4780002 1.22
9.2469997 -4.4689999 1.188
9.2519999 -4.4640002 1.156
9.2320004 -4.4819999 1.126
9.2460003 -4.4699998 1.094
9.2399998 -4.4759998 1.063
9.2410002 -4.4749999 1.0319999
9.2329998 -4.4819999 1.001
9.2279997 -4.4860001 0.97000003
9.2200003 -4.493 0.93900001
9.2220001 -4.4910002 0.90799999
9.2250004 -4.4889998 0.87599999
9.224 -4.4889998 0.84500003
9.2220001 -4.4910002 0.81400001
9.2259998 -4.4879999 0.78299999
9.2250004 -4.4889998 0.75099999
9.2139997 -4.4990001 0.72100002
9.1999998 -4.5110002 0.69
9.2220001 -4.4920001 0.65799999
9.2049999 -4.506 0.59600002
9.2139997 -4.4990001 0.56400001
9.2159996 -4.4970002 0.53299999
9.2180004 -4.4949999 0.50099999
9.2180004 -4.4949999 0.47
9.2139997 -4.4990001 0.43900001
9.2209997 -4.493 0.40799999
9.2510004 -4.467 0.37599999
9.302 -4.4219999 0.34400001
9.302 -4.4229999 0.31299999
9.3170004 -4.4099998 0.28099999
9.3389997 -4.3899999 0.25
9.3579998 -4.3740001 0.219
9.3649998 -4.3670001 0.18799999
9.3769999 -4.3579998 0.15700001
9.3730001 -4.3610001 0.126
9.3870001 -4.349 0.094999999
9.3649998 -4.368 0.064000003
9.3870001 -4.349 0.034000002
9.3649998 -4.4029999 2.967
9.3520002 -4.414 2.938
9.3669996 -4.401 2.9030001
9.3669996 -4.401 2.872
9.3559999 -4.4109998 2.842
9.3640003 -4.4039998 2.809
9.3529997 -4.414 2.78
9.3570004 -4.4109998 2.747
9.3459997 -4.4200001 2.7179999
9.3459997 -4.4200001 2.6860001
9.3620005 -4.4060001 2.651
9.3479996 -4.4190001 2.622
9.3450003 -4.421 2.5910001
9.3380003 -4.427 2.5610001
9.3380003 -4.427 2.529
9.3430004 -4.4229999 2.497
9.3319998 -4.4330001 2.467
9.3299999 -4.434 2.4360001
9.3269997 -4.4369998 2.405
9.3389997 -4.4260001 2.3710001
9.3360004 -4.4299998 2.3399999
9.3369999 -4.4289999 2.309
9.3400002 -4.4260001 2.277
9.3269997 -4.4380002 2.247
9.3310003 -4.4349999 2.2149999
9.3389997 -4.427 2.1830001
9.3299999 -4.4349999 2.1530001
9.3260002 -4.4380002 2.122
9.3310003 -4.434 2.0899999
9.3290005 -4.4359999 2.059
9.3339996 -4.4320002 2.026
9.3280001 -4.4369998 1.9960001
9.3109999 -4.4520001 1.967
9.3170004 -4.447 1.9349999
9.3179998 -4.4460001 1.903
9.3190002 -4.4460001 1.872
9.3210001 -4.4439998 1.84
9.3039999 -4.4590001 1.811
9.3050003 -4.4569998 1.779
9.3070002 -4.4569998 1.748
9.3079996 -4.4559999 1.716
9.3170004 -4.4489999 1.684
9.3260002 -4.441 1.652
9.3170004 -4.448 1.6210001
9.309 -4.4559999 1.591
9.316 -4.4489999 1.559
9.3149996 -4.4510002 1.528
9.3170004 -4.4489999 1.4960001
9.3219995 -4.4439998 1.464
9.335 -4.4330001 1.432
9.3260002 -4.441 1.402
9.3389997 -4.4299998 1.369
9.3280001 -4.4400001 1.339
9.3319998 -4.4359999 1.308
9.2819996 -4.4790001 1.281
9.3000002 -4.4640002 1.248
9.2950001 -4.4689999 1.217
9.2910004 -4.4720001 1.186
9.3070002 -4.4580002 1.154
9.2939997 -4.4689999 1.123
9.2889996 -4.474 1.0930001
9.2840004 -4.4780002 1.062
9.283 -4.4790001 1.031
9.2860003 -4.4770002 0.99900001
9.2749996 -4.4860001 0.96899998
9.2740002 -4.487 0.93699998
9.2650003 -4.4949999 0.90700001
9.2670002 -4.493 0.875
9.2600002 -4.5 0.84500003
9.276 -4.4860001 0.81199998
9.2580004 -4.5009999 0.78200001
9.2790003 -4.4840002 0.75
9.2740002 -4.4879999 0.71899998
9.257 -4.5029998 0.68800002
9.2609997 -4.4990001 0.65700001
9.2600002 -4.5 0.59500003
9.2600002 -4.5 0.56300002
9.2589998 -4.5009999 0.53200001
9.2510004 -4.5079999 0.50099999
9.2559996 -4.5040002 0.47
9.2539997 -4.506 0.43900001
9.2679996 -4.494 0.40700001
9.2930002 -4.4720001 0.375
9.323 -4.4460001 0.34400001
9.3299999 -4.4390001 0.31299999
9.3409996 -4.4299998 0.28200001
9.3599997 -4.414 0.25
9.368 -4.408 0.219
9.375 -4.401 0.18799999
9.382 -4.395 0.15700001
9.3669996 -4.408 0.126
9.375 -4.401 0.094999999
9.3640003 -4.4109998 0.064000003
9.375 -4.401 0.034000002
9.3909998 -4.421 2.9660001
9.3809996 -4.4310002 2.937
9.3879995 -4.4239998 2.9030001
9.3909998 -4.421 2.8710001
9.3900003 -4.4229999 2.8399999
9.3859997 -4.4260001 2.809
9.3959999 -4.4180002 2.7750001
9.3959999 -4.4180002 2.744
9.3710003 -4.4400001 2.717
9.3900003 -4.4229999 2.6819999
9.3760004 -4.4349999 2.6530001
9.3940001 -4.4190001 2.618
9.3920002 -4.4219999 2.586
9.3979998 -4.4159999 2.5539999
9.3940001 -4.421 2.523
9.382 -4.4310002 2.494
9.3970003 -4.4180002 2.46
9.3979998 -4.4180002 2.428
9.3730001 -4.4390001 2.401
9.3920002 -4.4229999 2.3659999
9.3889999 -4.4260001 2.335
9.3859997 -4.428 2.3039999
9.3800001 -4.434 2.2739999
9.3879995 -4.427 2.2409999
9.3780003 -4.4359999 2.211
9.3789997 -4.4349999 2.1800001
9.3839998 -4.4310002 2.148
9.382 -4.4320002 2.1170001
9.3719997 -4.441 2.0869999
9.3769999 -4.4369998 2.0550001
9.3660002 -4.4460001 2.0250001
9.3710003 -4.4419999 1.993
9.3830004 -4.4320002 1.96
9.375 -4.4390001 1.9299999
9.3540001 -4.4569998 1.901
9.3590002 -4.4530001 1.869
9.3669996 -4.4460001 1.837
9.3669996 -4.4450002 1.806
9.3599997 -4.4520001 1.775
9.3459997 -4.4640002 1.7460001
9.3559999 -4.4559999 1.7130001
9.375 -4.4390001 1.6799999
9.3640003 -4.448 1.65
9.3500004 -4.461 1.62
9.3529997 -4.4580002 1.5880001
9.3590002 -4.4530001 1.556
9.3540001 -4.4580002 1.526
9.3509998 -4.46 1.495
9.3610001 -4.4520001 1.4630001
9.3669996 -4.447 1.431
9.3649998 -4.448 1.4
9.3780003 -4.4369998 1.368
9.3579998 -4.4549999 1.3380001
9.3710003 -4.4429998 1.306
9.3620005 -4.4510002 1.276
9.3529997 -4.4590001 1.245
9.3369999 -4.473 1.215
9.3319998 -4.4770002 1.1849999
9.342 -4.4679999 1.153
9.3369999 -4.474 1.122
9.3389997 -4.4720001 1.091
9.3319998 -4.4780002 1.0599999
9.316 -4.4920001 1.03
9.3109999 -4.4970002 0.99900001
9.3100004 -4.4970002 0.96799999
9.3210001 -4.4889998 0.93599999
9.3299999 -4.4809999 0.90399998
9.3140001 -4.494 0.87400001
9.3109999 -4.4970002 0.84299999
9.3179998 -4.4920001 0.81099999
9.316 -4.493 0.77999997
9.3140001 -4.4949999 0.74900001
9.316 -4.493 0.71799999
9.3299999 -4.4809999 0.68599999
9.3179998 -4.4910002 0.65600002
9.3070002 -4.5009999 0.59399998
9.2969999 -4.5100002 0.56300002
9.3070002 -4.5019999 0.53100002
9.3030005 -4.5050001 0.5
9.2980003 -4.5089998 0.46900001
9.3039999 -4.5040002 0.43799999
9.3000002 -4.5079999 0.40700001
9.3290005 -4.4829998 0.375
9.3360004 -4.4759998 0.34400001
9.3470001 -4.467 0.31299999
9.3430004 -4.4699998 0.28200001
9.3620005 -4.454 0.25099999
9.3690004 -4.448 0.22
9.3730001 -4.4439998 0.18799999
9.3579998 -4.4580002 0.15800001
9.3649998 -4.4510002 0.127
9.3649998 -4.4510002 0.096000001
9.3730001 -4.4450002 0.064999998
9.3540001 -4.461 0.033
9.3859997 -4.4679999 2.9719999
9.3929996 -4.461 2.938
9.3730001 -4.4790001 2.911
9.3870001 -4.467 2.8759999
9.3900003 -4.4640002 2.8440001
9.3940001 -4.461 2.8110001
9.3870001 -4.467 2.7809999
9.3789997 -4.474 2.7509999
9.3940001 -4.46 2.7160001
9.3909998 -4.4629998 2.6849999
9.3990002 -4.4569998 2.652
9.3920002 -4.4629998 2.622
9.3959999 -4.4590001 2.5899999
9.3970003 -4.4590001 2.5580001
9.401 -4.4549999 2.526
9.3940001 -4.461 2.4949999
9.3950005 -4.461 2.464
9.3950005 -4.46 2.4319999
9.3999996 -4.4559999 2.4000001
9.3859997 -4.4689999 2.3710001
9.3979998 -4.4580002 2.3369999
9.3959999 -4.46 2.306
9.4069996 -4.4499998 2.273
9.3889999 -4.4660001 2.244
9.4130001 -4.4450002 2.2090001
9.3909998 -4.4640002 2.181
9.4180002 -4.441 2.1459999
9.408 -4.4489999 2.1159999
9.4069996 -4.4510002 2.085
9.4029999 -4.454 2.0539999
9.4119997 -4.447 2.0209999
9.4209995 -4.4390001 1.989
9.408 -4.4510002 1.959
9.401 -4.4569998 1.929
9.4060001 -4.4530001 1.897
9.4040003 -4.4549999 1.8660001
9.3979998 -4.46 1.836
9.4069996 -4.4520001 1.803
9.4119997 -4.448 1.771
9.4060001 -4.4530001 1.7410001
9.415 -4.4450002 1.709
9.4060001 -4.4530001 1.679
9.3999996 -4.4580002 1.648
9.3889999 -4.4679999 1.618
9.3839998 -4.473 1.587
9.3879995 -4.4689999 1.556
9.3830004 -4.474 1.525
9.3950005 -4.4629998 1.493
9.382 -4.4749999 1.4630001
9.3870001 -4.4699998 1.431
9.4130001 -4.447 1.397
9.4020004 -4.4569998 1.367
9.408 -4.4520001 1.336
9.4029999 -4.4559999 1.3049999
9.4020004 -4.4580002 1.274
9.408 -4.4520001 1.242
9.3760004 -4.48 1.214
9.3699999 -4.4860001 1.183
9.368 -4.487 1.152
9.3640003 -4.4910002 1.122
9.3690004 -4.4860001 1.09
9.3760004 -4.4809999 1.058
9.3699999 -4.4860001 1.028
9.3660002 -4.4899998 0.99699998
9.3610001 -4.494 0.96600002
9.3599997 -4.4949999 0.935
9.3520002 -4.5019999 0.90399998
9.3559999 -4.4980001 0.87300003
9.3570004 -4.4980001 0.84200001
9.349 -4.5050001 0.81099999
9.3470001 -4.507 0.77999997
9.3529997 -4.5009999 0.74900001
9.3459997 -4.5079999 0.71799999
9.3509998 -4.5029998 0.68599999
9.3500004 -4.5040002 0.65499997
9.335 -4.5170002 0.59399998
9.3430004 -4.5100002 0.56199998
9.3479996 -4.506 0.53100002
9.3360004 -4.5159998 0.5
9.3520002 -4.5029998 0.46900001
9.3360004 -4.5170002 0.43799999
9.3430004 -4.5110002 0.40700001
9.349 -4.5050001 0.375
9.3599997 -4.4959998 0.34400001
9.375 -4.4829998 0.31299999
9.3629999 -4.493 0.28200001
9.3629999 -4.493 0.25099999
9.3629999 -4.493 0.22
9.3629999 -4.493 0.189
9.3509998 -4.5029998 0.15800001
9.3509998 -4.5040002 0.127
9.3629999 -4.494 0.096000001
9.3520002 -4.5040002 0.064000003
9.3479996 -4.507 0.033
9.3789997 -4.5149999 2.9779999
9.3660002 -4.527 2.9489999
9.3889999 -4.507 2.9119999
9.3719997 -4.5209999 2.8840001
9.3649998 -4.5279999 2.8529999
9.3719997 -4.5219998 2.8199999
9.368 -4.5250001 2.789
9.3669996 -4.526 2.7579999
9.3739996 -4.52 2.724
9.3780003 -4.5159998 2.6919999
9.3830004 -4.5120001 2.6589999
9.3920002 -4.5050001 2.6259999
9.3850002 -4.5110002 2.596
9.3669996 -4.527 2.5669999
9.3780003 -4.5170002 2.5339999
9.3780003 -4.5170002 2.5020001
9.3929996 -4.5040002 2.4679999
9.368 -4.5250001 2.4400001
9.3950005 -4.5019999 2.404
9.3800001 -4.5149999 2.375
9.3959999 -4.5009999 2.3410001
9.382 -4.5139999 2.312
9.3870001 -4.5100002 2.28
9.3990002 -4.4990001 2.2460001
9.3929996 -4.5040002 2.2160001
9.3909998 -4.506 2.184
9.3979998 -4.5 2.152
9.4139996 -4.4860001 2.118
9.4110003 -4.4879999 2.0869999
9.4130001 -4.487 2.056
9.4029999 -4.4959998 2.026
9.408 -4.4910002 1.994
9.3990002 -4.4990001 1.9630001
9.4099998 -4.4889998 1.931
9.4119997 -4.4879999 1.899
9.4200001 -4.4809999 1.867
9.4069996 -4.4920001 1.837
9.408 -4.4920001 1.806
9.4169998 -4.4840002 1.773
9.4189997 -4.4819999 1.742
9.4169998 -4.4840002 1.711
9.4069996 -4.493 1.681
9.4320002 -4.4720001 1.647
9.4069996 -4.493 1.618
9.4130001 -4.4889998 1.587
9.4110003 -4.4899998 1.556
9.4300003 -4.474 1.522
9.4169998 -4.4850001 1.493
9.4239998 -4.4790001 1.461
9.4230003 -4.48 1.4299999
9.4169998 -4.4850001 1.399
9.4530001 -4.454 1.365
9.448 -4.4580002 1.334
9.4499998 -4.4559999 1.303
9.4449997 -4.461 1.272
9.4469995 -4.4590001 1.2410001
9.4449997 -4.461 1.21
9.4510002 -4.4549999 1.179
9.4200001 -4.4829998 1.15
9.4110003 -4.4910002 1.12
9.4040003 -4.4970002 1.089
9.4139996 -4.4879999 1.057
9.4200001 -4.4840002 1.026
9.4069996 -4.494 0.99599999
9.408 -4.494 0.96399999
9.3900003 -4.5100002 0.93400002
9.408 -4.494 0.90200001
9.3970003 -4.5040002 0.87199998
9.3870001 -4.5120001 0.84100002
9.3990002 -4.5019999 0.81
9.3889999 -4.5110002 0.77899998
9.3789997 -4.52 0.74800003
9.3889999 -4.5110002 0.71700001
9.3859997 -4.5139999 0.68599999
9.382 -4.5170002 0.59299999
9.3800001 -4.5190001 0.56199998
9.3859997 -4.5139999 0.53100002
9.3769999 -4.5219998 0.5
9.3830004 -4.5170002 0.46799999
9.3780003 -4.5209999 0.43799999
9.3830004 -4.5170002 0.40599999
9.3690004 -4.5289998 0.37599999
9.3780003 -4.5209999 0.34400001
9.3920002 -4.5089998 0.31299999
9.368 -4.5300002 0.28200001
9.3739996 -4.5250001 0.25099999
9.3730001 -4.526 0.22
9.3800001 -4.52 0.189
9.368 -4.5300002 0.15800001
9.3719997 -4.527 0.127
9.3649998 -4.533 0.096000001
9.3629999 -4.5349998 0.064999998
9.3620005 -4.5359998 0.033
9.3640003 -4.5700002 2.9849999
9.3739996 -4.5619998 2.951
9.3620005 -4.572 2.9219999
9.3760004 -4.5599999 2.8870001
9.3730001 -4.5619998 2.8559999
9.3730001 -4.5630002 2.8239999
9.3719997 -4.5630002 2.793
9.3620005 -4.572 2.763
9.3850002 -4.552 2.7260001
9.3669996 -4.5679998 2.698
9.375 -4.5609999 2.665
9.3800001 -4.5570002 2.632
9.3769999 -4.5599999 2.6010001
9.3640003 -4.5710001 2.572
9.3660002 -4.5689998 2.54
9.3690004 -4.5669999 2.507
9.3570004 -4.5770001 2.4779999
9.368 -4.5669999 2.444
9.3870001 -4.5510001 2.4089999
9.3760004 -4.5609999 2.3800001
9.382 -4.5560002 2.3469999
9.3780003 -4.559 2.316
9.3760004 -4.5609999 2.2850001
9.4020004 -4.5380001 2.2490001
9.3909998 -4.5479999 2.2190001
9.3879995 -4.5500002 2.188
9.3970003 -4.5419998 2.155
9.3990002 -4.5409999 2.1240001
9.3990002 -4.5409999 2.092
9.401 -4.539 2.0599999
9.408 -4.5320001 2.0280001
9.4040003 -4.5370002 1.997
9.4110003 -4.5300002 1.965
9.3979998 -4.5419998 1.9349999
9.3920002 -4.5469999 1.905
9.3970003 -4.5419998 1.872
9.3979998 -4.5419998 1.841
9.3859997 -4.552 1.811
9.3979998 -4.5419998 1.778
9.4099998 -4.5310001 1.7460001
9.3970003 -4.5430002 1.716
9.4020004 -4.5380001 1.684
9.3970003 -4.5430002 1.653
9.4099998 -4.533 1.62
9.3950005 -4.546 1.591
9.4130001 -4.5300002 1.558
9.4189997 -4.5250001 1.526
9.4130001 -4.5300002 1.495
9.4200001 -4.5240002 1.4630001
9.4209995 -4.5229998 1.432
9.4230003 -4.5219998 1.401
9.4440002 -4.5029998 1.368
9.4720001 -4.4780002 1.334
9.4849997 -4.4660001 1.302
9.474 -4.4759998 1.272
9.4899998 -4.4629998 1.239
9.4849997 -4.467 1.209
9.4870005 -4.4650002 1.177
9.4860001 -4.4660001 1.147
9.4779997 -4.474 1.1160001
9.4309998 -4.5149999 1.089
9.408 -4.5349998 1.059
9.4250002 -4.5209999 1.027
9.4230003 -4.5219998 0.99599999
9.4189997 -4.526 0.96499997
9.4180002 -4.526 0.93400002
9.4250002 -4.5209999 0.903
9.4189997 -4.526 0.87199998
9.4189997 -4.526 0.84100002
9.4219999 -4.5229998 0.81
9.4209995 -4.5240002 0.77899998
9.434 -4.5120001 0.74699998
9.4259996 -4.52 0.71600002
9.4219999 -4.5240002 0.685
9.4239998 -4.5219998 0.59200001
9.4379997 -4.5100002 0.56099999
9.415 -4.5300002 0.52999997
9.4250002 -4.5209999 0.49900001
9.4139996 -4.5300002 0.46799999
9.4280005 -4.5180001 0.43700001
9.4219999 -4.5240002 0.40599999
9.4099998 -4.5339999 0.375
9.4119997 -4.5320001 0.34400001
9.4309998 -4.5159998 0.31299999
9.4160004 -4.5300002 0.28200001
9.4060001 -4.5380001 0.25099999
9.4139996 -4.5310001 0.22
9.4139996 -4.5310001 0.189
9.4160004 -4.5300002 0.15800001
9.4049997 -4.539 0.127
9.4139996 -4.5320001 0.096000001
9.4049997 -4.539 0.064999998
9.4259996 -4.52 0.034000002
9.2749996 -4.691 2.977
9.2679996 -4.698 2.9460001
9.2679996 -4.697 2.914
9.2650003 -4.7010002 2.8829999
9.2639999 -4.7010002 2.8510001
9.2679996 -4.698 2.8180001
9.2790003 -4.6880002 2.783
9.276 -4.691 2.7520001
9.2729998 -4.6939998 2.721
9.2659998 -4.6999998 2.6900001
9.3579998 -4.618 2.608
9.3879995 -4.592 2.4760001
9.3719997 -4.6059999 2.447
9.3760004 -4.6030002 2.415
9.3850002 -4.5949998 2.382
9.3710003 -4.6069999 2.352
9.375 -4.6030002 2.3199999
9.3629999 -4.6139998 2.29
9.3780003 -4.5999999 2.256
9.3850002 -4.5939999 2.224
9.3789997 -4.5999999 2.1930001
9.3990002 -4.5830002 2.158
9.3850002 -4.5949998 2.1289999
9.3870001 -4.5929999 2.0969999
9.3950005 -4.586 2.0639999
9.3929996 -4.5879998 2.033
9.4020004 -4.5799999 2
9.3999996 -4.5819998 1.969
9.3920002 -4.5890002 1.939
9.3940001 -4.5869999 1.9069999
9.3889999 -4.592 1.876
9.3979998 -4.5840001 1.844
9.4099998 -4.573 1.811
9.3999996 -4.5819998 1.781
9.4020004 -4.5799999 1.749
9.3999996 -4.5819998 1.7180001
9.4130001 -4.5700002 1.6849999
9.3959999 -4.586 1.656
9.4160004 -4.5679998 1.622
9.4040003 -4.579 1.592
9.3909998 -4.5900002 1.562
9.3920002 -4.5900002 1.531
9.4139996 -4.5700002 1.497
9.4099998 -4.5739999 1.466
9.4020004 -4.5809999 1.436
9.408 -4.5760002 1.404
9.434 -4.553 1.37
9.4700003 -4.5209999 1.336
9.5129995 -4.4829998 1.301
9.5299997 -4.4679999 1.2690001
9.533 -4.4660001 1.237
9.5200005 -4.4770002 1.2079999
9.533 -4.4660001 1.176
9.5279999 -4.4699998 1.145
9.5270004 -4.4710002 1.114
9.5200005 -4.4770002 1.084
9.4879999 -4.506 1.0549999
9.4020004 -4.5819998 1.03
9.4139996 -4.572 0.99800003
9.4040003 -4.5809999 0.96700001
9.4160004 -4.5700002 0.93599999
9.4189997 -4.5669999 0.90399998
9.4069996 -4.5780001 0.87400001
9.4069996 -4.5780001 0.84299999
9.4099998 -4.5749998 0.81099999
9.4090004 -4.5760002 0.77999997
9.3970003 -4.5869999 0.75
9.408 -4.5780001 0.71799999
9.4239998 -4.5630002 0.68599999
9.4289999 -4.559 0.59299999
9.4280005 -4.559 0.56199998
9.4200001 -4.5669999 0.53100002
9.4420004 -4.5469999 0.49900001
9.4309998 -4.5580001 0.46799999
9.4189997 -4.5679998 0.43799999
9.434 -4.5549998 0.40599999
9.4259996 -4.5619998 0.375
9.4399996 -4.5489998 0.34400001
9.4200001 -4.5669999 0.31299999
9.4200001 -4.5669999 0.28200001
9.4169998 -4.5700002 0.25099999
9.4250002 -4.5630002 0.22
9.4289999 -4.559 0.189
9.4320002 -4.5570002 0.15800001
9.4250002 -4.5630002 0.127
9.4359999 -4.5539999 0.096000001
9.4429998 -4.5469999 0.064999998
9.4429998 -4.5469999 0.034000002
9.2670002 -4.7410002 2.983
9.2629995 -4.7449999 2.9519999
9.2700005 -4.7379999 2.918
9.2740002 -4.7350001 2.885
9.2790003 -4.7309999 2.852
9.2779999 -4.7309999 2.8199999
9.2659998 -4.7420001 2.79
9.3990002 -4.6240001 1.878
9.3859997 -4.6360002 1.848
9.3929996 -4.6300001 1.816
9.3879995 -4.6350002 1.785
9.3929996 -4.6300001 1.753
9.3859997 -4.6370001 1.722
9.3839998 -4.638 1.691
9.4049997 -4.6199999 1.6569999
9.4060001 -4.618 1.626
9.4040003 -4.6199999 1.595
9.4029999 -4.6220002 1.563
9.3979998 -4.6269999 1.533
9.4110003 -4.6160002 1.5
9.3990002 -4.6259999 1.47
9.3950005 -4.6300001 1.439
9.4020004 -4.6230001 1.4069999
9.4110003 -4.6149998 1.375
9.4610004 -4.5710001 1.339
9.5080004 -4.5289998 1.303
9.5360003 -4.5040002 1.27
9.5600004 -4.4829998 1.237
9.573 -4.4710002 1.205
9.5649996 -4.4790001 1.175
9.5780001 -4.467 1.143
9.566 -4.4780002 1.113
9.5640001 -4.4790001 1.082
9.5710001 -4.474 1.051
9.5579996 -4.4850001 1.021
9.415 -4.6129999 0.99900001
9.4090004 -4.618 0.96899998
9.4160004 -4.612 0.93699998
9.4180002 -4.6100001 0.90600002
9.4099998 -4.6170001 0.875
9.4130001 -4.6149998 0.84399998
9.415 -4.6129999 0.81199998
9.4180002 -4.6100001 0.78100002
9.4069996 -4.6199999 0.75
9.4169998 -4.6110001 0.71899998
9.3940001 -4.631 0.68800002
9.4200001 -4.6090002 0.59399998
9.427 -4.6030002 0.56300002
9.4189997 -4.6100001 0.53200001
9.4259996 -4.6040001 0.5
9.4180002 -4.6110001 0.46900001
9.4250002 -4.6040001 0.43799999
9.4169998 -4.612 0.40700001
9.4259996 -4.6040001 0.37599999
9.415 -4.6139998 0.345
9.4160004 -4.612 0.31400001
9.4209995 -4.6079998 0.28299999
9.4169998 -4.612 0.252
9.4200001 -4.6090002 0.22
9.4160004 -4.6129999 0.189
9.4259996 -4.6040001 0.15800001
9.4169998 -4.612 0.127
9.4309998 -4.5999999 0.096000001
9.4350004 -4.5970001 0.064999998
9.427 -4.6040001 0.034000002
9.2650003 -4.7839999 2.9879999
9.2659998 -4.7839999 2.9560001
9.2580004 -4.7909999 2.925
9.2690001 -4.7810001 2.891
9.2559996 -4.7940001 2.8610001
9.4890003 -4.5879998 1.307
9.5270004 -4.5539999 1.273
9.5699997 -4.5149999 1.238
9.5900002 -4.4970002 1.205
9.6070004 -4.4819999 1.173
9.6059999 -4.4829998 1.142
9.5970001 -4.4910002 1.112
9.6070004 -4.4819999 1.081
9.6059999 -4.4829998 1.05
9.6090002 -4.48 1.0190001
9.6040001 -4.4850001 0.98799998
9.5979996 -4.4899998 0.958
9.4069996 -4.6609998 0.93900001
9.3940001 -4.6729999 0.90799999
9.3979998 -4.6700001 0.87699997
9.3920002 -4.6750002 0.84600002
9.3950005 -4.6719999 0.81400001
9.3990002 -4.6690001 0.78299999
9.4040003 -4.665 0.75199997
9.3920002 -4.6750002 0.72100002
9.3990002 -4.6690001 0.68900001
9.4189997 -4.651 0.59500003
9.4119997 -4.6570001 0.56400001
9.3979998 -4.6700001 0.53299999
9.4069996 -4.6620002 0.50199997
9.4180002 -4.6529999 0.47
9.4200001 -4.6500001 0.43900001
9.4239998 -4.6469998 0.40799999
9.4160004 -4.6539998 0.377
9.4119997 -4.658 0.345
9.4370003 -4.6360002 0.31400001
9.4219999 -4.6490002 0.28299999
9.4160004 -4.6539998 0.252
9.4289999 -4.6420002 0.221
9.4230003 -4.6479998 0.189
9.4200001 -4.651 0.15800001
9.4200001 -4.651 0.127
9.4049997 -4.664 0.096000001
9.408 -4.6620002 0.064999998
9.4040003 -4.665 0.034000002
9.2580004 -4.8330002 2.9619999
9.2679996 -4.8239999 2.927
9.526 -4.5949998 1.275
9.5570002 -4.5679998 1.2410001
9.585 -4.5419998 1.2079999
9.6199999 -4.5110002 1.174
9.6409998 -4.4920001 1.141
9.651 -4.4829998 1.11
9.6529999 -4.4809999 1.079
9.6370001 -4.4959998 1.049
9.6429996 -4.4899998 1.018
9.6459999 -4.4879999 0.98699999
9.6490002 -4.4850001 0.95599997
9.6359997 -4.4959998 0.926
9.6400003 -4.493 0.89499998
9.4189997 -4.6929998 0.40799999
9.4139996 -4.6960001 0.377
9.4160004 -4.6950002 0.34599999
9.4200001 -4.6919999 0.315
9.3800001 -4.7270002 0.28400001
9.3850002 -4.723 0.252
9.3769999 -4.73 0.221
9.3760004 -4.7309999 0.19
9.375 -4.7319999 0.15899999
9.3789997 -4.7290001 0.127
9.4029999 -4.7069998 0.096000001
9.4119997 -4.6989999 0.064999998
9.4060001 -4.7049999 0.034000002
9.5380001 -4.625 1.244
9.5830002 -4.585 1.209
9.618 -4.553 1.176
9.6499996 -4.5240002 1.142
9.6820002 -4.4959998 1.109
9.6879997 -4.4899998 1.0779999
9.6870003 -4.4910002 1.0470001
9.6780005 -4.4990001 1.017
9.6809998 -4.4970002 0.986
9.6719999 -4.5040002 0.95599997
9.6899996 -4.4889998 0.92400002
9.6890001 -4.4899998 0.89399999
9.6750002 -4.5029998 0.86400002
9.6929998 -4.4860001 0.83200002
9.6780005 -4.5 0.80199999
9.6709995 -4.506 0.77200001
9.3100004 -4.8330002 0.25400001
9.3299999 -4.8150001 0.222
9.3369999 -4.809 0.19
9.3409996 -4.8049998 0.15899999
9.3330002 -4.8119998 0.127
9.3479996 -4.7989998 0.096000001
9.335 -4.8109999 0.064000003
9.3140001 -4.8299999 0.033
9.6020002 -4.6090002 1.179
9.6309996 -4.5830002 1.145
9.6689997 -4.5489998 1.112
9.6940002 -4.526 1.079
9.7259998 -4.4970002 1.046
9.7290001 -4.4949999 1.015
9.7390003 -4.4860001 0.98400003
9.7189999 -4.5040002 0.954
9.7329998 -4.4910002 0.92299998
9.7279997 -4.4959998 0.89300001
9.7309999 -4.493 0.86199999
9.7220001 -4.5009999 0.83200002
9.7189999 -4.5040002 0.801
9.3000002 -4.8839998 0.222
9.3199997 -4.8649998 0.191
9.3249998 -4.862 0.15899999
9.3219995 -4.8639998 0.127
9.3330002 -4.855 0.096000001
9.3439999 -4.8449998 0.064000003
9.3389997 -4.849 0.033
9.6260004 -4.6290002 1.148
9.6639996 -4.5939999 1.114
9.6920004 -4.5689998 1.081
9.7309999 -4.533 1.0470001
9.7629995 -4.5040002 1.0140001
9.7620001 -4.5050001 0.98400003
9.7720003 -4.4970002 0.95200002
9.7690001 -4.5 0.92199999
9.7659998 -4.5019999 0.89200002
9.7729998 -4.4959998 0.861
9.7679996 -4.5009999 0.82999998
9.7639999 -4.5050001 0.80000001
9.7530003 -4.5139999 0.76999998
9.3739996 -4.8590002 0.191
9.302 -4.9239998 0.15899999
9.3409996 -4.8889999 0.12800001
9.3269997 -4.901 0.096000001
9.3280001 -4.901 0.064000003
9.3339996 -4.895 0.033
9.6759996 -4.6259999 1.084
9.7189999 -4.586 1.05
9.7659998 -4.5440001 1.016
9.7939997 -4.5190001 0.98299998
9.8149996 -4.4990001 0.95099998
9.8140001 -4.5 0.921
9.8050003 -4.5079999 0.89099997
9.7969999 -4.5159998 0.86000001
9.8149996 -4.5 0.829
9.8059998 -4.507 0.79900002
9.8199997 -4.4949999 0.76800001
9.8120003 -4.5019999 0.73699999
9.7910004 -4.5219998 0.708
9.3039999 -4.9660001 0.096000001
9.3260002 -4.9460001 0.064000003
9.3240004 -4.948 0.033
9.717 -4.6290002 1.051
9.7379999 -4.6100001 1.0190001
9.7919998 -4.5599999 0.98500001
9.8240004 -4.5310001 0.95200002
9.849 -4.5089998 0.92000002
9.8439999 -4.513 0.88999999
9.8470001 -4.5110002 0.85900003
9.8500004 -4.5089998 0.82800001
9.849 -4.5100002 0.79799998
9.8520002 -4.507 0.76700002
9.8509998 -4.5079999 0.73699999
9.8540001 -4.5050001 0.70599997
9.8529997 -4.506 0.676
9.3100004 -5.0029998 0.064000003
9.3210001 -4.993 0.033
9.7550001 -4.6360002 1.0190001
9.7799997 -4.6129999 0.98699999
9.816 -4.5799999 0.954
9.8540001 -4.5450001 0.921
9.8760004 -4.526 0.889
9.8859997 -4.5159998 0.85799998
9.8850002 -4.5170002 0.82700002
9.8800001 -4.5209999 0.79699999
9.8900003 -4.5120001 0.76599997
9.8859997 -4.5159998 0.736
9.8959999 -4.507 0.70499998
9.8990002 -4.5040002 0.67500001
9.8859997 -4.5159998 0.61400002
9.8109999 -4.6269999 0.95599997
9.8459997 -4.5939999 0.92299998
9.8739996 -4.5679998 0.88999999
9.9099998 -4.5349998 0.85799998
9.9200001 -4.526 0.82700002
9.934 -4.513 0.796
9.9329996 -4.5139999 0.76499999
9.9280005 -4.5180001 0.73500001
9.9239998 -4.5219998 0.70499998
9.927 -4.52 0.67400002
9.9200001 -4.526 0.61400002
9.9200001 -4.526 0.583
9.8400002 -4.6409998 0.92400002
9.8590002 -4.6240001 0.89300001
9.8979998 -4.5879998 0.86000001
9.9370003 -4.552 0.82700002
9.9580002 -4.5320001 0.79500002
9.9750004 -4.5170002 0.764
9.9709997 -4.52 0.73400003
9.9809999 -4.5120001 0.70300001
9.9799995 -4.5120001 0.67299998
9.9589996 -4.5320001 0.61299998
9.9820004 -4.5110002 0.58200002
9.9700003 -4.5209999 0.55199999
9.9700003 -4.5209999 0.52200001
9.8620005 -4.664 0.89399999
9.8959999 -4.631 0.861
9.9289999 -4.6020002 0.829
9.9720001 -4.5619998 0.796
9.993 -4.5419998 0.764
10.006 -4.5300002 0.73299998
10.024 -4.5139999 0.70200002
10.001 -4.5349998 0.67299998
10.014 -4.5229998 0.61199999
10.014 -4.5229998 0.58200002
10.009 -4.527 0.55199999
10.013 -4.5240002 0.52100003
10.023 -4.5149999 0.491
10.019 -4.5180001 0.461
9.8909998 -4.6789999 0.86299998
9.9169998 -4.6550002 0.83099997
9.96 -4.6149998 0.79799998
10.003 -4.5749998 0.76499999
10.016 -4.5630002 0.73400003
10.059 -4.5229998 0.70200002
10.058 -4.5229998 0.67199999
10.053 -4.5279999 0.611
10.064 -4.5180001 0.58099997
10.052 -4.5289998 0.551
10.048 -4.533 0.52100003
10.047 -4.533 0.491
10.058 -4.5240002 0.46000001
10.052 -4.5289998 0.43000001
9.9020004 -4.7090001 0.833
9.9560003 -4.6589999 0.79900002
9.9790001 -4.6370001 0.76700002
10.018 -4.6009998 0.73500001
10.046 -4.5749998 0.70300001
10.078 -4.5450001 0.67199999
10.095 -4.5289998 0.611
10.098 -4.526 0.57999998
10.098 -4.527 0.55000001
10.101 -4.5240002 0.51999998
10.097 -4.5279999 0.49000001
10.096 -4.5279999 0.46000001
10.103 -4.5219998 0.42899999
10.092 -4.533 0.39899999
10.104 -4.5209999 0.36899999
9.9469995 -4.7090001 0.801
9.9809999 -4.677 0.76800001
10.006 -4.6539998 0.73699999
10.056 -4.6069999 0.704
10.066 -4.598 0.67299998
10.134 -4.5339999 0.61000001
10.152 -4.5170002 0.579
10.147 -4.5209999 0.54900002
10.143 -4.5250001 0.51899999
10.132 -4.5359998 0.48899999
10.146 -4.5229998 0.45899999
10.135 -4.533 0.42899999
10.138 -4.5300002 0.39899999
10.13 -4.5380001 0.36899999
10.147 -4.5209999 0.33899999
9.9560003 -4.7420001 0.801
10.034 -4.6700001 0.70599997
10.067 -4.638 0.67400002
10.122 -4.5869999 0.611
10.165 -4.546 0.579
10.175 -4.5370002 0.54900002
10.189 -4.5240002 0.51899999
10.174 -4.5370002 0.48899999
10.185 -4.5279999 0.45899999
10.184 -4.5279999 0.42899999
10.184 -4.5279999 0.398
10.173 -4.539 0.36899999
10.183 -4.5289998 0.338
10.183 -4.5289998 0.308
10.186 -4.526 0.278
10.068 -4.6789999 0.67500001
10.125 -4.6259999 0.61199999
10.16 -4.592 0.57999998
10.189 -4.5650001 0.54900002
10.217 -4.539 0.51800001
10.223 -4.533 0.48800001
10.223 -4.533 0.458
10.222 -4.533 0.428
10.226 -4.5300002 0.398
10.225 -4.5310001 0.368
10.236 -4.5209999 0.338
10.228 -4.5279999 0.308
10.225 -4.5310001 0.278
10.213 -4.5419998 0.248
10.123 -4.6680002 0.61299998
10.155 -4.638 0.58099997
10.176 -4.618 0.551
10.209 -4.5879998 0.51899999
10.244 -4.5539999 0.48800001
10.269 -4.5310001 0.458
10.265 -4.5349998 0.428
10.264 -4.5349998 0.398
10.264 -4.5349998 0.368
10.26 -4.539 0.338
10.245 -4.553 0.308
10.271 -4.5289998 0.278
10.263 -4.5359998 0.248
10.248 -4.5500002 0.21799999
10.266 -4.5339999 0.18799999
10.163 -4.6729999 0.58200002
10.169 -4.6680002 0.55199999
10.215 -4.6230001 0.51999998
10.233 -4.6069999 0.48899999
10.271 -4.5700002 0.458
10.296 -4.546 0.42699999
10.296 -4.546 0.398
10.299 -4.5430002 0.368
10.292 -4.5500002 0.338
10.313 -4.5300002 0.308
10.304 -4.539 0.278
10.302 -4.5409999 0.248
10.302 -4.5409999 0.21799999
10.302 -4.5409999 0.18799999
10.291 -4.5510001 0.15800001
10.21 -4.6690001 0.52100003
10.231 -4.6490002 0.49000001
10.26 -4.6209998 0.45899999
10.298 -4.5840001 0.428
10.323 -4.5609999 0.39700001
10.337 -4.5469999 0.36700001
10.341 -4.5440001 0.33700001
10.344 -4.5409999 0.30700001
10.344 -4.5409999 0.278
10.351 -4.5339999 0.248
10.34 -4.5450001 0.21799999
10.351 -4.5349998 0.18799999
10.343 -4.5419998 0.15800001
10.34 -4.5450001 0.12800001
10.357 -4.5279999 0.097999997
10.235 -4.6859999 0.49000001
10.262 -4.6599998 0.46000001
10.284 -4.6399999 0.42899999
10.312 -4.6129999 0.398
10.336 -4.5900002 0.368
10.379 -4.5479999 0.33700001
10.391 -4.539 0.30700001
10.398 -4.5320001 0.27700001
10.387 -4.5430002 0.248
10.404 -4.526 0.21799999
10.39 -4.539 0.18799999
10.397 -4.533 0.15800001
10.386 -4.5430002 0.12800001
10.375 -4.553 0.097999997
10.283 -4.6830001 0.42899999
10.311 -4.6560001 0.39899999
10.347 -4.6220002 0.368
10.375 -4.5949998 0.338
10.397 -4.5739999 0.30700001
10.411 -4.5609999 0.27700001
10.428 -4.5440001 0.24699999
10.439 -4.5339999 0.21799999
10.428 -4.5440001 0.18799999
10.421 -4.5510001 0.15800001
10.428 -4.5440001 0.12800001
10.311 -4.698 0.39899999
10.342 -4.6680002 0.36899999
10.364 -4.6469998 0.338
10.399 -4.6129999 0.308
10.424 -4.5890002 0.27700001
10.449 -4.566 0.24699999
10.467 -4.5479999 0.21799999
10.466 -4.5479999 0.18799999
10.347 -4.7059999 0.36899999
10.37 -4.6830001 0.338
10.402 -4.652 0.308
10.427 -4.6279998 0.278
10.446 -4.6090002 0.248
10.404 -4.6929998 0.308
9.1789999 -3.7980001 2.993
9.1499996 -3.803 2.9760001
9.3079996 -3.8010001 2.9909999
9.2840004 -3.8050001 2.9719999
9.1829996 -3.8210001 2.97
9.1090002 -3.8329999 2.9619999
9.3070002 -3.8239999 2.9920001
9.3070002 -3.8239999 2.9690001
9.3079996 -3.825 2.9449999
9.2089996 -3.8410001 2.9430001
9.1859999 -3.845 2.924
9.3249998 -3.8440001 2.99
9.3059998 -3.8469999 2.97
9.3199997 -3.846 2.944
9.283 -3.852 2.9289999
9.1940002 -3.8670001 2.924
9.1709995 -3.8710001 2.905
9.3149996 -3.868 2.993
9.3149996 -3.869 2.97
9.3290005 -3.8670001 2.944
9.3009996 -3.872 2.9260001
9.2770004 -3.8759999 2.908
9.2040005 -3.8889999 2.8989999
9.1969995 -3.891 2.8770001
9.323 -3.8900001 2.9690001
9.3149996 -3.892 2.948
9.309 -3.8940001 2.9260001
9.3100004 -3.8940001 2.902
9.2810001 -3.8989999 2.885
9.2089996 -3.9119999 2.8759999
9.1789999 -3.9170001 2.859
9.3129997 -3.915 2.973
9.3100004 -3.9159999 2.95
9.3079996 -3.9170001 2.927
9.309 -3.9170001 2.904
9.309 -3.918 2.8800001
9.2659998 -3.925 2.8659999
9.191 -3.938 2.858
9.165 -3.9430001 2.839
9.3109999 -3.9389999 2.9749999
9.309 -3.9400001 2.9519999
9.3030005 -3.941 2.9300001
9.3100004 -3.941 2.905
9.2989998 -3.9430001 2.8840001
9.3039999 -3.9430001 2.8599999
9.2919998 -3.9449999 2.839
9.2119999 -3.9590001 2.8310001
9.1780005 -3.9649999 2.8150001
9.3109999 -3.9619999 2.9760001
9.3059998 -3.9630001 2.954
9.309 -3.9630001 2.9300001
9.3170004 -3.9619999 2.905
9.323 -3.9619999 2.8800001
9.3120003 -3.964 2.859
9.3030005 -3.9660001 2.8380001
9.2799997 -3.971 2.819
9.2139997 -3.9820001 2.809
9.132 -3.997 2.8010001
9.3050003 -3.9860001 2.9790001
9.3149996 -3.9849999 2.9530001
9.3100004 -3.9860001 2.931
9.3009996 -3.9879999 2.9100001
9.3070002 -3.9879999 2.885
9.3070002 -3.9879999 2.862
9.302 -3.9890001 2.839
9.3210001 -3.987 2.812
9.2790003 -3.994 2.7969999
9.217 -4.006 2.786
9.1490002 -4.0180001 2.776
9.2989998 -4.0089998 2.9820001
9.3140001 -4.007 2.9549999
9.309 -4.0089998 2.9330001
9.3100004 -4.0089998 2.9089999
9.3210001 -4.0079999 2.8829999
9.3149996 -4.0089998 2.8610001
9.316 -4.0100002 2.8380001
9.3199997 -4.0089998 2.8139999
9.2930002 -4.0149999 2.796
9.2790003 -4.0180001 2.7750001
9.2080002 -4.0300002 2.766
9.1520004 -4.04 2.753
9.3129997 -4.0300002 2.98
9.3129997 -4.0300002 2.957
9.309 -4.0320001 2.934
9.3039999 -4.033 2.9119999
9.3030005 -4.0339999 2.888
9.3100004 -4.033 2.8640001
9.2969999 -4.0359998 2.8429999
9.3070002 -4.0349998 2.8180001
9.3059998 -4.0349998 2.7939999
9.3070002 -4.0359998 2.7709999
9.2880001 -4.039 2.7509999
9.2299995 -4.0500002 2.7390001
9.1660004 -4.0619998 2.7279999
9.302 -4.0539999 2.984
9.3120003 -4.053 2.9579999
9.2980003 -4.0560002 2.938
9.2980003 -4.0560002 2.914
9.3079996 -4.0549998 2.8889999
9.3039999 -4.0570002 2.8659999
9.309 -4.0560002 2.842
9.3059998 -4.0570002 2.819
9.3050003 -4.0580001 2.796
9.2980003 -4.0599999 2.7739999
9.3120003 -4.0580001 2.7479999
9.2589998 -4.0679998 2.7349999
9.21 -4.0770001 2.721
9.1499996 -4.0879998 2.7090001
9.3140001 -4.0749998 2.983
9.3109999 -4.0760002 2.96
9.3120003 -4.0770001 2.9360001
9.2969999 -4.0799999 2.9159999
9.3120003 -4.0780001 2.8889999
9.2910004 -4.0819998 2.8699999
9.3000002 -4.0809999 2.845
9.2989998 -4.0809999 2.822
9.316 -4.079 2.7950001
9.2930002 -4.0840001 2.776
9.2869997 -4.086 2.7539999
9.3030005 -4.0840001 2.7279999
9.2740002 -4.0890002 2.71
9.21 -4.1009998 2.6989999
9.1630001 -4.1100001 2.684
9.3059998 -4.0999999 2.9860001
9.3059998 -4.0999999 2.9619999
9.3009996 -4.1020002 2.9400001
9.3059998 -4.1009998 2.915
9.3070002 -4.1020002 2.892
9.302 -4.1030002 2.869
9.2980003 -4.1040001 2.8469999
9.3149996 -4.1020002 2.8199999
9.2989998 -4.105 2.8
9.302 -4.1059999 2.776
9.3030005 -4.105 2.7520001
9.2869997 -4.1100001 2.7320001
9.2969999 -4.1079998 2.707
9.2880001 -4.1100001 2.6849999
9.2290001 -4.1209998 2.6730001
9.165 -4.1339998 2.6619999
9.1709995 -4.1929998 0.018999999
9.3100004 -4.1230001 2.9630001
9.3030005 -4.125 2.941
9.2910004 -4.1279998 2.9200001
9.3009996 -4.1259999 2.8940001
9.302 -4.1269999 2.8710001
9.2930002 -4.1290002 2.849
9.3030005 -4.1279998 2.8239999
9.3129997 -4.1259999 2.7980001
9.3039999 -4.1279998 2.777
9.3030005 -4.1290002 2.7539999
9.3100004 -4.1279998 2.7290001
9.3109999 -4.1290002 2.7060001
9.2969999 -4.132 2.6849999
9.2880001 -4.1339998 2.6630001
9.2150002 -4.1479998 2.654
9.1590004 -4.158 2.641
9.2410002 -4.2030001 0.044
9.2510004 -4.2010002 0.021
