ply
format ascii 1.0
comment PCL generated
element vertex 2016
property float x
property float y
property float z
element camera 0
property float view_px
property float view_py
property float view_pz
property float x_axisx
property float x_axisy
property float x_axisz
property float y_axisx
property float y_axisy
property float y_axisz
property float z_axisx
property float z_axisy
property float z_axisz
property float focal
property float scalex
property float scaley
property float centerx
property float centery
property int viewportx
property int viewporty
property float k1
property float k2
end_header
22.639999 10.954 0.359
22.641001 10.93 0.35100001
22.641001 10.926 0.34400001
22.639999 10.947 0.33899999
22.639999 10.95 0.333
22.639999 10.939 0.32600001
22.639 10.942 0.31999999
22.639 10.936 0.31299999
22.639 10.942 0.30700001
22.639 10.944 0.301
22.639 10.952 0.29499999
22.639 10.946 0.28799999
22.639 10.941 0.28200001
22.638 10.943 0.27500001
22.638 10.949 0.26899999
22.638 10.94 0.26199999
22.638 10.935 0.25600001
22.638 10.933 0.249
22.638 10.939 0.243
22.636999 10.937 0.237
22.636999 10.947 0.23100001
22.636999 10.931 0.22400001
22.636999 10.937 0.21799999
22.636999 10.942 0.211
22.636999 10.944 0.205
22.636 10.95 0.199
22.636 10.941 0.192
22.636 10.93 0.186
22.636 10.926 0.17900001
22.636 10.935 0.17299999
22.636 10.944 0.167
22.635 10.964 0.161
22.636 10.926 0.154
22.636 10.916 0.148
22.636 10.901 0.141
22.636 10.906 0.13500001
22.636 10.891 0.12899999
22.636 10.881 0.122
22.636 10.896 0.116
22.636 10.881 0.11
22.636 10.871 0.103
22.636 10.861 0.097000003
22.636 10.856 0.090999998
22.636 10.851 0.085000001
22.636999 10.841 0.079000004
22.636 10.841 0.072999999
22.636 10.836 0.067000002
22.636999 10.821 0.061000001
22.636 10.825 0.054000001
22.636999 10.815 0.048
22.636 10.82 0.041999999
22.636999 10.81 0.035999998
22.636999 10.791 0.030999999
22.636999 10.795 0.024
22.636999 10.781 0.018999999
22.636999 10.78 0.013
22.636999 10.776 0.0070000002
22.705999 10.496 2.6689999
22.705999 10.508 2.6689999
22.705999 10.509 2.661
22.705999 10.51 2.652
22.705 10.502 2.6370001
22.705 10.526 2.6459999
22.705 10.526 2.638
22.704 10.527 2.6289999
22.704 10.536 2.6270001
22.704 10.543 2.6240001
22.702999 10.548 2.618
22.702999 10.548 2.609
22.702999 10.556 2.6070001
22.702999 10.557 2.598
22.702 10.569 2.598
22.702 10.565 2.5869999
22.702 10.586 2.5929999
22.702 10.566 2.569
22.701 10.578 2.5699999
22.701 10.578 2.5610001
22.701 10.583 2.5550001
22.700001 10.599 2.5580001
22.700001 10.595 2.5469999
22.700001 10.607 2.5469999
22.698999 10.612 2.5409999
22.698999 10.616 2.5350001
22.698999 10.62 2.529
22.698999 10.624 2.5239999
22.698 10.633 2.5209999
22.698 10.642 2.5179999
22.698 10.645 2.5120001
22.697001 10.649 2.506
22.697001 10.65 2.4979999
22.697001 10.664 2.4990001
22.695999 10.67 2.494
22.695999 10.67 2.4860001
22.695999 10.686 2.4879999
22.695999 10.664 2.464
22.695 10.683 2.4679999
22.695 10.686 2.4619999
22.695 10.697 2.461
22.694 10.709 2.46
22.694 10.703 2.448
22.694 10.711 2.444
22.693001 10.725 2.4449999
22.693001 10.72 2.4330001
22.693001 10.738 2.4360001
22.691999 10.74 2.4289999
22.691999 10.733 2.4159999
22.691999 10.748 2.4170001
22.691 10.76 2.4159999
22.691 10.76 2.408
22.691 10.755 2.3959999
22.691 10.758 2.3889999
22.690001 10.793 2.4030001
22.690001 10.797 2.3970001
22.690001 10.782 2.378
22.690001 10.779 2.368
22.688999 10.805 2.3759999
22.688999 10.809 2.3699999
22.688 10.808 2.3610001
22.688 10.827 2.3640001
22.688 10.814 2.3469999
22.688 10.821 2.3429999
22.687 10.836 2.3440001
22.687 10.843 2.3399999
22.687 10.835 2.326
22.686001 10.84 2.3210001
22.686001 10.857 2.323
22.686001 10.847 2.3080001
22.684999 10.856 2.3050001
22.684999 10.864 2.302
22.684999 10.872 2.2969999
22.684999 10.857 2.28
22.684 10.884 2.2880001
22.684 10.88 2.277
22.684 10.873 2.2639999
22.683001 10.892 2.267
22.683001 10.891 2.2579999
22.683001 10.897 2.253
22.681999 10.908 2.2509999
22.681999 10.909 2.243
22.681999 10.921 2.2420001
22.681 10.927 2.237
22.681 10.944 2.2379999
22.681 10.93 2.2219999
22.681 10.94 2.2190001
22.68 10.951 2.217
22.68 10.936 2.2
22.68 10.949 2.198
22.679001 10.953 2.1930001
22.679001 10.943 2.178
22.679001 10.947 2.1719999
22.679001 10.941 2.161
22.679001 10.937 2.1500001
22.679001 10.945 2.1459999
22.677999 10.939 2.135
22.677999 10.942 2.128
22.677999 10.946 2.122
22.677999 10.944 2.112
22.677 10.951 2.108
22.677 10.951 2.0999999
22.677 10.965 2.099
22.677 10.951 2.0840001
22.677 10.952 2.076
22.677 10.946 2.0639999
22.676001 10.937 2.0510001
22.676001 10.942 2.046
22.676001 10.937 2.0350001
22.676001 10.935 2.026
22.676001 10.942 2.0220001
22.674999 10.943 2.0139999
22.674999 10.946 2.0079999
22.674999 10.939 1.9960001
22.674999 10.939 1.988
22.674999 10.937 1.978
22.674 10.936 1.97
22.674 10.939 1.964
22.674 10.943 1.9579999
22.674 10.945 1.951
22.673 10.94 1.9400001
22.673 10.946 1.9349999
22.673 10.919 1.914
22.673 10.937 1.915
22.672001 10.951 1.914
22.673 10.937 1.899
22.672001 10.94 1.893
22.672001 10.944 1.887
22.672001 10.938 1.876
22.672001 10.947 1.873
22.672001 10.927 1.855
22.671 10.93 1.849
22.671 10.932 1.842
22.671 10.934 1.836
22.671 10.937 1.829
22.671 10.928 1.817
22.671 10.927 1.809
22.67 10.939 1.807
22.67 10.933 1.796
22.67 10.94 1.7920001
22.669001 10.948 1.788
22.669001 10.951 1.781
22.669001 10.944 1.771
22.669001 10.947 1.7640001
22.669001 10.937 1.752
22.669001 10.94 1.7460001
22.667999 10.939 1.738
22.667999 10.941 1.7309999
22.667999 10.93 1.719
22.667999 10.947 1.719
22.667 10.954 1.714
22.667 10.943 1.702
22.667 10.937 1.691
22.667 10.949 1.689
22.667 10.934 1.675
22.667 10.937 1.669
22.666 10.948 1.666
22.667 10.924 1.648
22.666 10.936 1.646
22.666 10.943 1.641
22.666 10.932 1.6289999
22.666 10.943 1.626
22.666 10.931 1.614
22.665001 10.943 1.612
22.665001 10.933 1.6
22.665001 10.943 1.597
22.665001 10.937 1.587
22.664 10.949 1.584
22.664 10.946 1.576
22.664 10.943 1.567
22.664 10.95 1.563
22.664 10.944 1.553
22.663 10.948 1.5470001
22.663 10.945 1.539
22.663 10.946 1.5319999
22.663 10.964 1.5319999
22.663 10.943 1.516
22.662001 10.951 1.512
22.662001 10.95 1.5039999
22.662001 10.936 1.4910001
22.662001 10.95 1.49
22.662001 10.946 1.4809999
22.660999 10.953 1.476
22.660999 10.95 1.4680001
22.660999 10.934 1.455
22.660999 10.937 1.449
22.660999 10.939 1.442
22.660999 10.938 1.434
22.660999 10.931 1.425
22.66 10.936 1.419
22.66 10.929 1.41
22.66 10.927 1.402
22.66 10.943 1.401
22.66 10.928 1.388
22.66 10.93 1.382
22.659 10.936 1.377
22.659 10.943 1.372
22.659 10.931 1.3609999
22.659 10.942 1.358
22.659 10.935 1.348
22.659 10.924 1.337
22.658001 10.945 1.337
22.658001 10.963 1.336
22.658001 10.946 1.324
22.658001 10.945 1.316
22.657 10.957 1.313
22.657 10.944 1.302
22.657 10.952 1.2970001
22.657 10.936 1.285
22.657 10.928 1.276
22.657 10.926 1.268
22.657 10.919 1.2589999
22.657 10.925 1.2539999
22.657 10.923 1.2460001
22.657 10.92 1.238
22.656 10.931 1.234
22.656 10.919 1.224
22.656 10.907 1.2130001
22.656 10.928 1.2130001
22.656 10.924 1.205
22.655001 10.922 1.197
22.655001 10.937 1.1950001
22.655001 10.919 1.183
22.655001 10.929 1.179
22.655001 10.919 1.169
22.653999 10.927 1.164
22.653999 10.937 1.16
22.653999 10.928 1.151
22.653999 10.919 1.142
22.653999 10.934 1.1390001
22.653 10.934 1.132
22.653 10.931 1.124
22.653 10.92 1.115
22.653 10.917 1.107
22.653 10.93 1.104
22.653 10.933 1.098
22.652 10.933 1.091
22.653 10.922 1.081
22.652 10.94 1.079
22.652 10.92 1.067
22.652 10.929 1.063
22.652 10.935 1.057
22.652 10.921 1.0470001
22.650999 10.935 1.044
22.650999 10.94 1.038
22.650999 10.929 1.029
22.650999 10.941 1.025
22.65 10.942 1.0190001
22.65 10.951 1.0140001
22.65 10.929 1.002
22.65 10.934 0.99599999
22.65 10.94 0.991
22.65 10.926 0.98100001
22.65 10.93 0.97500002
22.649 10.936 0.97000003
22.649 10.957 0.96799999
22.648001 10.953 0.96100003
22.646999 10.984 0.96100003
22.646999 10.981 0.954
22.646999 10.976 0.94599998
22.648001 10.946 0.93199998
22.648001 10.945 0.92500001
22.648001 10.95 0.92000002
22.648001 10.937 0.91000003
22.646999 10.959 0.90799999
22.646999 10.943 0.898
22.646999 10.945 0.89200002
22.646999 10.935 0.88300002
22.646999 10.943 0.87800002
22.646999 10.941 0.87099999
22.646 10.95 0.86699998
22.646 10.945 0.85900003
22.646 10.936 0.85000002
22.646 10.959 0.84799999
22.646 10.952 0.83999997
22.646 10.948 0.833
22.645 10.95 0.82700002
22.646 10.935 0.81699997
22.645 10.958 0.815
22.645 10.937 0.80400002
22.645 10.936 0.79799998
22.645 10.944 0.79299998
22.643999 10.946 0.78600001
22.643999 10.963 0.78299999
22.645 10.931 0.77100003
22.643999 10.942 0.76599997
22.643999 10.932 0.75700003
22.643999 10.937 0.75199997
22.643999 10.935 0.745
22.643999 10.925 0.73699999
22.643 10.935 0.73199999
22.643 10.949 0.72799999
22.643 10.95 0.72100002
22.643 10.942 0.713
22.642 10.954 0.70899999
22.643 10.936 0.699
22.643 10.924 0.69099998
22.642 10.947 0.68800002
22.642 10.933 0.67900002
22.642 10.944 0.67500001
22.642 10.943 0.66799998
22.641001 10.949 0.662
22.641001 10.955 0.65700001
22.641001 10.947 0.64899999
22.641001 10.947 0.64200002
22.641001 10.934 0.634
22.641001 10.941 0.62900001
22.639999 10.956 0.62400001
22.639999 10.94 0.61500001
22.639999 10.938 0.60900003
22.639999 10.946 0.60299999
22.639999 10.943 0.597
22.639999 10.946 0.58999997
22.639999 10.925 0.58099997
22.639 10.957 0.579
22.639 10.94 0.56999999
22.639 10.946 0.565
22.639 10.94 0.55699998
22.639 10.939 0.551
22.639 10.92 0.542
22.638 10.955 0.54000002
22.638 10.951 0.53299999
22.638 10.932 0.52399999
22.638 10.946 0.51899999
22.638 10.946 0.51300001
22.638 10.942 0.50599998
22.636999 10.948 0.5
22.636999 10.94 0.493
22.636999 10.951 0.48800001
22.636999 10.942 0.47999999
22.636999 10.94 0.47400001
22.636999 10.942 0.46700001
22.636 10.954 0.46200001
22.636 10.938 0.454
22.636999 10.93 0.447
22.635 10.963 0.44400001
22.636 10.944 0.435
22.636 10.934 0.428
22.635 10.95 0.42300001
22.636 10.919 0.414
22.635 10.953 0.41
22.635 10.952 0.40400001
22.635 10.926 0.396
22.635 10.936 0.38999999
22.635 10.929 0.38299999
22.635 10.938 0.377
22.634001 10.957 0.37200001
22.634001 10.942 0.36500001
22.634001 10.953 0.359
22.634001 10.937 0.352
22.634001 10.945 0.34599999
22.632999 10.949 0.34
22.632999 10.944 0.333
22.632999 10.949 0.32699999
22.632999 10.949 0.31999999
22.632999 10.948 0.31400001
22.632999 10.951 0.308
22.632999 10.939 0.301
22.632 10.951 0.29499999
22.632 10.951 0.289
22.632 10.958 0.28200001
22.632 10.933 0.27500001
22.632 10.939 0.26899999
22.631001 10.949 0.26300001
22.631001 10.944 0.25600001
22.631001 10.939 0.25
22.631001 10.944 0.244
22.631001 10.925 0.237
22.631001 10.937 0.23100001
22.631001 10.928 0.22400001
22.631001 10.932 0.21799999
22.631001 10.931 0.211
22.629999 10.933 0.205
22.631001 10.923 0.198
22.629999 10.941 0.192
22.629999 10.931 0.186
22.629999 10.927 0.18000001
22.629 10.943 0.17299999
22.629999 10.925 0.167
22.629999 10.918 0.16
22.629999 10.92 0.154
22.629 10.921 0.148
22.629999 10.896 0.141
22.629999 10.896 0.13500001
22.629999 10.896 0.12899999
22.629999 10.891 0.122
22.629999 10.871 0.116
22.629999 10.871 0.11
22.629999 10.871 0.104
22.631001 10.846 0.097999997
22.629999 10.856 0.090999998
22.631001 10.841 0.085000001
22.631001 10.831 0.079000004
22.631001 10.83 0.072999999
22.629999 10.83 0.067000002
22.629999 10.84 0.059999999
22.629999 10.825 0.055
22.631001 10.805 0.048999999
22.631001 10.8 0.043000001
22.629999 10.815 0.035999998
22.631001 10.791 0.030999999
22.631001 10.786 0.025
22.631001 10.776 0.018999999
22.631001 10.785 0.013
22.631001 10.776 0.0070000002
22.701 10.488 2.6619999
22.701 10.48 2.6470001
22.700001 10.512 2.6630001
22.700001 10.501 2.645
22.700001 10.514 2.6470001
22.700001 10.511 2.635
22.698999 10.527 2.638
22.698999 10.535 2.6359999
22.698 10.539 2.6300001
22.698 10.543 2.6240001
22.698 10.547 2.618
22.698 10.55 2.6110001
22.697001 10.556 2.6070001
22.697001 10.56 2.6010001
22.697001 10.57 2.599
22.695999 10.565 2.5869999
22.695999 10.569 2.5810001
22.695999 10.582 2.5810001
22.695 10.59 2.579
22.695 10.594 2.573
22.695 10.595 2.5650001
22.695 10.595 2.5550001
22.694 10.604 2.553
22.694 10.6 2.5420001
22.694 10.615 2.5439999
22.693001 10.627 2.5439999
22.693001 10.629 2.536
22.693001 10.624 2.5239999
22.691999 10.631 2.52
22.691999 10.649 2.5239999
22.691999 10.649 2.5150001
22.691 10.658 2.513
22.691 10.653 2.5
22.691 10.669 2.503
22.691 10.666 2.4920001
22.690001 10.683 2.4949999
22.690001 10.68 2.484
22.690001 10.674 2.4719999
22.688999 10.687 2.471
22.688999 10.687 2.4630001
22.688999 10.703 2.4649999
22.688 10.702 2.4560001
22.688 10.703 2.448
22.688 10.717 2.4489999
22.687 10.719 2.441
22.687 10.74 2.447
22.687 10.723 2.4260001
22.686001 10.743 2.431
22.686001 10.744 2.4230001
22.686001 10.747 2.4170001
22.686001 10.751 2.411
22.684999 10.754 2.404
22.684999 10.755 2.3959999
22.684999 10.771 2.398
22.684 10.775 2.392
22.684 10.783 2.388
22.684 10.783 2.3800001
22.683001 10.793 2.3770001
22.683001 10.79 2.3670001
22.683001 10.803 2.3670001
22.683001 10.789 2.349
22.681999 10.807 2.352
22.681999 10.802 2.3399999
22.681999 10.815 2.3399999
22.681 10.815 2.3310001
22.681 10.825 2.329
22.68 10.848 2.335
22.681 10.83 2.3150001
22.68 10.837 2.3099999
22.68 10.86 2.316
22.679001 10.869 2.313
22.679001 10.855 2.296
22.679001 10.859 2.29
22.677999 10.873 2.29
22.677999 10.887 2.29
22.677999 10.888 2.2820001
22.677 10.894 2.277
22.677 10.886 2.2639999
22.677 10.891 2.2590001
22.676001 10.907 2.2590001
22.676001 10.915 2.256
22.676001 10.929 2.2550001
22.674999 10.931 2.2479999
22.674999 10.93 2.2390001
22.674999 10.947 2.24
22.674 10.943 2.23
22.674 10.949 2.224
22.674 10.939 2.21
22.674 10.936 2.2
22.674 10.94 2.194
22.673 10.953 2.1930001
22.673 10.935 2.174
22.673 10.943 2.1700001
22.673 10.933 2.1559999
22.673 10.937 2.1500001
22.673 10.931 2.138
22.672001 10.947 2.1389999
22.672001 10.936 2.125
22.672001 10.948 2.1229999
22.672001 10.931 2.1059999
22.672001 10.93 2.0969999
22.671 10.944 2.096
22.671 10.958 2.096
22.671 10.941 2.0780001
22.671 10.931 2.0650001
22.67 10.939 2.0610001
22.67 10.949 2.0580001
22.67 10.945 2.0480001
22.67 10.935 2.0339999
22.67 10.939 2.0280001
22.669001 10.94 2.02
22.669001 10.938 2.0120001
22.669001 10.937 2.003
22.669001 10.927 1.99
22.667999 10.953 1.995
22.667999 10.943 1.982
22.667999 10.936 1.97
22.667999 10.927 1.9579999
22.667999 10.934 1.9529999
22.667 10.94 1.949
22.667 10.935 1.938
22.667999 10.917 1.921
22.667 10.947 1.928
22.667 10.945 1.919
22.667 10.931 1.905
22.666 10.943 1.903
22.666 10.933 1.89
22.666 10.931 1.881
22.666 10.939 1.877
22.666 10.933 1.8660001
22.665001 10.94 1.862
22.665001 10.93 1.849
22.665001 10.942 1.847
22.665001 10.922 1.83
22.664 10.943 1.832
22.665001 10.933 1.8200001
22.664 10.945 1.817
22.664 10.934 1.8049999
22.664 10.937 1.798
22.664 10.94 1.7920001
22.664 10.926 1.778
22.663 10.937 1.775
22.663 10.94 1.7690001
22.663 10.943 1.763
22.663 10.937 1.752
22.663 10.931 1.742
22.662001 10.951 1.743
22.662001 10.937 1.729
22.662001 10.951 1.728
22.662001 10.937 1.714
22.660999 10.948 1.712
22.660999 10.946 1.7029999
22.660999 10.957 1.7
22.660999 10.942 1.686
22.66 10.953 1.684
22.66 10.95 1.675
22.66 10.945 1.665
22.66 10.943 1.6569999
22.66 10.946 1.651
22.659 10.948 1.6440001
22.66 10.929 1.628
22.659 10.964 1.635
22.659 10.948 1.6210001
22.659 10.951 1.615
22.658001 10.953 1.609
22.658001 10.952 1.601
22.658001 10.95 1.5930001
22.658001 10.952 1.586
22.658001 10.947 1.576
22.658001 10.944 1.568
22.658001 10.933 1.556
22.658001 10.936 1.55
22.658001 10.924 1.538
22.657 10.94 1.5369999
22.657 10.938 1.529
22.657 10.946 1.525
22.657 10.934 1.513
22.657 10.927 1.503
22.656 10.952 1.505
22.656 10.945 1.495
22.656 10.944 1.487
22.655001 10.952 1.483
22.655001 10.94 1.472
22.655001 10.94 1.464
22.655001 10.931 1.454
22.655001 10.923 1.444
22.653999 10.956 1.448
22.653999 10.944 1.437
22.653999 10.948 1.431
22.653999 10.949 1.424
22.653999 10.953 1.419
22.653999 10.935 1.405
22.653 10.947 1.402
22.653 10.955 1.398
22.653 10.955 1.391
22.653 10.944 1.38
22.653 10.928 1.367
22.652 10.952 1.368
22.652 10.947 1.359
22.653 10.93 1.347
22.652 10.938 1.342
22.652 10.938 1.335
22.652 10.95 1.332
22.652 10.937 1.321
22.652 10.931 1.312
22.652 10.933 1.3049999
22.650999 10.936 1.299
22.650999 10.951 1.2970001
22.65 10.958 1.2920001
22.65 10.942 1.28
22.65 10.935 1.271
22.650999 10.927 1.262
22.65 10.929 1.255
22.65 10.936 1.25
22.649 10.952 1.248
22.65 10.93 1.235
22.649 10.941 1.2309999
22.65 10.925 1.219
22.649 10.932 1.214
22.65 10.906 1.2
22.649 10.926 1.199
22.649 10.923 1.191
22.649 10.929 1.186
22.649 10.917 1.175
22.649 10.918 1.169
22.648001 10.929 1.165
22.648001 10.922 1.156
22.648001 10.932 1.152
22.648001 10.927 1.1440001
22.648001 10.909 1.132
22.648001 10.915 1.127
22.646999 10.92 1.122
22.646999 10.935 1.119
22.646999 10.911 1.105
22.646999 10.923 1.102
22.646999 10.895 1.0880001
22.646999 10.901 1.0829999
22.646 10.93 1.084
22.646 10.927 1.076
22.646 10.923 1.068
22.646 10.899 1.0549999
22.645 10.926 1.0549999
22.645 10.922 1.048
22.645 10.942 1.046
22.645 10.932 1.0369999
22.645 10.927 1.029
22.643999 10.943 1.026
22.643999 10.927 1.015
22.643999 10.943 1.012
22.643999 10.945 1.006
22.643999 10.939 0.99800003
22.643999 10.933 0.99000001
22.643 10.939 0.98500001
22.643 10.93 0.97600001
22.643 10.939 0.97100002
22.643 10.923 0.96100003
22.643 10.944 0.95899999
22.642 10.95 0.95300001
22.641001 10.971 0.95099998
22.641001 10.992 0.949
22.641001 10.974 0.93900001
22.642 10.934 0.92299998
22.641001 10.956 0.921
22.641001 10.945 0.912
22.641001 10.942 0.90499997
22.641001 10.937 0.89700001
22.639999 10.952 0.89399999
22.639999 10.958 0.88800001
22.639999 10.96 0.88200003
22.639999 10.939 0.87099999
22.641001 10.922 0.861
22.639999 10.938 0.85799998
22.639999 10.948 0.85299999
22.639999 10.94 0.84500003
22.639 10.95 0.83999997
22.639 10.946 0.833
22.639 10.951 0.82700002
22.639 10.948 0.81999999
22.639 10.943 0.81199998
22.639 10.935 0.80400002
22.638 10.949 0.80000001
22.638 10.941 0.792
22.638 10.943 0.78600001
22.638 10.944 0.77999997
22.638 10.943 0.773
22.636999 10.95 0.76700002
22.636999 10.944 0.75999999
22.636999 10.943 0.75300002
22.638 10.929 0.74400002
22.638 10.925 0.73699999
22.636999 10.946 0.73400003
22.636 10.962 0.73000002
22.636 10.952 0.722
22.636 10.94 0.713
22.636 10.934 0.70599997
22.636 10.955 0.70300001
22.636 10.948 0.69499999
22.635 10.955 0.69
22.635 10.947 0.68199998
22.636 10.931 0.67299998
22.635 10.954 0.67000002
22.635 10.949 0.66299999
22.635 10.945 0.65499997
22.635 10.946 0.64899999
22.634001 10.956 0.64399999
22.634001 10.955 0.63700002
22.634001 10.948 0.63
22.634001 10.951 0.62400001
22.634001 10.954 0.61799997
22.634001 10.935 0.60900003
22.634001 10.936 0.602
22.632999 10.955 0.59799999
22.634001 10.933 0.58899999
22.634001 10.925 0.58099997
22.632999 10.951 0.57800001
22.632999 10.93 0.56900001
22.632999 10.93 0.56300002
22.632999 10.932 0.55699998
22.632 10.945 0.55199999
22.632 10.933 0.54400003
22.632 10.952 0.54000002
22.632 10.951 0.53299999
22.632 10.941 0.52499998
22.631001 10.943 0.51899999
22.631001 10.945 0.51300001
22.631001 10.946 0.50700003
22.631001 10.939 0.49900001
22.631001 10.946 0.49399999
22.629999 10.951 0.48800001
22.629999 10.956 0.48199999
22.629999 10.945 0.47400001
22.629999 10.946 0.46799999
22.629999 10.94 0.461
22.629999 10.937 0.454
22.629999 10.934 0.44800001
22.629 10.95 0.44299999
22.629999 10.94 0.435
22.629 10.947 0.42899999
22.629 10.942 0.42300001
22.629 10.935 0.41600001
22.629 10.946 0.41
22.629 10.94 0.403
22.629 10.942 0.39700001
22.628 10.95 0.391
22.628 10.957 0.38499999
22.628 10.94 0.37799999
22.628 10.947 0.37200001
22.628 10.94 0.36500001
22.627001 10.955 0.359
22.627001 10.945 0.352
22.627001 10.943 0.34599999
22.627001 10.95 0.34
22.627001 10.938 0.333
22.627001 10.927 0.32600001
22.625999 10.961 0.32100001
22.627001 10.933 0.31299999
22.627001 10.935 0.30700001
22.625999 10.956 0.30199999
22.627001 10.926 0.294
22.625999 10.94 0.28799999
22.625999 10.947 0.28200001
22.625999 10.937 0.27500001
22.625 10.952 0.27000001
22.625 10.938 0.26300001
22.625 10.932 0.25600001
22.625 10.93 0.25
22.625 10.946 0.244
22.625 10.946 0.237
22.625 10.936 0.23100001
22.624001 10.953 0.22499999
22.624001 10.937 0.21799999
22.624001 10.932 0.212
22.624001 10.945 0.205
22.622999 10.954 0.199
22.624001 10.937 0.193
22.622999 10.959 0.18700001
22.622999 10.942 0.18000001
22.624001 10.928 0.17299999
22.624001 10.923 0.167
22.622999 10.936 0.161
22.624001 10.915 0.154
22.624001 10.905 0.148
22.622999 10.92 0.142
22.622999 10.905 0.13500001
22.622999 10.905 0.12899999
22.622999 10.896 0.123
22.624001 10.881 0.116
22.624001 10.881 0.11
22.624001 10.881 0.104
22.622999 10.88 0.097999997
22.624001 10.85 0.090999998
22.624001 10.855 0.085000001
22.624001 10.84 0.079000004
22.624001 10.84 0.072999999
22.624001 10.84 0.067000002
22.622999 10.85 0.059999999
22.624001 10.815 0.055
22.624001 10.82 0.048999999
22.625 10.8 0.043000001
22.625 10.791 0.037
22.624001 10.805 0.030999999
22.625 10.785 0.025
22.624001 10.79 0.018999999
22.625 10.78 0.013
22.625 10.771 0.0070000002
22.695999 10.488 2.6619999
22.695 10.508 2.6689999
22.695 10.496 2.651
22.695 10.505 2.6489999
22.694 10.502 2.638
22.694 10.513 2.6370001
22.693001 10.522 2.635
22.693001 10.527 2.6300001
22.693001 10.531 2.6240001
22.693001 10.536 2.619
22.691999 10.543 2.615
22.691999 10.552 2.6129999
22.691999 10.553 2.605
22.691 10.556 2.598
22.691 10.565 2.596
22.691 10.565 2.5869999
22.690001 10.572 2.5829999
22.690001 10.584 2.5829999
22.690001 10.586 2.576
22.688999 10.596 2.575
22.688999 10.59 2.5610001
22.688999 10.607 2.5650001
22.688 10.608 2.556
22.688 10.623 2.559
22.688 10.611 2.5409999
22.687 10.624 2.5420001
22.687 10.625 2.533
22.687 10.625 2.5250001
22.686001 10.644 2.53
22.686001 10.641 2.5190001
22.686001 10.649 2.5150001
22.686001 10.645 2.5039999
22.684999 10.662 2.507
22.684999 10.657 2.4949999
22.684999 10.666 2.4920001
22.684 10.674 2.4890001
22.684 10.682 2.4860001
22.684 10.674 2.4719999
22.684 10.686 2.471
22.683001 10.692 2.467
22.683001 10.701 2.464
22.681999 10.709 2.461
22.681999 10.707 2.451
22.681999 10.711 2.4449999
22.681999 10.711 2.4360001
22.681 10.722 2.4349999
22.681 10.722 2.4260001
22.681 10.727 2.421
22.68 10.75 2.427
22.68 10.737 2.4100001
22.68 10.753 2.4119999
22.679001 10.756 2.405
22.679001 10.758 2.398
22.679001 10.764 2.3929999
22.679001 10.765 2.385
22.677999 10.782 2.388
22.677999 10.762 2.3659999
22.677999 10.77 2.3629999
22.677 10.784 2.3629999
22.677 10.787 2.3570001
22.677 10.801 2.3570001
22.676001 10.812 2.355
22.676001 10.819 2.3510001
22.676001 10.815 2.3399999
22.674999 10.822 2.336
22.674999 10.838 2.3369999
22.674999 10.823 2.319
22.674 10.843 2.323
22.674 10.853 2.3210001
22.673 10.85 2.3110001
22.673 10.864 2.3099999
22.673 10.86 2.299
22.672001 10.881 2.3039999
22.672001 10.875 2.2920001
22.672001 10.877 2.2839999
22.672001 10.868 2.27
22.671 10.885 2.2720001
22.671 10.887 2.2639999
22.671 10.884 2.2550001
22.67 10.891 2.25
22.67 10.894 2.244
22.67 10.908 2.243
22.669001 10.916 2.24
22.669001 10.935 2.2420001
22.669001 10.932 2.2320001
22.667999 10.939 2.227
22.667999 10.935 2.217
22.667999 10.936 2.2090001
22.667999 10.939 2.2019999
22.667 10.939 2.194
22.667 10.952 2.1919999
22.667 10.946 2.181
22.667 10.942 2.1700001
22.667 10.924 2.152
22.666 10.944 2.155
22.666 10.951 2.1500001
22.666 10.942 2.1370001
22.666 10.932 2.1229999
22.665001 10.945 2.122
22.665001 10.931 2.1059999
22.665001 10.95 2.108
22.665001 10.937 2.0929999
22.665001 10.936 2.0840001
22.664 10.953 2.085
22.664 10.939 2.069
22.664 10.943 2.063
22.664 10.937 2.052
22.664 10.933 2.0420001
22.663 10.936 2.0350001
22.663 10.936 2.027
22.663 10.935 2.0179999
22.663 10.934 2.01
22.663 10.933 2.0009999
22.663 10.931 1.992
22.662001 10.93 1.984
22.662001 10.933 1.977
22.662001 10.932 1.969
22.660999 10.949 1.969
22.662001 10.934 1.954
22.660999 10.937 1.948
22.660999 10.941 1.941
22.660999 10.939 1.933
22.66 10.942 1.926
22.66 10.94 1.9170001
22.66 10.944 1.911
22.66 10.924 1.8940001
22.659 10.946 1.896
22.66 10.926 1.8789999
22.66 10.921 1.868
22.659 10.937 1.869
22.659 10.939 1.862
22.659 10.934 1.852
22.659 10.937 1.845
22.658001 10.936 1.837
22.658001 10.93 1.826
22.658001 10.932 1.819
22.658001 10.931 1.811
22.657 10.945 1.8099999
22.657 10.949 1.804
22.657 10.931 1.788
22.657 10.933 1.781
22.657 10.932 1.773
22.656 10.943 1.771
22.656 10.954 1.768
22.656 10.939 1.753
22.656 10.939 1.7460001
22.656 10.944 1.7410001
22.656 10.939 1.7309999
22.655001 10.942 1.724
22.655001 10.946 1.7180001
22.655001 10.942 1.709
22.653999 10.953 1.706
22.655001 10.931 1.689
22.653999 10.947 1.689
22.653999 10.953 1.684
22.653999 10.93 1.666
22.653 10.957 1.671
22.653999 10.944 1.6569999
22.653 10.943 1.649
22.653 10.949 1.645
22.653 10.944 1.635
22.653 10.946 1.628
22.653 10.943 1.62
22.652 10.95 1.615
22.653 10.935 1.602
22.652 10.942 1.597
22.652 10.951 1.5930001
22.652 10.944 1.5829999
22.650999 10.949 1.5779999
22.650999 10.943 1.568
22.650999 10.931 1.556
22.650999 10.947 1.5549999
22.650999 10.946 1.5470001
22.650999 10.94 1.5369999
22.65 10.941 1.53
22.65 10.944 1.524
22.65 10.928 1.511
22.65 10.94 1.508
22.65 10.943 1.502
22.649 10.949 1.497
22.649 10.933 1.484
22.649 10.937 1.478
22.649 10.942 1.472
22.649 10.949 1.4680001
22.649 10.938 1.457
22.649 10.927 1.4450001
22.648001 10.946 1.4450001
22.648001 10.936 1.434
22.648001 10.94 1.428
22.646999 10.953 1.426
22.646999 10.952 1.418
22.646999 10.94 1.4069999
22.646999 10.942 1.401
22.646999 10.95 1.396
22.646999 10.934 1.3839999
22.646999 10.944 1.38
22.646 10.946 1.374
22.646999 10.921 1.358
22.646 10.941 1.358
22.646 10.934 1.348
22.646 10.942 1.344
22.645 10.947 1.3380001
22.645 10.946 1.331
22.645 10.947 1.324
22.645 10.946 1.317
22.645 10.941 1.308
22.645 10.944 1.302
22.645 10.924 1.289
22.645 10.93 1.283
22.643999 10.959 1.286
22.643999 10.944 1.274
22.643999 10.946 1.268
22.643 10.948 1.261
22.643999 10.923 1.2460001
22.643999 10.91 1.2359999
22.643 10.935 1.2359999
22.643 10.928 1.227
22.643 10.921 1.2180001
22.643 10.932 1.215
22.643 10.925 1.205
22.642 10.936 1.202
22.642 10.942 1.197
22.643 10.92 1.183
22.642 10.922 1.177
22.642 10.937 1.175
22.642 10.916 1.1619999
22.642 10.926 1.158
22.641001 10.926 1.151
22.641001 10.93 1.145
22.641001 10.936 1.14
22.641001 10.924 1.13
22.641001 10.918 1.1210001
22.639999 10.929 1.118
22.641001 10.909 1.105
22.641001 10.904 1.097
22.641001 10.896 1.0880001
22.639999 10.917 1.087
22.639999 10.918 1.081
22.639999 10.925 1.076
22.639 10.921 1.068
22.639 10.923 1.062
22.639 10.91 1.052
22.639 10.92 1.0470001
22.639 10.917 1.04
22.638 10.929 1.036
22.638 10.929 1.029
22.638 10.94 1.025
22.638 10.938 1.018
22.638 10.935 1.011
22.636999 10.946 1.007
22.638 10.91 0.991
22.636999 10.941 0.99199998
22.636999 10.932 0.98299998
22.636999 10.933 0.977
22.636999 10.937 0.97100002
22.636999 10.927 0.96200001
22.636 10.929 0.95599997
22.636 10.95 0.954
22.636 10.946 0.94599998
22.635 10.948 0.94
22.634001 11.003 0.94499999
22.634001 10.975 0.93199998
22.635 10.956 0.921
22.635 10.928 0.90899998
22.635 10.938 0.90399998
22.634001 10.95 0.89999998
22.635 10.932 0.88999999
22.634001 10.95 0.88700002
22.634001 10.944 0.87900001
22.634001 10.936 0.87099999
22.634001 10.939 0.86500001
22.632999 10.946 0.86000001
22.632999 10.956 0.85500002
22.632999 10.956 0.84799999
22.632999 10.937 0.838
22.632999 10.947 0.833
22.632999 10.939 0.82499999
22.632 10.956 0.82200003
22.632999 10.936 0.81099999
22.632 10.944 0.80599999
22.632 10.941 0.79900002
22.632 10.927 0.79000002
22.632 10.95 0.787
22.632 10.941 0.77899998
22.631001 10.943 0.773
22.631001 10.946 0.76700002
22.631001 10.938 0.759
22.631001 10.941 0.75300002
22.631001 10.943 0.74699998
22.631001 10.943 0.74000001
22.629999 10.959 0.736
22.631001 10.938 0.72600001
22.629999 10.948 0.72100002
22.629 10.96 0.71700001
22.629999 10.927 0.70499998
22.629999 10.94 0.69999999
22.629 10.948 0.69499999
22.629 10.947 0.68800002
22.629999 10.925 0.67900002
22.629 10.944 0.67500001
22.628 10.959 0.671
22.628 10.958 0.66399997
22.629 10.934 0.65399998
22.629 10.935 0.648
22.628 10.949 0.64300001
22.628 10.947 0.63599998
22.628 10.944 0.63
22.627001 10.953 0.62400001
22.627001 10.944 0.61699998
22.627001 10.943 0.61000001
22.627001 10.941 0.60299999
22.627001 10.943 0.597
22.627001 10.946 0.59100002
22.627001 10.937 0.583
22.627001 10.935 0.57700002
22.625999 10.948 0.57200003
22.625999 10.94 0.56400001
22.625999 10.946 0.55800003
22.625999 10.936 0.551
22.625999 10.931 0.54400003
22.625999 10.927 0.537
22.625 10.949 0.53299999
22.625 10.943 0.52600002
22.625 10.956 0.52100003
22.625 10.947 0.51300001
22.625 10.942 0.50599998
22.625 10.943 0.5
22.624001 10.958 0.495
22.624001 10.945 0.48699999
22.624001 10.942 0.48100001
22.624001 10.945 0.47400001
22.624001 10.943 0.46799999
22.622999 10.957 0.463
22.622999 10.954 0.456
22.622999 10.948 0.449
22.622999 10.941 0.442
22.622999 10.951 0.43599999
22.622 10.957 0.43000001
22.622999 10.934 0.42199999
22.622999 10.944 0.417
22.622999 10.94 0.41
22.622 10.957 0.405
22.622 10.942 0.39700001
22.622 10.937 0.38999999
22.622 10.948 0.38499999
22.621 10.951 0.37900001
22.622 10.939 0.37099999
22.622 10.939 0.36500001
22.621 10.945 0.359
22.622 10.929 0.352
22.621 10.951 0.347
22.621 10.944 0.34
22.620001 10.951 0.33399999
22.621 10.933 0.32600001
22.620001 10.948 0.32100001
22.620001 10.955 0.315
22.620001 10.94 0.308
22.620001 10.93 0.301
22.620001 10.943 0.29499999
22.620001 10.917 0.287
22.620001 10.931 0.28200001
22.618999 10.955 0.27599999
22.620001 10.92 0.26800001
22.618999 10.932 0.26300001
22.618999 10.943 0.257
22.618 10.949 0.25
22.618999 10.932 0.244
22.618 10.944 0.23800001
22.618 10.931 0.23100001
22.618999 10.923 0.22400001
22.618 10.935 0.21799999
22.617001 10.95 0.212
22.618 10.93 0.205
22.618 10.922 0.199
22.617001 10.937 0.193
22.617001 10.933 0.186
22.617001 10.946 0.18000001
22.617001 10.943 0.17399999
22.617001 10.923 0.167
22.617001 10.918 0.161
22.617001 10.915 0.154
22.617001 10.915 0.148
22.617001 10.915 0.142
22.617001 10.91 0.13500001
22.617001 10.89 0.12899999
22.617001 10.895 0.123
22.617001 10.89 0.116
22.617001 10.885 0.11
22.617001 10.88 0.104
22.618 10.86 0.097999997
22.618 10.85 0.092
22.618 10.845 0.085000001
22.618 10.85 0.079000004
22.618 10.84 0.072999999
22.617001 10.855 0.067000002
22.617001 10.84 0.061000001
22.618 10.835 0.055
22.618 10.82 0.048999999
22.618 10.81 0.043000001
22.617001 10.824 0.035999998
22.618999 10.785 0.030999999
22.618 10.794 0.025
22.618999 10.78 0.018999999
22.618 10.785 0.013
22.618999 10.771 0.0070000002
22.690001 10.491 2.6659999
22.688999 10.5 2.6630001
22.688999 10.5 2.654
22.688999 10.508 2.652
22.688999 10.513 2.6459999
22.688999 10.501 2.628
22.688 10.526 2.6389999
22.688 10.522 2.6259999
22.687 10.53 2.6240001
22.687 10.539 2.622
22.687 10.535 2.609
22.686001 10.552 2.6140001
22.686001 10.552 2.6040001
22.686001 10.548 2.592
22.684999 10.565 2.596
22.684999 10.569 2.5910001
22.684999 10.579 2.589
22.684999 10.573 2.576
22.684 10.586 2.5769999
22.684 10.59 2.5699999
22.684 10.583 2.556
22.683001 10.605 2.5639999
22.683001 10.611 2.5599999
22.683001 10.599 2.5409999
22.681999 10.612 2.5420001
22.681999 10.623 2.5420001
22.681999 10.62 2.53
22.681999 10.612 2.516
22.681 10.633 2.5220001
22.681 10.637 2.516
22.68 10.653 2.5190001
22.68 10.653 2.51
22.679001 10.665 2.5090001
22.679001 10.662 2.4979999
22.679001 10.669 2.4949999
22.679001 10.673 2.4890001
22.677999 10.686 2.4890001
22.677999 10.68 2.4760001
22.677 10.695 2.477
22.677 10.702 2.474
22.677 10.699 2.4630001
22.677 10.699 2.454
22.676001 10.707 2.451
22.676001 10.715 2.448
22.676001 10.714 2.438
22.674999 10.718 2.4319999
22.674999 10.736 2.4360001
22.674999 10.73 2.4230001
22.674 10.735 2.418
22.674 10.753 2.421
22.674 10.753 2.4119999
22.673 10.756 2.4059999
22.673 10.75 2.3929999
22.673 10.768 2.3959999
22.672001 10.775 2.392
22.672001 10.788 2.392
22.671 10.805 2.3940001
22.672001 10.776 2.3670001
22.671 10.8 2.3740001
22.671 10.793 2.3610001
22.67 10.804 2.359
22.67 10.807 2.352
22.67 10.816 2.349
22.669001 10.823 2.345
22.669001 10.817 2.3329999
22.669001 10.835 2.336
22.667999 10.828 2.323
22.667999 10.843 2.3239999
22.667999 10.845 2.316
22.667 10.847 2.309
22.667 10.853 2.3039999
22.667 10.856 2.2969999
22.667 10.856 2.289
22.666 10.875 2.2920001
22.665001 10.892 2.2939999
22.665001 10.875 2.2750001
22.665001 10.902 2.2820001
22.665001 10.897 2.2709999
22.664 10.895 2.2609999
22.664 10.915 2.2639999
22.664 10.906 2.2509999
22.664 10.902 2.24
22.663 10.92 2.2420001
22.663 10.917 2.2320001
22.662001 10.934 2.233
22.662001 10.932 2.224
22.662001 10.939 2.2190001
22.660999 10.94 2.211
22.660999 10.942 2.204
22.660999 10.943 2.1960001
22.66 10.958 2.1960001
22.660999 10.934 2.174
22.66 10.946 2.1719999
22.66 10.936 2.1589999
22.66 10.94 2.152
22.66 10.939 2.1440001
22.659 10.943 2.138
22.659 10.936 2.1259999
22.659 10.935 2.1170001
22.659 10.926 2.1029999
22.659 10.939 2.102
22.658001 10.938 2.0929999
22.658001 10.954 2.0940001
22.658001 10.95 2.0840001
22.658001 10.948 2.0739999
22.657 10.944 2.0639999
22.657 10.943 2.0550001
22.657 10.937 2.0439999
22.657 10.944 2.04
22.657 10.944 2.0309999
22.657 10.939 2.0209999
22.656 10.938 2.0120001
22.656 10.932 2.0009999
22.656 10.94 1.997
22.656 10.938 1.988
22.656 10.933 1.978
22.655001 10.935 1.97
22.655001 10.934 1.962
22.655001 10.946 1.96
22.655001 10.936 1.947
22.653999 10.945 1.944
22.655001 10.926 1.926
22.653999 10.933 1.9220001
22.653999 10.941 1.918
22.653999 10.926 1.903
22.653999 10.937 1.9
22.653999 10.927 1.887
22.653 10.944 1.888
22.653 10.938 1.877
22.653 10.928 1.864
22.653 10.926 1.8559999
22.652 10.934 1.852
22.652 10.936 1.845
22.652 10.926 1.8329999
22.652 10.948 1.835
22.652 10.915 1.812
22.652 10.93 1.811
22.650999 10.938 1.807
22.650999 10.928 1.795
22.650999 10.931 1.788
22.650999 10.93 1.78
22.65 10.936 1.776
22.65 10.934 1.767
22.65 10.933 1.7589999
22.65 10.935 1.752
22.649 10.951 1.751
22.649 10.945 1.7410001
22.649 10.936 1.73
22.649 10.942 1.725
22.649 10.941 1.717
22.649 10.929 1.704
22.648001 10.951 1.706
22.648001 10.949 1.697
22.648001 10.933 1.683
22.648001 10.954 1.684
22.648001 10.942 1.6720001
22.646999 10.964 1.674
22.646999 10.955 1.6619999
22.646999 10.957 1.656
22.646999 10.937 1.64
22.646999 10.941 1.6339999
22.646 10.949 1.63
22.646 10.944 1.62
22.646 10.942 1.612
22.646 10.935 1.602
22.646 10.947 1.599
22.645 10.955 1.595
22.645 10.942 1.582
22.645 10.932 1.571
22.645 10.947 1.5700001
22.643999 10.959 1.567
22.645 10.943 1.553
22.645 10.933 1.5420001
22.643999 10.935 1.536
22.643999 10.946 1.533
22.643999 10.944 1.525
22.643999 10.934 1.513
22.643 10.949 1.512
22.643 10.951 1.505
22.643 10.944 1.495
22.643 10.925 1.4809999
22.643 10.936 1.478
22.643 10.943 1.473
22.643 10.936 1.4630001
22.642 10.95 1.461
22.642 10.94 1.45
22.642 10.942 1.444
22.642 10.936 1.4349999
22.641001 10.942 1.4299999
22.641001 10.949 1.425
22.641001 10.933 1.4119999
22.641001 10.94 1.4069999
22.641001 10.943 1.401
22.641001 10.945 1.395
22.641001 10.932 1.383
22.639999 10.939 1.378
22.639999 10.941 1.372
22.639999 10.94 1.365
22.641001 10.913 1.348
22.639999 10.943 1.351
22.639 10.951 1.347
22.639 10.951 1.34
22.639 10.936 1.3279999
22.639 10.937 1.321
22.639 10.935 1.314
22.638 10.953 1.312
22.638 10.954 1.3049999
22.638 10.935 1.2920001
22.638 10.948 1.289
22.638 10.947 1.2819999
22.636999 10.958 1.279
22.636999 10.946 1.268
22.636999 10.948 1.261
22.636999 10.945 1.2539999
22.636999 10.928 1.2410001
22.636999 10.926 1.234
22.636999 10.928 1.227
22.636 10.943 1.225
22.636999 10.927 1.2130001
22.636999 10.924 1.206
22.636 10.921 1.198
22.636999 10.909 1.187
22.636 10.925 1.1849999
22.636 10.932 1.1799999
22.635 10.937 1.175
22.636 10.919 1.163
22.635 10.926 1.158
22.635 10.931 1.153
22.635 10.928 1.145
22.635 10.913 1.1339999
22.634001 10.932 1.132
22.634001 10.935 1.126
22.634001 10.926 1.117
22.635 10.905 1.105
22.635 10.898 1.096
22.635 10.891 1.087
22.634001 10.897 1.082
22.634001 10.889 1.073
22.634001 10.9 1.069
22.632999 10.926 1.069
22.632999 10.918 1.061
22.632999 10.92 1.054
22.632 10.935 1.051
22.632 10.93 1.043
22.632 10.93 1.036
22.632 10.935 1.031
22.632 10.934 1.024
22.631001 10.936 1.018
22.631001 10.93 1.01
22.632 10.92 1
22.631001 10.931 0.99699998
22.629999 10.945 0.99299997
22.629999 10.939 0.98500001
22.631001 10.927 0.97500002
22.629999 10.93 0.97000003
22.629999 10.95 0.96700001
22.629999 10.945 0.95999998
22.629999 10.92 0.94700003
22.629999 10.936 0.94400001
22.629 10.943 0.93900001
22.628 10.959 0.93599999
22.628 10.98 0.93400002
22.627001 10.981 0.92699999
22.628 10.97 0.91799998
22.628 10.948 0.90700001
22.628 10.939 0.898
22.628 10.942 0.89200002
22.627001 10.958 0.889
22.627001 10.955 0.88099998
22.627001 10.955 0.875
22.628 10.932 0.86299998
22.627001 10.946 0.86000001
22.628 10.928 0.84899998
22.627001 10.953 0.84799999
22.625999 10.965 0.84299999
22.625999 10.958 0.83600003
22.625999 10.943 0.82599998
22.625999 10.947 0.81999999
22.625 10.965 0.81699997
22.625 10.961 0.81
22.625999 10.935 0.79799998
22.625 10.957 0.79500002
22.625 10.943 0.78600001
22.625 10.943 0.77999997
22.625 10.953 0.77499998
22.625 10.948 0.76800001
22.624001 10.955 0.76200002
22.625 10.934 0.75199997
22.624001 10.944 0.74699998
22.624001 10.955 0.74199998
22.624001 10.956 0.736
22.624001 10.934 0.72600001
22.624001 10.932 0.71899998
22.624001 10.939 0.71399999
22.622999 10.943 0.708
22.622999 10.951 0.70200002
22.622999 10.942 0.69400001
22.622999 10.944 0.68800002
22.622999 10.931 0.68000001
22.622 10.955 0.67699999
22.622 10.959 0.671
22.622999 10.934 0.66100001
22.622 10.949 0.65600002
22.622 10.942 0.64899999
22.621 10.958 0.64499998
22.622 10.944 0.63599998
22.621 10.958 0.63200003
22.621 10.955 0.625
22.621 10.952 0.61799997
22.621 10.933 0.60900003
22.621 10.951 0.60500002
22.620001 10.957 0.59899998
22.621 10.94 0.58999997
22.620001 10.938 0.58399999
22.620001 10.945 0.57800001
22.620001 10.946 0.57200003
22.620001 10.924 0.56199998
22.620001 10.928 0.55699998
22.620001 10.923 0.54900002
22.620001 10.932 0.54400003
22.618999 10.942 0.53899997
22.620001 10.928 0.53100002
22.618999 10.945 0.52600002
22.618 10.955 0.52100003
22.618 10.949 0.514
22.618 10.954 0.50800002
22.618999 10.934 0.49900001
22.618 10.936 0.493
22.618 10.938 0.48699999
22.618 10.951 0.48199999
22.618 10.944 0.47499999
22.618 10.932 0.46700001
22.617001 10.94 0.461
22.617001 10.943 0.45500001
22.617001 10.935 0.44800001
22.617001 10.938 0.442
22.615999 10.947 0.43599999
22.615999 10.946 0.43000001
22.615999 10.936 0.42300001
22.615999 10.951 0.417
22.615999 10.943 0.41
22.615 10.952 0.405
22.615 10.959 0.39899999
22.615 10.955 0.39199999
22.615 10.937 0.384
22.615 10.934 0.37799999
22.615 10.941 0.37200001
22.615 10.942 0.36500001
22.615999 10.916 0.35699999
22.615 10.929 0.352
22.614 10.953 0.347
22.614 10.946 0.34
22.614 10.942 0.333
22.614 10.952 0.32800001
22.614 10.941 0.32100001
22.614 10.937 0.31400001
22.614 10.931 0.30700001
22.614 10.928 0.301
22.613001 10.949 0.29499999
22.613001 10.934 0.28799999
22.613001 10.924 0.28200001
22.613001 10.935 0.27599999
22.612 10.946 0.27000001
22.613001 10.93 0.26300001
22.613001 10.928 0.25600001
22.613001 10.929 0.25
22.612 10.946 0.244
22.613001 10.92 0.237
22.612 10.936 0.23100001
22.611 10.94 0.22499999
22.612 10.926 0.21799999
22.611 10.935 0.212
22.612 10.923 0.205
22.611 10.928 0.199
22.611 10.921 0.193
22.612 10.913 0.186
22.612 10.91 0.18000001
22.611 10.918 0.17399999
22.611 10.923 0.167
22.611 10.91 0.161
22.610001 10.925 0.155
22.610001 10.93 0.148
22.610001 10.915 0.142
22.611 10.905 0.13600001
22.611 10.895 0.12899999
22.610001 10.905 0.123
22.611 10.88 0.117
22.611 10.875 0.11
22.611 10.875 0.104
22.610001 10.885 0.097999997
22.611 10.855 0.092
22.611 10.85 0.086000003
22.612 10.84 0.079999998
22.612 10.835 0.072999999
22.611 10.835 0.067000002
22.611 10.835 0.061000001
22.612 10.82 0.055
22.611 10.825 0.048999999
22.611 10.824 0.043000001
22.612 10.79 0.037
22.612 10.799 0.030999999
22.612 10.785 0.025
22.612 10.799 0.018999999
22.612 10.78 0.013
22.613001 10.766 0.0080000004
22.684 10.487 2.6630001
22.684 10.503 2.6659999
22.684 10.508 2.661
22.683001 10.512 2.655
22.683001 10.513 2.6459999
22.683001 10.509 2.635
22.681999 10.53 2.642
22.681999 10.532 2.6340001
22.681999 10.538 2.6300001
22.681999 10.531 2.6159999
22.681 10.543 2.6159999
22.681 10.543 2.6070001
22.68 10.552 2.605
22.68 10.548 2.5929999
22.68 10.568 2.599
22.679001 10.573 2.5940001
22.679001 10.565 2.579
22.679001 10.583 2.5840001
22.677999 10.592 2.5810001
22.677999 10.586 2.5680001
22.677999 10.583 2.556
22.677 10.602 2.562
22.677 10.603 2.5539999
22.677 10.611 2.5510001
22.676001 10.612 2.5420001
22.676001 10.607 2.53
22.676001 10.608 2.5220001
22.676001 10.619 2.5209999
22.674999 10.637 2.5250001
22.674999 10.64 2.5179999
22.674999 10.636 2.507
22.674 10.64 2.5009999
22.673 10.665 2.51
22.673 10.661 2.4979999
22.673 10.661 2.4890001
22.673 10.673 2.4890001
22.672001 10.675 2.4820001
22.672001 10.682 2.4779999
22.671 10.694 2.477
22.671 10.689 2.4649999
22.671 10.698 2.4619999
22.671 10.702 2.4560001
22.67 10.715 2.457
22.67 10.702 2.4389999
22.67 10.718 2.441
22.669001 10.719 2.4330001
22.669001 10.723 2.427
22.669001 10.734 2.4260001
22.667999 10.738 2.4200001
22.667999 10.742 2.414
22.667999 10.75 2.4100001
22.667 10.754 2.405
22.667 10.754 2.3959999
22.666 10.773 2.4000001
22.666 10.771 2.3900001
22.666 10.773 2.382
22.666 10.782 2.3800001
22.665001 10.797 2.381
22.665001 10.78 2.3610001
22.665001 10.795 2.362
22.664 10.799 2.3559999
22.664 10.804 2.3510001
22.664 10.815 2.349
22.663 10.823 2.345
22.663 10.835 2.345
22.662001 10.839 2.3380001
22.662001 10.834 2.3269999
22.662001 10.849 2.3280001
22.662001 10.843 2.3150001
22.660999 10.857 2.3150001
22.660999 10.85 2.302
22.66 10.879 2.312
22.66 10.873 2.3
22.66 10.87 2.289
22.66 10.871 2.2809999
22.659 10.873 2.2739999
22.659 10.888 2.2750001
22.658001 10.896 2.27
22.658001 10.895 2.2620001
22.658001 10.9 2.256
22.657 10.919 2.2590001
22.657 10.923 2.2520001
22.657 10.916 2.24
22.656 10.921 2.2349999
22.657 10.909 2.2190001
22.656 10.937 2.227
22.655001 10.935 2.217
22.655001 10.948 2.2160001
22.655001 10.952 2.21
22.655001 10.942 2.1960001
22.653999 10.943 2.188
22.653999 10.934 2.175
22.653999 10.932 2.165
22.653999 10.936 2.1589999
22.653999 10.936 2.151
22.653 10.951 2.151
22.653999 10.93 2.131
22.653 10.937 2.1259999
22.653 10.948 2.1240001
22.653 10.939 2.1110001
22.652 10.95 2.109
22.652 10.937 2.0929999
22.652 10.946 2.0899999
22.652 10.944 2.0799999
22.652 10.931 2.066
22.650999 10.947 2.066
22.650999 10.938 2.053
22.650999 10.946 2.049
22.650999 10.935 2.0350001
22.65 10.943 2.0309999
22.65 10.942 2.023
22.65 10.929 2.0079999
22.65 10.941 2.006
22.65 10.943 1.999
22.649 10.946 1.992
22.649 10.937 1.98
22.649 10.944 1.975
22.649 10.939 1.965
22.649 10.936 1.956
22.649 10.919 1.939
22.648001 10.943 1.943
22.648001 10.942 1.9349999
22.648001 10.937 1.924
22.648001 10.932 1.914
22.648001 10.93 1.905
22.646999 10.947 1.905
22.646999 10.923 1.886
22.646999 10.935 1.8839999
22.646999 10.925 1.8710001
22.646999 10.928 1.865
22.646 10.935 1.86
22.646999 10.92 1.845
22.646 10.931 1.8430001
22.645 10.952 1.845
22.646 10.929 1.826
22.646 10.927 1.818
22.645 10.935 1.814
22.645 10.946 1.811
22.645 10.931 1.796
22.645 10.934 1.79
22.643999 10.946 1.788
22.643999 10.941 1.778
22.643999 10.93 1.765
22.643999 10.936 1.761
22.643 10.944 1.756
22.643 10.942 1.748
22.643 10.945 1.7410001
22.643 10.94 1.732
22.643 10.934 1.722
22.643 10.936 1.715
22.642 10.952 1.714
22.643 10.924 1.694
22.642 10.943 1.6950001
22.641001 10.952 1.691
22.642 10.94 1.679
22.642 10.934 1.669
22.641001 10.945 1.666
22.641001 10.935 1.654
22.641001 10.941 1.649
22.641001 10.945 1.643
22.639999 10.947 1.637
22.639999 10.958 1.6339999
22.639999 10.943 1.62
22.639999 10.946 1.614
22.639999 10.948 1.607
22.639 10.942 1.598
22.639 10.941 1.59
22.639 10.949 1.586
22.638 10.954 1.58
22.639 10.938 1.567
22.639 10.936 1.558
22.638 10.94 1.552
22.638 10.941 1.546
22.638 10.939 1.5369999
22.636999 10.955 1.536
22.638 10.939 1.523
22.636999 10.943 1.517
22.638 10.923 1.502
22.636999 10.93 1.497
22.636999 10.932 1.4910001
22.636999 10.942 1.488
22.636999 10.936 1.478
22.636 10.943 1.473
22.636 10.944 1.467
22.636 10.938 1.457
22.635 10.949 1.454
22.635 10.946 1.446
22.635 10.943 1.437
22.635 10.947 1.431
22.635 10.93 1.418
22.635 10.948 1.418
22.635 10.931 1.404
22.634001 10.946 1.403
22.634001 10.934 1.391
22.634001 10.928 1.382
22.634001 10.93 1.376
22.634001 10.941 1.372
22.634001 10.934 1.363
22.632999 10.942 1.359
22.632999 10.951 1.354
22.632999 10.949 1.346
22.632999 10.938 1.336
22.632999 10.922 1.323
22.632 10.948 1.325
22.632 10.94 1.3150001
22.632 10.937 1.307
22.632 10.939 1.301
22.632 10.942 1.295
22.632 10.944 1.289
22.631001 10.942 1.281
22.631001 10.943 1.274
22.631001 10.946 1.268
22.631001 10.953 1.263
22.631001 10.935 1.251
22.629999 10.947 1.247
22.631001 10.935 1.237
22.629999 10.941 1.232
22.629999 10.946 1.226
22.629999 10.917 1.211
22.629999 10.924 1.206
22.629999 10.916 1.197
22.629 10.937 1.196
22.629999 10.915 1.183
22.629999 10.908 1.173
22.629 10.94 1.176
22.629 10.919 1.163
22.629 10.93 1.159
22.628 10.938 1.155
22.629 10.92 1.143
22.628 10.932 1.1390001
22.628 10.929 1.132
22.628 10.922 1.123
22.628 10.931 1.119
22.628 10.906 1.105
22.629 10.874 1.09
22.628 10.895 1.0880001
22.628 10.887 1.08
22.628 10.889 1.073
22.627001 10.915 1.073
22.627001 10.921 1.068
22.625999 10.932 1.0650001
22.627001 10.915 1.053
22.627001 10.912 1.046
22.625999 10.931 1.044
22.625999 10.934 1.038
22.625999 10.931 1.03
22.625 10.936 1.025
22.625 10.943 1.02
22.625 10.921 1.008
22.625 10.916 1
22.624001 10.941 0.99900001
22.625 10.93 0.99000001
22.624001 10.932 0.98400003
22.624001 10.94 0.97899997
22.624001 10.94 0.972
22.624001 10.929 0.963
22.622999 10.94 0.95899999
22.624001 10.927 0.949
22.622999 10.93 0.94300002
22.622999 10.937 0.93800002
22.622 10.963 0.93699998
22.621 10.999 0.93800002
22.621 10.981 0.92699999
22.621 10.97 0.91799998
22.622 10.952 0.90799999
22.622 10.941 0.89899999
22.622 10.934 0.89099997
22.622 10.942 0.88599998
22.621 10.947 0.88
22.621 10.939 0.87199998
22.621 10.94 0.86500001
22.621 10.944 0.85900003
22.620001 10.944 0.85299999
22.620001 10.96 0.84899998
22.620001 10.955 0.84200001
22.620001 10.952 0.83499998
22.620001 10.948 0.82700002
22.618999 10.95 0.82099998
22.618999 10.952 0.815
22.618999 10.952 0.80800003
22.618999 10.939 0.79900002
22.620001 10.926 0.79000002
22.618999 10.931 0.78399998
22.618 10.95 0.78100002
22.618999 10.937 0.77200001
22.618 10.943 0.76700002
22.618 10.94 0.75999999
22.618 10.941 0.75300002
22.618 10.934 0.74599999
22.618 10.946 0.741
22.618 10.931 0.73199999
22.618 10.93 0.72500002
22.617001 10.942 0.72100002
22.617001 10.947 0.71499997
22.617001 10.946 0.708
22.617001 10.94 0.70099998
22.615999 10.965 0.69800001
22.615999 10.954 0.69
22.615 10.966 0.685
22.615999 10.947 0.676
22.615999 10.938 0.66799998
22.615999 10.931 0.66100001
22.615999 10.937 0.65499997
22.615999 10.927 0.64700001
22.615999 10.937 0.64200002
22.615 10.936 0.63499999
22.615 10.947 0.63
22.615 10.948 0.62400001
22.614 10.949 0.61799997
22.615 10.931 0.60900003
22.614 10.943 0.60399997
22.614 10.941 0.597
22.614 10.95 0.59200001
22.614 10.941 0.58399999
22.614 10.944 0.57800001
22.613001 10.948 0.57200003
22.614 10.934 0.56400001
22.614 10.934 0.55699998
22.613001 10.947 0.55199999
22.613001 10.943 0.546
22.613001 10.937 0.53799999
22.612 10.959 0.53399998
22.613001 10.928 0.52499998
22.612 10.948 0.51999998
22.612 10.956 0.51499999
22.612 10.957 0.50800002
22.612 10.95 0.50099999
22.612 10.936 0.493
22.612 10.94 0.48699999
22.612 10.929 0.47999999
22.612 10.934 0.47400001
22.611 10.934 0.46700001
22.611 10.936 0.461
22.611 10.948 0.456
22.611 10.945 0.449
22.611 10.929 0.44100001
22.610001 10.953 0.43700001
22.610001 10.948 0.43000001
22.610001 10.94 0.42300001
