ply
format ascii 1.0
comment PCL generated
element vertex 743
property float x
property float y
property float z
element camera 1
property float view_px
property float view_py
property float view_pz
property float x_axisx
property float x_axisy
property float x_axisz
property float y_axisx
property float y_axisy
property float y_axisz
property float z_axisx
property float z_axisy
property float z_axisz
property float focal
property float scalex
property float scaley
property float centerx
property float centery
property int viewportx
property int viewporty
property float k1
property float k2
end_header
9.1572866 -5.0312858 0.02695238
9.2500381 -5.0378466 0.038653847
9.3215561 -5.0283332 0.029222224
9.1509695 -4.9491024 0.048779402
9.2695007 -4.9906249 0.071249999
9.3171043 -4.9479995 0.042999998
9.1519718 -4.8534775 0.05097102
9.3247662 -4.8561001 0.044366669
9.1640406 -4.7620406 0.057399999
9.2462969 -4.7354445 0.026407406
9.3287001 -4.7433672 0.059933331
9.4040003 -4.7043333 0.054666668
10.368999 -4.7025003 0.086000003
10.450546 -4.7079544 0.046318185
10.557087 -4.7145643 0.056130443
10.6174 -4.7203002 0.029300002
7.9610839 -4.6028337 0.026499998
8.046277 -4.6116548 0.047448274
8.1422081 -4.6213341 0.057333332
8.2209997 -4.6209998 0.073800005
9.1833105 -4.6490469 0.047984622
9.208375 -4.6621246 0.059125002
9.3909998 -4.664 0.082000002
9.4159975 -4.6500001 0.046872336
10.378551 -4.6643004 0.070999995
10.429579 -4.6478944 0.023684209
10.588584 -4.6566672 0.079000011
10.636976 -4.6501794 0.035897437
7.9632792 -4.5523329 0.042279568
8.0107889 -4.5427895 0.084684215
8.1673336 -4.536334 0.021666666
8.2270002 -4.5553336 0.080333337
9.1827431 -4.5572338 0.050000001
9.2291918 -4.5356927 0.053307697
9.3496866 -4.5218124 0.0503125
9.4253578 -4.5597696 0.052692309
10.369287 -4.5610003 0.07807143
10.440266 -4.5602646 0.044705886
10.546668 -4.554698 0.048848491
10.632189 -4.5684595 0.038675681
7.9743791 -4.4791727 0.036482763
8.0401249 -4.4713631 0.055418178
8.1462946 -4.4754701 0.051823534
8.2279997 -4.482625 0.072437502
9.1760798 -4.4466705 0.050232872
9.2361431 -4.4842858 0.02557143
9.357667 -4.4459443 0.050962966
9.1818867 -4.349968 0.052516129
9.2051105 -4.3361115 0.037777781
9.3665104 -4.3498168 0.04765306
9.1862001 -4.2694001 0.038400002
9.2339125 -4.2374663 0.057644442
9.3458185 -4.2493176 0.04447728
9.1709995 -4.1929998 0.018999999
9.2476254 -4.1886253 0.0099999998
9.3332005 -4.1934004 0.0055999998
9.1710672 -4.9312005 0.13383333
9.2538576 -4.9406428 0.147
9.3100014 -4.923667 0.1337778
9.1552792 -4.8537374 0.14865573
9.2930002 -4.8889999 0.183
9.3228054 -4.8494515 0.14529032
9.159029 -4.7523685 0.14985293
9.3345299 -4.744 0.14794117
10.287001 -4.7040005 0.17800002
10.355531 -4.7048831 0.15623531
10.452393 -4.7080436 0.14778261
10.533358 -4.7115002 0.13071428
8.0698004 -4.6041999 0.1278
8.1499996 -4.6114402 0.15052001
8.2407217 -4.6219597 0.15855999
9.1724081 -4.6535764 0.14967796
9.2336426 -4.6322145 0.14621429
9.3835459 -4.6851816 0.15936364
9.4169569 -4.642333 0.15079999
10.274092 -4.6507721 0.17963639
10.33075 -4.6622925 0.13412499
10.480286 -4.6658573 0.19085714
10.540572 -4.6491628 0.14075515
8.0551987 -4.5571361 0.14721623
8.1134281 -4.5395713 0.18614286
8.2713346 -4.5469999 0.14583334
8.3213339 -4.5480003 0.18933335
9.1721258 -4.5438061 0.15275438
9.2402496 -4.5758748 0.1305
9.3649235 -4.5148463 0.14500001
9.42342 -4.5606842 0.15439475
10.284 -4.5562854 0.17478572
10.350653 -4.549674 0.14572097
10.447498 -4.5465932 0.14859374
10.539458 -4.5620418 0.13810413
8.0661049 -4.47475 0.13731252
8.1446981 -4.4684896 0.1553396
8.2457342 -4.4754677 0.15422222
8.3157272 -4.4769092 0.17436364
9.1740894 -4.4492388 0.14892538
9.358489 -4.4459791 0.15593615
9.1809225 -4.3564348 0.14505661
9.2347326 -4.3210006 0.16600001
9.3521261 -4.3494048 0.15297873
9.1899996 -4.2897501 0.1285
9.2456369 -4.2802734 0.12295455
9.3204002 -4.2846003 0.12780002
9.2725 -4.9014997 0.2025
9.1684294 -4.8360009 0.2334048
9.2511673 -4.8503671 0.24770001
9.3162146 -4.8395715 0.22821428
9.1592302 -4.750545 0.24819699
9.2915001 -4.7989998 0.27249998
9.3348923 -4.744143 0.24185713
10.2545 -4.7020001 0.227
10.355144 -4.7078571 0.23099999
10.435573 -4.706286 0.23942858
8.1551428 -4.6051431 0.21657147
8.258852 -4.6118145 0.24322222
8.3353338 -4.6195831 0.26087502
9.1663561 -4.6512737 0.25167122
9.2069998 -4.6059999 0.206
9.3737507 -4.6941247 0.25237501
9.4154625 -4.6407948 0.250359
10.181095 -4.6508746 0.28231248
10.240207 -4.6596518 0.23717457
10.352728 -4.6966367 0.26318184
10.443341 -4.6470799 0.24654
10.504 -4.658 0.204
8.0950003 -4.5610003 0.20650001
8.1469049 -4.553596 0.25001749
8.2190008 -4.5776253 0.28812501
8.369215 -4.5570717 0.25085717
8.4098577 -4.5442858 0.29000002
9.1690435 -4.5510826 0.24757539
9.2119999 -4.5149999 0.245
9.3704443 -4.5247779 0.25166669
9.4207382 -4.5567636 0.25542101
10.181471 -4.5578818 0.28152937
10.24673 -4.549458 0.2492203
10.357269 -4.5397301 0.24705406
10.440894 -4.5555086 0.24373679
8.1612415 -4.4720006 0.24296299
8.2393646 -4.4651275 0.25272733
8.3440523 -4.4760776 0.2509487
8.4197998 -4.4861999 0.28400001
9.1747684 -4.4517527 0.2438841
9.2390013 -4.4089999 0.28460002
9.3509388 -4.4517646 0.25009805
9.1865463 -4.3746367 0.22036362
9.2463827 -4.3696599 0.24240424
9.3313208 -4.3741078 0.23350003
9.2442493 -4.80725 0.31149998
9.1714096 -4.7393866 0.33613637
9.2565193 -4.7576666 0.35333329
9.3161821 -4.7337275 0.33127275
10.179 -4.7145 0.36000001
10.251499 -4.7129998 0.34600002
10.348182 -4.711545 0.33872727
8.2763329 -4.6043334 0.31366667
8.3557501 -4.6112499 0.34362501
8.4350557 -4.6153884 0.37172219
9.1614313 -4.6506619 0.35141888
9.368556 -4.6800556 0.34494445
9.4117956 -4.6440511 0.34182048
10.084999 -4.6518126 0.38331252
10.135257 -4.6571746 0.34374607
10.25062 -4.6932859 0.34690472
10.345283 -4.6540151 0.34865671
10.403334 -4.665 0.30733335
8.1888752 -4.552938 0.31518751
8.2373934 -4.5572944 0.35360873
8.3288336 -4.5980005 0.35783336
8.4577274 -4.5507874 0.35236365
8.5039997 -4.5404997 0.39450002
9.1660366 -4.5504742 0.35057691
9.2030001 -4.5110002 0.398
9.3706675 -4.5137339 0.35406667
9.4207964 -4.5502038 0.35028571
10.087563 -4.552937 0.38562506
10.142961 -4.550849 0.34941089
10.252696 -4.5318913 0.35317388
10.351044 -4.5536475 0.34592643
10.411333 -4.5603333 0.30700001
8.1960001 -4.4889998 0.30500001
8.2522469 -4.4703159 0.34578949
8.348526 -4.4624214 0.35286841
8.4494696 -4.4763532 0.35414708
8.5162001 -4.4818001 0.3836
9.1809397 -4.4693031 0.33351514
9.2439318 -4.4512033 0.34731817
9.3344049 -4.4650812 0.33802697
9.4231997 -4.4954004 0.3788
9.184 -4.7129998 0.40000001
9.2548008 -4.7110004 0.4052
9.3703995 -4.7144003 0.43579999
10.181 -4.7030001 0.40099999
10.274 -4.7065001 0.41749999
8.3751249 -4.6046247 0.43737498
8.4539032 -4.6101289 0.44525814
8.5139999 -4.6146665 0.46277776
9.1739998 -4.6515641 0.44874653
9.2493477 -4.6897826 0.4576956
9.3628244 -4.6795292 0.45085296
9.4151249 -4.6371675 0.43875003
9.9917507 -4.6436253 0.48600003
10.041684 -4.650928 0.44511431
10.146138 -4.6845913 0.44881818
10.24986 -4.6605349 0.45002806
10.306 -4.6599998 0.412
8.2823229 -4.5547938 0.4165
8.334547 -4.5546141 0.46078664
8.4653339 -4.5830002 0.43433332
8.5443735 -4.5497441 0.45286044
9.1751223 -4.5526762 0.4518615
9.2352219 -4.5099444 0.44688892
9.3511238 -4.5114512 0.44117498
9.4184904 -4.5455589 0.44730505
9.9898338 -4.5563335 0.49283335
10.045066 -4.5488138 0.45322669
10.152418 -4.5297675 0.45090687
10.253363 -4.548758 0.45256057
10.3138 -4.5618005 0.41580001
8.2929993 -4.478375 0.41299996
8.3488398 -4.4650798 0.45076197
8.4482489 -4.4614997 0.45280552
8.5409393 -4.4803624 0.45357576
8.6025 -4.4790001 0.48750001
9.1814289 -4.4891429 0.44
9.2339993 -4.4932427 0.45048487
9.3503342 -4.4946666 0.45166668
9.4245005 -4.4980001 0.4605
8.3705006 -4.3979998 0.40600002
10.163 -4.7054996 0.53200001
8.4681253 -4.6055002 0.51374996
8.5477209 -4.6089196 0.54767996
8.6292725 -4.6118183 0.56772733
9.1815882 -4.646162 0.55066162
9.2523212 -4.6818213 0.54796427
9.3681822 -4.6712132 0.54915154
9.4112005 -4.6311502 0.54444999
9.8921995 -4.6690001 0.59320003
9.9480534 -4.6487045 0.54901356
10.051666 -4.6795835 0.54695839
10.157999 -4.6583872 0.5547958
10.209111 -4.6457777 0.51655561
8.3790007 -4.5514617 0.52461541
8.432786 -4.5595403 0.56826222
8.5597153 -4.5710001 0.53985709
8.6357183 -4.550231 0.5531795
9.1813841 -4.5518022 0.54721051
9.2273684 -4.520895 0.54442108
9.3519678 -4.5119677 0.54396778
9.4175978 -4.5438552 0.54809666
9.8964996 -4.5755 0.58850002
9.9495726 -4.5512371 0.55417508
10.048148 -4.5248542 0.54614621
10.156486 -4.5441003 0.55181676
10.211143 -4.5567145 0.51964295
8.3868008 -4.4780002 0.51626664
8.4463434 -4.4632235 0.55444783
8.5546789 -4.4637499 0.55192864
8.6384821 -4.4828148 0.55470371
8.7119999 -4.4780002 0.59899998
9.1735554 -4.4835558 0.56022227
9.236763 -4.4931192 0.5494048
9.3527145 -4.4968576 0.54992861
9.4224005 -4.4958 0.5456
8.5757999 -4.6055999 0.61759996
8.6464176 -4.6121674 0.64962506
8.70825 -4.6185002 0.68149996
9.1809273 -4.6438651 0.64776123
9.2404346 -4.6748333 0.64903343
9.3650017 -4.6657267 0.65390915
9.4119005 -4.6492 0.63919997
9.7869997 -4.6434999 0.68075001
9.8572731 -4.6434026 0.65314519
9.9533806 -4.6716189 0.6440953
10.05934 -4.6572804 0.65532005
10.115145 -4.6464996 0.61199999
8.4727402 -4.5563145 0.63151848
8.5326443 -4.5642505 0.66603565
8.6761999 -4.563067 0.63006663
8.7278328 -4.5467777 0.6606667
9.1806231 -4.5511727 0.64752173
9.2189999 -4.5165 0.65120006
9.3700705 -4.5087862 0.63992852
9.415328 -4.5462036 0.64804083
9.7250004 -4.5229998 0.69700003
9.8595924 -4.5475316 0.65626562
9.94063 -4.5243702 0.64725924
10.055321 -4.540453 0.65766037
10.115959 -4.5504584 0.62016666
8.484374 -4.4740624 0.62218755
8.5426893 -4.4637241 0.6600346
8.6506672 -4.4664445 0.655074
8.7378464 -4.4795384 0.66180772
9.1829233 -4.4855385 0.6597693
9.2366323 -4.488266 0.65259999
9.3414707 -4.4933524 0.66511762
9.4214001 -4.4970002 0.6498
9.9580002 -4.7350001 0.78799999
8.6794281 -4.6052856 0.72357142
8.7500019 -4.6107616 0.74957138
8.8182859 -4.6098571 0.78671432
9.1820526 -4.6375365 0.74733937
9.2390003 -4.6685724 0.74953586
9.3573885 -4.6678896 0.74911118
9.4078665 -4.6395998 0.74713337
9.7584877 -4.6330695 0.75488371
9.8385849 -4.6540346 0.74420691
9.961792 -4.6563749 0.75477076
10.020352 -4.6388822 0.72152948
8.5652952 -4.550786 0.7357049
8.6287756 -4.5651503 0.76687497
8.7587624 -4.5656662 0.72799999
8.8260012 -4.5413847 0.7656154
9.1836758 -4.5471697 0.74774033
9.2182503 -4.5237503 0.75450003
9.3792315 -4.5190773 0.75330776
9.4175749 -4.5433507 0.74332505
9.5030003 -4.5479999 0.74900001
9.668334 -4.5100002 0.77433336
9.761817 -4.5461817 0.75834548
9.8467541 -4.5212646 0.74061215
9.9621868 -4.5322218 0.75707406
10.028312 -4.547718 0.72387493
8.5761871 -4.4667501 0.72534376
8.6416302 -4.4579077 0.75779617
8.7482271 -4.4660869 0.75059992
8.8374748 -4.4819999 0.76626319
9.1837282 -4.4833641 0.75200003
9.2382278 -4.4866667 0.7465834
9.3454838 -4.491879 0.74715155
9.4169998 -4.4955001 0.75949997
9.7800007 -4.4955001 0.78750002
9.8400002 -4.4966669 0.76233333
9.9393339 -4.7160001 0.81111115
8.7370005 -4.6020002 0.80699998
8.851944 -4.6076665 0.85066664
8.9040003 -4.6030002 0.83399999
9.1766367 -4.632021 0.84787226
9.2376089 -4.6717381 0.84782618
9.3574162 -4.6646385 0.85016668
9.4209232 -4.6282306 0.85023081
9.6704626 -4.6259623 0.85669243
9.7319613 -4.6455002 0.83865386
9.8605099 -4.6533399 0.85823399
9.9276152 -4.6493082 0.81957698
8.5970001 -4.5549998 0.80000001
8.6597328 -4.5509868 0.83892
8.7328529 -4.5707564 0.8664878
8.8542347 -4.574235 0.84405875
8.9228001 -4.5411997 0.87220001
9.1796188 -4.5480399 0.84927619
9.1999998 -4.5279999 0.847
9.3865004 -4.5181665 0.84766668
9.4166784 -4.5522404 0.84367996
9.6757841 -4.5518918 0.85956758
9.7426662 -4.5190001 0.83569229
9.8687057 -4.5307455 0.86270577
9.926425 -4.5402246 0.82874995
8.6731939 -4.4645114 0.82931691
8.7413149 -4.4594731 0.86277181
8.8503914 -4.4669127 0.84567386
8.9241772 -4.478353 0.86523527
9.1888466 -4.4879231 0.85130775
9.2431755 -4.4837251 0.85030001
9.3426571 -4.4890003 0.84439999
9.4169292 -4.4924288 0.8504287
9.6777496 -4.4945002 0.86499995
9.7433586 -4.4948568 0.86764294
9.8406668 -4.4983335 0.83266664
8.8685999 -4.6041999 0.91660005
8.9518671 -4.6054668 0.95539993
9.1771994 -4.6358752 0.95120013
9.2429619 -4.6692691 0.94346166
9.3579693 -4.6586251 0.95578122
9.4277496 -4.6314998 0.94287503
9.5957994 -4.6204 0.963
9.6485224 -4.6273041 0.93986958
9.7551479 -4.63903 0.9578529
9.8249483 -4.6366315 0.92752635
8.7591009 -4.5483999 0.94814998
8.8360405 -4.5817199 0.95951992
8.9539232 -4.5688462 0.93930769
9.0380001 -4.526 0.94500005
9.1799612 -4.5496674 0.94590759
9.2019997 -4.5100002 0.972
9.3856001 -4.5482001 0.93380004
9.4215231 -4.5447826 0.94991297
9.577611 -4.5391111 0.96877778
9.6290464 -4.5331426 0.9292382
9.7788324 -4.5307665 0.96613336
9.8336658 -4.5430002 0.9323591
8.7716188 -4.4666405 0.93998009
8.8436117 -4.4544678 0.95146769
8.9469776 -4.4687729 0.94704551
9.0290003 -4.4828 0.97313333
9.1816664 -4.482667 0.95299995
9.246294 -4.4799099 0.95286369
9.3433237 -4.4857645 0.94720596
9.4179993 -4.4900551 0.95161122
9.5883331 -4.4840002 0.97766674
9.6522064 -4.4890885 0.9564411
9.7435017 -4.4955416 0.95187515
9.8247995 -4.4973998 0.9278
8.9815006 -4.6025 1.016
9.0335007 -4.6040001 1.0646666
9.1749992 -4.6327639 1.0472631
9.2404203 -4.6625791 1.0485263
9.3562803 -4.6518435 1.0514375
9.4231434 -4.6347146 1.0400001
9.5476665 -4.6172504 1.0583333
9.6533566 -4.6245012 1.0529287
9.7265501 -4.6249504 1.0303
8.7910004 -4.5580006 1.006
8.8469639 -4.5480695 1.0472758
8.9419556 -4.5900002 1.0543636
9.0548754 -4.5643749 1.0466249
9.1661377 -4.551517 1.0370345
9.3874998 -4.579 1.04275
9.4470005 -4.5520997 1.0542001
9.5332861 -4.5287147 1.0352858
9.6812782 -4.5482221 1.0864445
9.7358065 -4.5480285 1.0335556
8.8633099 -4.4649305 1.0415634
8.9467545 -4.4520211 1.0498571
9.0465412 -4.4683514 1.0514593
9.1702499 -4.4817858 1.0583929
9.2523003 -4.4732995 1.05305
9.3553715 -4.4804001 1.0474858
9.4398565 -4.4896665 1.0535239
9.5566063 -4.4820004 1.0551213
9.6493511 -4.4855499 1.0548999
9.732667 -4.4933338 1.0319999
9.0755005 -4.6064997 1.1335
9.1704874 -4.632051 1.1513078
9.2404556 -4.6589546 1.1446816
9.3620853 -4.6451426 1.1516569
9.5575256 -4.6170006 1.150158
9.6293697 -4.6201582 1.1360002
8.8823624 -4.5463638 1.1088183
8.93785 -4.5464525 1.1492877
9.0441179 -4.5892348 1.154647
9.1611109 -4.5857778 1.141111
9.3859997 -4.598 1.196
9.4391441 -4.5704288 1.1439999
9.5943336 -4.5518336 1.1853335
9.6358118 -4.550756 1.1447836
8.8990002 -4.4829998 1.1094999
8.9554939 -4.4613295 1.1440116
9.0454521 -4.4497142 1.150405
9.1482573 -4.4670262 1.1537437
9.2528782 -4.4721212 1.1516097
9.3522816 -4.4761877 1.1445624
9.4568825 -4.4737444 1.1533489
9.5510006 -4.4741764 1.1435295
9.6317682 -4.4847999 1.1464001
9.1761703 -4.6328568 1.2474003
9.2503595 -4.6520395 1.2498399
9.3653517 -4.6494122 1.2557648
9.4266663 -4.6213336 1.2431667
9.5401812 -4.6137276 1.2256365
8.985961 -4.5451589 1.2197598
9.0358725 -4.5443335 1.2581429
9.1356001 -4.5897336 1.2576001
9.375 -4.5763335 1.2856667
9.4573755 -4.5780001 1.26175
9.5447969 -4.5501366 1.2454318
8.9933338 -4.4746666 1.2050002
9.0486259 -4.4555063 1.2469221
9.1527834 -4.4503517 1.2501353
9.2534504 -4.4698062 1.249871
9.3500233 -4.4622869 1.2509286
9.4500484 -4.462286 1.2448809
9.5461292 -4.4756155 1.2397437
9.1791782 -4.6335387 1.3508974
9.2436333 -4.6475005 1.3497
9.3689995 -4.6492825 1.3520256
9.4148331 -4.6190004 1.36
9.0782347 -4.5373669 1.3260002
9.136529 -4.5540791 1.3592942
9.2270002 -4.598 1.3839999
9.3937502 -4.5982504 1.349
9.4520254 -4.5527506 1.3474249
9.5080004 -4.5194998 1.3065
9.0906153 -4.4696159 1.3123077
9.1431131 -4.4537992 1.3487855
9.245513 -4.4401541 1.3507947
9.3482704 -4.4408751 1.3475833
9.4437742 -4.4650612 1.3457754
9.5085001 -4.4734998 1.3069999
9.3760014 -4.3956671 1.3503335
9.177434 -4.6258383 1.4488109
9.2485514 -4.6453104 1.4493794
9.3688583 -4.6405716 1.447143
9.4041672 -4.6273332 1.4416668
9.1676226 -4.551023 1.4496092
9.2040005 -4.5570002 1.423
9.3929377 -4.5606251 1.4489999
9.4087791 -4.5449457 1.447
9.1775579 -4.4717407 1.4456397
9.2438688 -4.4403887 1.4497037
9.3564529 -4.4503183 1.4495456
9.4167919 -4.4759169 1.4454168
9.1775274 -4.6226497 1.550325
9.2404804 -4.6415186 1.5492594
9.3693333 -4.6339293 1.5476903
9.4055004 -4.6202497 1.5452499
9.1724491 -4.5514755 1.5508047
9.2132502 -4.5655003 1.53475
9.390521 -4.5600433 1.546
9.4087315 -4.5427694 1.5538845
9.1754065 -4.4686098 1.5498304
9.251791 -4.4474587 1.5475206
9.3545818 -4.4543495 1.5537208
9.4167624 -4.4779997 1.5513335
9.1769428 -4.6230564 1.6488286
9.2461929 -4.6361928 1.6502694
9.3674994 -4.6319375 1.6519061
9.4081669 -4.6285 1.6386666
9.1699867 -4.5522652 1.6504819
9.2010002 -4.513 1.624
9.3915005 -4.5542498 1.6549641
9.4076509 -4.5450869 1.6379999
9.1767302 -4.4648952 1.6495224
9.2456503 -4.4458752 1.652675
9.3554773 -4.4523563 1.6529526
9.4141684 -4.4651332 1.6460334
9.1777163 -4.6236291 1.7464858
9.2461262 -4.6337914 1.7466667
9.3645401 -4.628027 1.7536216
9.4060001 -4.618 1.705
9.169775 -4.5543694 1.7497503
9.3902864 -4.5522847 1.7486283
9.4037361 -4.5471582 1.7482634
9.1755829 -4.4654155 1.7505844
9.2454624 -4.4409027 1.7515121
9.3515997 -4.4524755 1.7513249
9.4102726 -4.4609098 1.7459394
9.1759701 -4.6207576 1.8500605
9.2443342 -4.6306195 1.8469526
9.3573675 -4.6260533 1.8510789
9.1664896 -4.5515108 1.8505927
9.3901205 -4.5517807 1.8527803
9.4063749 -4.5357499 1.8498751
9.171896 -4.4625149 1.8464558
9.2437172 -4.4394617 1.8501798
9.357584 -4.4525633 1.8493125
9.40868 -4.4590716 1.8486788
9.17976 -4.6223111 1.9458275
9.2431002 -4.625 1.9511502
9.3462009 -4.6217675 1.9478333
9.1680231 -4.5535231 1.9516778
9.3864985 -4.5594163 1.9470558
9.4071112 -4.5331111 1.9654446
9.1701326 -4.4604869 1.9495128
9.2493582 -4.4329762 1.9473808
9.3620005 -4.4503999 1.9520403
9.4068899 -4.4641109 1.9505554
9.1835995 -4.6209598 2.0470397
9.2360497 -4.6235504 2.0468497
9.3452263 -4.6163869 2.0474515
9.1653891 -4.5512877 2.052738
9.3892813 -4.5594997 2.0513127
9.4037275 -4.5447273 2.0429089
9.168478 -4.4540114 2.0499334
9.2534122 -4.4296918 2.0469742
9.3617868 -4.4428082 2.0511489
9.4094172 -4.4562774 2.048861
9.1785288 -4.6133533 2.1506472
9.239481 -4.6185555 2.1455927
9.3524551 -4.6152267 2.1504548
9.1653004 -4.5507402 2.1517787
9.2010002 -4.5380001 2.128
9.3844261 -4.557085 2.1502976
9.4060001 -4.5170002 2.1110001
9.1669283 -4.4503775 2.1513178
9.2554007 -4.4237499 2.1500752
9.3675375 -4.445519 2.1508336
9.4115362 -4.4493933 2.1428573
9.1808004 -4.6136994 2.2469501
9.2455921 -4.6116815 2.2450001
9.3460941 -4.6131902 2.2520003
9.1626053 -4.5511141 2.2502694
9.3790226 -4.5518537 2.2488124
9.4020004 -4.5380001 2.2490001
9.1650105 -4.4509883 2.2506001
9.2534208 -4.4214201 2.2513425
9.3679571 -4.4449115 2.2523234
9.4094009 -4.438067 2.2377334
9.1778698 -4.6104345 2.3440435
9.2524347 -4.6070433 2.349
9.3546515 -4.6083479 2.3484349
9.1596756 -4.549932 2.3500407
9.3764219 -4.5507407 2.35166
9.1582623 -4.4499054 2.3501546
9.244051 -4.4168749 2.3520503
9.3628702 -4.4393425 2.3481572
9.4052505 -4.4317498 2.3468747
9.2449999 -4.3979998 2.385
9.3940001 -4.3969998 2.326
9.1726885 -4.6078753 2.444375
9.2338676 -4.6059337 2.4490669
9.3449993 -4.6122227 2.4353337
9.1482496 -4.554399 2.4505374
9.2664289 -4.5981431 2.4454286
9.3649282 -4.5575452 2.4500365
9.1404896 -4.4463291 2.4447682
9.2487688 -4.410924 2.4244616
9.3661165 -4.4410338 2.44415
9.40975 -4.4341249 2.443625
9.0979996 -4.388 2.454
9.1517706 -4.3671355 2.467423
9.2545376 -4.3586788 2.4622855
9.3140011 -4.3797998 2.4690001
9.1509523 -4.6212621 2.5634522
9.2471256 -4.6251254 2.5596251
9.3500004 -4.6123333 2.52
9.1394176 -4.5492034 2.5466957
9.2644997 -4.5955 2.5356247
9.3622856 -4.5514636 2.546679
9.0801125 -4.4195557 2.5500002
9.1406708 -4.4476714 2.5461714
9.2510004 -4.401 2.5220001
9.3658695 -4.443604 2.5520568
9.40625 -4.4302502 2.5320001
9.0869999 -4.3959999 2.5469999
9.1442614 -4.3455191 2.547117
9.2756405 -4.3383393 2.5404198
9.3280001 -4.3896003 2.5472
9.1536665 -4.2614746 2.5645611
9.2591095 -4.2563558 2.5597126
9.3026676 -4.2486668 2.5653334
9.1409998 -4.7160001 2.6989999
9.2360001 -4.7080002 2.6823335
9.1390505 -4.651885 2.6548867
9.2524137 -4.6572747 2.650255
9.3579998 -4.618 2.608
9.0885 -4.5679998 2.6279998
9.128891 -4.5479522 2.6485903
9.2678003 -4.5952005 2.6464002
9.3659821 -4.5487504 2.6498461
9.1516304 -4.4501915 2.6497674
9.2035007 -4.4484997 2.6820002
9.3698292 -4.4442501 2.6533849
9.4029999 -4.4475002 2.6500001
9.1493492 -4.348042 2.6492116
9.2888784 -4.3454552 2.652909
9.304801 -4.3506999 2.6497002
9.1482878 -4.249948 2.6475399
9.2842569 -4.2503076 2.6412821
9.3022509 -4.2536669 2.656167
9.1589375 -4.1625624 2.6598282
9.2586594 -4.1516972 2.6551707
9.3083649 -4.164454 2.6619093
9.2893333 -4.0970001 2.6920002
9.3100004 -4.0970001 2.6849999
9.140132 -4.7273021 2.757283
9.2446184 -4.7269411 2.7571471
9.1280794 -4.6515546 2.7500341
9.26373 -4.6605906 2.7510679
9.1346846 -4.5545397 2.7505393
9.2501116 -4.5727777 2.7640004
9.3655777 -4.5495782 2.7485778
9.1570921 -4.4502759 2.7509305
9.2690001 -4.4040003 2.7720001
9.3703985 -4.4414597 2.7481401
9.1571531 -4.346067 2.7382708
9.2666559 -4.3523436 2.7544062
9.309 -4.3447499 2.7527499
9.1527433 -4.2474723 2.7482166
9.2920637 -4.2490969 2.7398388
9.3054495 -4.2497001 2.7612002
9.1519728 -4.1505003 2.7485557
9.2867212 -4.1536398 2.74156
9.3056087 -4.140696 2.7568698
9.1611471 -4.0582442 2.7586074
9.2577229 -4.0488 2.7517998
9.3074074 -4.0598516 2.7538891
9.1800003 -4 2.7880001
9.2660007 -3.9927146 2.7898571
9.3190002 -3.993 2.793
9.1293335 -4.8045001 2.8921669
9.2425995 -4.8072004 2.8800001
9.099 -4.7789998 2.8610001
9.1312904 -4.7518744 2.8425443
9.2498617 -4.7583337 2.8520527
9.1217985 -4.6480994 2.8455141
9.2587023 -4.6580276 2.8497572
9.1585512 -4.5512667 2.8438668
9.2427502 -4.58425 2.844625
9.3611517 -4.5486736 2.8476088
9.1588125 -4.4480805 2.8448095
9.2400007 -4.4046669 2.8430002
9.3723335 -4.4440355 2.8485091
9.4060001 -4.4310002 2.823
9.1774006 -4.3835001 2.8446002
9.238924 -4.3855386 2.848
9.3241825 -4.3940911 2.8561819
9.401 -4.3979998 2.823
9.162653 -4.2456045 2.8333488
9.27353 -4.2514119 2.8395884
9.305584 -4.2265835 2.8326669
9.1606274 -4.1509995 2.8425303
9.2939243 -4.1504235 2.8493841
9.3066397 -4.1546397 2.8530002
9.1590195 -4.053597 2.8440773
9.2962008 -4.0517998 2.8430667
9.3079262 -4.0465932 2.8521852
9.1694088 -3.9586537 2.8514285
9.2551193 -3.9503734 2.8422537
9.3086891 -3.9546206 2.862
9.191 -3.8945 2.888
9.2602224 -3.8904445 2.891
9.3040009 -3.8896666 2.8873336
9.1284723 -4.8301387 2.9566391
9.2490788 -4.8261538 2.9557309
9.1188498 -4.7473407 2.951617
9.2559223 -4.7522302 2.9520774
9.1362038 -4.6570816 2.9462039
9.2566833 -4.6620913 2.9458179
9.1677313 -4.5506101 2.9498043
9.2462006 -4.5820003 2.9507999
9.3605747 -4.5460634 2.9487233
9.158577 -4.4459233 2.9469812
9.2406006 -4.4064002 2.9574001
9.3750401 -4.4470401 2.9525309
9.1748953 -4.3896322 2.9547894
9.2481117 -4.3896661 2.9530277
9.3365011 -4.395834 2.9443333
9.1820002 -4.2259998 2.9070001
9.1686926 -4.1395769 2.9388845
9.2825003 -4.1357503 2.9323335
9.3043346 -4.1288338 2.9341667
9.1648436 -4.0489101 2.947711
9.2916508 -4.0481009 2.9588499
9.309207 -4.0520005 2.9461036
9.1671658 -3.9516196 2.9458332
9.2978001 -3.9459996 2.9523001
9.3109188 -3.950865 2.9495406
9.173667 -3.8606277 2.9530194
9.2520151 -3.8419499 2.9427996
9.3138428 -3.8568683 2.9536843
9.177001 -3.7990003 2.9933333
9.2475996 -3.7849998 2.9907
0 0 0 1 0 0 0 1 0 0 0 1 0 0 0 0 0 743 1 0 0
