ply
format ascii 1.0
comment PCL generated
element vertex 565
property float x
property float y
property float z
element camera 1
property float view_px
property float view_py
property float view_pz
property float x_axisx
property float x_axisy
property float x_axisz
property float y_axisx
property float y_axisy
property float y_axisz
property float z_axisx
property float z_axisy
property float z_axisz
property float focal
property float scalex
property float scaley
property float centerx
property float centery
property int viewportx
property int viewporty
property float k1
property float k2
end_header
16.371799 10.67475 0.0199
16.455679 10.670161 0.027709674
16.513937 10.678374 0.0205625
15.47325 10.769419 0.020833332
15.543412 10.758058 0.047705878
15.655784 10.762087 0.041695654
15.727222 10.773778 0.072500005
16.3482 10.742799 0.056914285
16.447683 10.719048 0.074727282
16.543831 10.755411 0.047959991
16.604599 10.7822 0.078599997
17.284063 10.782814 0.075812504
17.352015 10.780031 0.052507699
17.448143 10.778376 0.045855075
17.510572 10.780857 0.013714286
15.473118 10.843765 0.027588235
15.51491 10.846364 0.074272737
15.684118 10.842587 0.01905882
15.724401 10.848102 0.06886667
16.295 10.851 0.0605
16.337456 10.843591 0.042500004
16.587448 10.852069 0.050827589
16.601667 10.839666 0.067333333
17.070999 10.875 0.075999998
17.267002 10.831333 0.075500004
17.314667 10.83389 0.024777779
17.465866 10.849364 0.063903861
17.510956 10.846364 0.01440909
15.482 10.911 0.048999999
15.698 10.922 0.050000001
16.333614 10.945232 0.032923073
16.587469 10.942169 0.050148938
16.600857 10.963429 0.062428571
17.268002 10.9165 0.080499999
17.318501 10.914499 0.043500002
17.460751 10.913417 0.055833336
16.327 11.050751 0.044
16.48243 11.068 0.036142856
16.520166 11.044167 0.028666666
16.4475 11.104 0.0305
15.56932 10.7708 0.1344
15.654188 10.76281 0.15018916
15.757527 10.7692 0.15025
15.8116 10.782801 0.1822
16.363396 10.779 0.14815789
16.448921 10.771918 0.14868002
16.549913 10.775729 0.14794286
16.608717 10.780001 0.146
17.19043 10.788571 0.17300001
17.258049 10.782969 0.15255556
17.346605 10.783097 0.14837702
17.416391 10.782501 0.1206111
15.565001 10.851751 0.13908336
15.607 10.848667 0.18866667
15.773868 10.846399 0.1348
15.81181 10.852375 0.17725001
16.33526 10.847303 0.1501739
16.587629 10.845631 0.15185185
16.604929 10.868501 0.15457144
17.182636 10.841546 0.17818181
17.23884 10.832685 0.13852632
17.367893 10.842828 0.17315218
17.416243 10.846727 0.12509093
15.563667 10.905666 0.13233334
15.7315 10.9195 0.1275
16.330099 10.9411 0.14030001
16.591175 10.94715 0.14689998
16.60639 10.949944 0.15188891
17.197001 10.923 0.171
17.216 10.906334 0.153
17.370693 10.918155 0.16323078
17.422501 10.905334 0.11866667
16.299 11.027 0.103
16.349998 11.029334 0.13433334
16.469849 10.673751 0.28040001
15.662731 10.772885 0.23800001
15.747469 10.768969 0.24799998
15.847404 10.772095 0.25066668
15.905251 10.781 0.29275
16.367334 10.786919 0.23795836
16.45537 10.764194 0.25061762
16.551968 10.778436 0.24968418
16.609169 10.783668 0.22816667
17.093 10.788 0.27599999
17.160355 10.785 0.26006255
17.2519 10.785831 0.24981686
17.318136 10.787092 0.22959092
15.588 10.898 0.204
15.645963 10.850814 0.24340744
15.859914 10.850217 0.24145654
15.909624 10.853125 0.29087499
16.351944 10.84139 0.25000003
16.591063 10.84349 0.24928573
16.604612 10.862165 0.2525
17.091335 10.8365 0.28100002
17.147924 10.827222 0.24651851
17.279768 10.843534 0.27513337
17.325689 10.84841 0.23312819
15.667 10.9065 0.26350001
15.7145 10.927 0.23
15.877 10.902 0.28099999
15.905 10.903 0.28
16.352093 10.945272 0.2478182
16.592079 10.948922 0.24868418
16.605295 10.955962 0.24944445
17.087 10.918 0.29100001
17.138201 10.926399 0.25619999
17.282557 10.917555 0.27500001
17.319302 10.916901 0.23050001
16.351801 11.020801 0.24300002
16.608 11 0.29100001
16.462 10.595 0.317
16.461544 10.634914 0.31748572
15.698 10.779 0.30599999
15.755001 10.775917 0.33983335
15.841258 10.773973 0.3491714
15.93735 10.776837 0.35616222
16.018 10.774 0.39899999
16.360275 10.786955 0.34545454
16.445465 10.780317 0.34143904
16.552118 10.782552 0.34836206
16.613817 10.78291 0.3499091
17.064966 10.788437 0.35849997
17.150269 10.787867 0.345577
17.228905 10.786548 0.33822581
15.693399 10.841399 0.30960003
15.740318 10.847955 0.35640907
15.953697 10.844164 0.35746509
16.355499 10.841999 0.34606248
16.441286 10.804715 0.3442857
16.590277 10.847532 0.35153192
16.604053 10.853421 0.34010527
16.981874 10.841125 0.33862498
17.048885 10.826194 0.34826928
17.172684 10.832683 0.3730455
17.236429 10.848639 0.34081036
15.745334 10.913501 0.34266669
15.9638 10.9088 0.36620003
16.359156 10.942924 0.3488462
16.591143 10.953512 0.34612188
16.605053 10.955686 0.35357898
17.064999 10.93075 0.36699998
17.168751 10.921499 0.37199998
17.233158 10.913527 0.34036845
16.3654 11.0254 0.34720001
16.592335 11.006334 0.32066667
16.61125 11.00075 0.35674998
15.7785 10.7935 0.412
15.853082 10.779306 0.44713891
15.955546 10.77597 0.4441818
16.031126 10.781334 0.4596667
16.365099 10.789387 0.45009673
16.449839 10.787238 0.44615996
16.553108 10.785851 0.45037046
16.609001 10.7854 0.44800001
16.899 10.791 0.47799999
16.966333 10.79143 0.46890476
17.051617 10.790274 0.45159993
17.135136 10.789649 0.43767565
15.782167 10.855334 0.41416669
15.826431 10.844666 0.46528572
15.9975 10.861668 0.41516668
16.033026 10.84787 0.45492107
16.35425 10.833062 0.45468751
16.43725 10.80325 0.44725001
16.586983 10.84246 0.45172003
16.606203 10.855551 0.45105001
16.879999 10.815 0.47499999
16.954298 10.826785 0.45778373
17.049669 10.817334 0.45055553
17.145815 10.843498 0.44736111
15.798 10.92 0.412
15.8252 10.910201 0.44159999
15.983 10.939 0.41499999
16.029364 10.908909 0.44899997
16.359503 10.948401 0.44509998
16.591763 10.945234 0.44939473
16.606037 10.96425 0.44667855
16.974751 10.9125 0.43375003
17.089001 10.927668 0.477
17.138237 10.920524 0.45542854
16.373001 11.028999 0.44549999
16.584 11.014 0.45500001
16.611 11.003333 0.41566667
15.882182 10.785818 0.53036368
15.950382 10.783647 0.54782355
16.053352 10.780225 0.54497498
16.119444 10.785 0.57555562
16.361265 10.791324 0.54741174
16.44812 10.789809 0.54423809
16.552212 10.787936 0.55131918
16.603333 10.797 0.57933331
16.876188 10.79375 0.56812501
16.948349 10.7925 0.55136538
17.034672 10.791811 0.54352373
15.876183 10.838273 0.52909088
15.911222 10.851333 0.57188886
16.078251 10.845822 0.52007145
16.124933 10.850968 0.57050002
16.283001 10.816 0.551
16.353668 10.834401 0.55686665
16.457333 10.805001 0.56120008
16.586596 10.838919 0.55220002
16.603783 10.860262 0.54526091
16.869047 10.826046 0.55699998
16.942947 10.814632 0.54873687
17.05464 10.843181 0.55312479
17.1012 10.8402 0.50660002
15.88425 10.90325 0.52574998
15.91025 10.9095 0.56299996
16.0735 10.912625 0.52725005
16.115999 10.904 0.56599998
16.357573 10.943858 0.55500001
16.592829 10.939447 0.53855169
16.605803 10.9426 0.55379999
16.8815 10.91 0.551
16.934 10.944 0.5
17.058077 10.920961 0.54942304
17.1045 10.938499 0.50700003
16.361 11.0355 0.54999995
16.606001 11.004 0.54000002
15.967801 10.78685 0.63599998
16.053442 10.786382 0.64817649
16.149973 10.784678 0.64861757
16.21225 10.787749 0.68150002
16.363724 10.793692 0.64917248
16.449867 10.793921 0.6435135
16.554075 10.791801 0.64965004
16.602667 10.79 0.64533329
16.778667 10.798 0.67500007
16.845602 10.794802 0.65655005
16.939398 10.793225 0.64345008
17.0135 10.795 0.6135
15.963125 10.852625 0.64225
16.007 10.839 0.68099999
16.167973 10.836514 0.63579494
16.229668 10.830715 0.67066669
16.354248 10.825251 0.63900006
16.443188 10.806437 0.66418743
16.58127 10.845968 0.64955568
16.604364 10.855637 0.63618183
16.767445 10.817666 0.66472226
16.835768 10.818398 0.63989997
16.959146 10.837622 0.6569711
17.01 10.845716 0.61214286
15.959 10.918167 0.62349999
16.01775 10.92975 0.66125
16.158501 10.908501 0.62449998
16.200001 10.912001 0.671
16.35025 10.962 0.65849996
16.591909 10.946455 0.64127272
16.602669 10.914333 0.62900007
16.820999 10.9155 0.61199999
16.966188 10.918047 0.65914291
17.00625 10.91325 0.61375004
16.3605 11.0385 0.65549999
16.067223 10.78863 0.73925924
16.154573 10.7876 0.75159991
16.237513 10.78865 0.75775671
16.3745 10.79475 0.74709994
16.451 10.796344 0.74496561
16.55382 10.793757 0.74569684
16.6005 10.791 0.759
16.766579 10.794159 0.75231576
16.847515 10.794657 0.74054283
16.914 10.793401 0.71219999
16.04475 10.850463 0.74967855
16.154999 10.8125 0.74800003
16.255945 10.824972 0.74650002
16.350813 10.814564 0.75743747
16.451344 10.805345 0.75737917
16.579142 10.828264 0.74601752
16.651781 10.825945 0.75572234
16.742245 10.812121 0.75429249
16.862425 10.83239 0.76394451
16.914631 10.847962 0.72633344
16.051666 10.92111 0.75166667
16.2465 10.908 0.74199998
16.3465 10.96725 0.76324999
16.592251 10.953375 0.74724996
16.876501 10.916785 0.76600003
16.917168 10.914001 0.72516674
16.354334 11.024 0.74833333
16.0905 10.795 0.80849999
16.15836 10.7918 0.83999997
16.24975 10.791705 0.84843194
16.3384 10.794499 0.84619999
16.450668 10.7964 0.84493345
16.54961 10.796573 0.84707147
16.672573 10.796144 0.85821444
16.739096 10.796143 0.83904767
16.833 10.797333 0.81700003
16.093 10.8255 0.81949997
16.130611 10.836967 0.85051608
16.239582 10.810084 0.85525
16.348026 10.808578 0.85594732
16.452848 10.806539 0.85053843
16.56671 10.815451 0.84274185
16.640051 10.811225 0.8474499
16.761143 10.822076 0.86519337
16.823181 10.84159 0.83081603
16.087999 10.931 0.80000001
16.1329 10.919801 0.85280001
16.259666 10.956333 0.86233342
16.782 10.919556 0.88377786
16.823668 10.918721 0.83094442
16.335751 11.0165 0.84825003
16.406 11.04 0.86699998
16.176668 10.793333 0.9156667
16.26362 10.795191 0.9425714
16.345566 10.794435 0.94904345
16.525 10.7975 0.92949998
16.729 10.797501 0.92550004
16.177738 10.83321 0.92436844
16.237572 10.818333 0.96078587
16.358057 10.809114 0.9505142
16.456621 10.813359 0.9503001
16.555574 10.807894 0.9470427
16.652143 10.813346 0.9528572
16.728981 10.839171 0.9426719
16.186832 10.924167 0.92633331
16.240599 10.927901 0.97299999
16.325201 10.9878 0.96079999
16.735765 10.918765 0.94188243
16.338167 11.0115 0.96066666
16.255001 10.798 1.013
16.422573 10.791785 1.0565001
16.66 10.796 1.007
16.274033 10.830546 1.0418788
16.347654 10.809861 1.0509999
16.450619 10.81168 1.0388509
16.553905 10.807695 1.0502453
16.281288 10.925429 1.0447143
16.448072 10.810837 1.1483257
16.356255 10.836102 1.6499155
16.444498 10.822109 1.6519998
16.568077 10.840568 1.6487281
16.603001 10.882 1.63
16.339394 10.954217 1.6523912
16.349249 10.839 1.7518928
16.447731 10.82227 1.7511892
16.569054 10.842525 1.7493588
16.336456 10.954042 1.7572082
16.587 10.949169 1.7498721
16.601 10.938499 1.752
16.337833 11.033916 1.7459167
16.586241 11.018096 1.7457619
16.353477 10.840752 1.8547728
16.452427 10.824577 1.849075
16.570013 10.843076 1.851444
16.601999 10.848 1.836
16.338161 10.952264 1.8510002
16.587002 10.94976 1.8482388
16.6015 10.956 1.839
16.335123 11.034 1.8408126
16.587635 11.020183 1.8478637
16.6 11.024 1.852
16.352463 10.843155 1.9468722
16.445307 10.824806 1.949639
16.563631 10.841076 1.9498761
16.6 10.835 1.936
16.337416 10.953792 1.9447086
16.583826 10.949348 1.9509428
16.601 10.967501 1.926
16.336399 11.035401 1.9448
16.590687 11.015187 1.939875
16.605165 11.0205 1.9703333
16.353977 10.845 2.045476
16.44623 10.828943 2.0500288
16.563894 10.84379 2.0500126
16.336121 10.953719 2.05036
16.586084 10.94749 2.0482855
16.602501 10.936 2.0825
16.337124 11.035876 2.0500624
16.584665 11.021524 2.0579524
16.60425 11.02075 2.0204999
16.3325 10.794001 2.1855001
16.348907 10.843728 2.1512501
16.445951 10.82814 2.1565113
16.565235 10.844307 2.1486022
16.601667 10.879667 2.1570001
16.333399 10.955298 2.1481502
16.586834 10.950164 2.1528165
16.601999 10.946 2.1370001
16.335785 11.03593 2.1513572
16.582542 11.025958 2.1499586
16.604 11.035 2.174
16.371 10.6975 2.2950001
16.355162 10.757898 2.2527552
16.459999 10.759341 2.2593882
16.505001 10.780666 2.2756667
16.289665 10.862 2.2740002
16.33227 10.842116 2.2359231
16.472347 10.814653 2.2359567
16.566334 10.848123 2.2484245
16.6 10.844 2.2349999
16.325279 10.95156 2.2458401
16.585138 10.946372 2.2547457
16.601 10.965 2.2349999
16.336201 11.037801 2.2493336
16.585543 11.020667 2.2450421
16.367001 10.597 2.3959999
16.354134 10.654716 2.3569252
16.454945 10.657156 2.3591859
16.50375 10.6745 2.3522501
16.336821 10.74643 2.3369644
16.480673 10.740461 2.3415186
16.503801 10.7512 2.3592002
16.323042 10.844959 2.3411665
16.488434 10.817262 2.3530872
16.565283 10.850687 2.3523133
16.334112 10.949816 2.3547778
16.581608 10.952304 2.3500891
16.329473 11.043527 2.3588421
16.582117 11.024655 2.3454235
16.356827 10.556383 2.4565229
16.459455 10.558533 2.4620757
16.5 10.586 2.4089999
16.330843 10.647719 2.4473753
16.47957 10.643376 2.4437683
16.506168 10.642334 2.4536667
16.327 10.748571 2.4465241
16.482956 10.745178 2.4492674
16.502998 10.74 2.4130001
16.339624 10.85425 2.452625
16.477749 10.825965 2.4559288
16.56275 10.850112 2.4488311
16.322334 10.950667 2.4532082
16.580612 10.950611 2.4496498
16.297001 11.028 2.4560001
16.329412 11.051883 2.4539413
16.580128 11.020251 2.4457917
16.601 11.001 2.4030001
16.32543 11.113573 2.4615715
16.471001 11.111667 2.484
16.358 10.399 2.5969999
16.354366 10.4587 2.5546167
16.452856 10.458486 2.5603004
16.331968 10.545899 2.5490668
16.481417 10.544207 2.5451934
16.5 10.577499 2.5650001
16.32687 10.646216 2.5483043
16.48353 10.647591 2.5504694
16.505333 10.650001 2.5656669
16.344889 10.737111 2.5331111
16.473749 10.728202 2.5361502
16.361467 10.849218 2.5583122
16.457262 10.835402 2.550905
16.560532 10.851749 2.5486176
16.326784 10.953914 2.5493479
16.580538 10.94625 2.550822
16.326097 11.051713 2.5470953
16.572859 11.024571 2.5502141
16.330263 11.14363 2.5535789
16.478077 11.13226 2.5544817
16.35 10.297 2.6989999
16.352341 10.35743 2.6563072
16.453085 10.360567 2.6598027
16.327896 10.449035 2.6425519
16.476061 10.443959 2.6455073
16.504333 10.478333 2.6819999
16.297001 10.502 2.6989999
16.319742 10.552668 2.6464815
16.481852 10.547962 2.646755
16.3305 10.643874 2.6218748
16.469629 10.635927 2.6394818
16.351814 10.849141 2.6544883
16.453058 10.837092 2.6476293
16.56039 10.851405 2.6478097
16.331919 10.950626 2.6521251
16.581984 10.948521 2.6506484
16.607 10.965 2.688
16.329042 11.050041 2.6508749
16.572966 11.028106 2.6477499
16.32564 11.149119 2.6515203
16.48007 11.150186 2.64907
16.328667 11.226001 2.6583335
16.464334 11.220334 2.6727779
16.296501 10.254 2.747
16.349268 10.259031 2.757015
16.448309 10.263111 2.7606485
16.294003 10.366667 2.7686667
16.326071 10.346791 2.7466507
16.471216 10.346738 2.7460823
16.294144 10.434714 2.7401426
16.319515 10.444965 2.7496767
16.476965 10.44885 2.7518866
16.327644 10.536643 2.7327147
16.470215 10.533286 2.7399645
16.379999 10.619 2.7720001
16.349062 10.849831 2.75475
16.448359 10.84202 2.7483001
16.560179 10.8527 2.7489882
16.334839 10.952879 2.7514398
16.580576 10.947999 2.7502034
16.33288 11.0512 2.7515197
16.495001 11.093333 2.7593334
16.5723 11.027801 2.7482498
16.324331 11.153483 2.7538149
16.483978 11.150857 2.7496665
16.32485 11.249499 2.7546499
16.47485 11.232482 2.755111
16.431 11.3 2.783
16.2955 10.157001 2.8627501
16.355482 10.156574 2.8578336
16.445467 10.160551 2.862072
16.293667 10.251333 2.8540001
16.32353 10.243489 2.841362
16.470505 10.247826 2.8445728
16.293556 10.335222 2.8545554
16.31558 10.355355 2.8466773
16.474041 10.352654 2.8510189
16.299 10.43 2.8429999
16.321833 10.427668 2.8408334
16.465857 10.438606 2.8348572
16.431 10.524 2.812
16.35074 10.848594 2.8477778
16.452784 10.84118 2.8491087
16.558184 10.850904 2.8492837
16.605 10.868 2.8380001
16.331348 10.945957 2.8438697
16.5804 10.949979 2.850189
16.331913 11.035871 2.8513913
16.491001 11.0975 2.8115001
16.578838 11.02264 2.8483996
16.32773 11.156153 2.8481152
16.476067 11.152823 2.8495111
16.32337 11.245369 2.8521581
16.479147 11.247903 2.8498776
16.328001 11.318182 2.8532729
16.469437 11.3185 2.8617501
16.293669 10.069667 2.9493332
16.351246 10.055509 2.9548945
16.441114 10.060476 2.9598367
16.290001 10.114 2.9089999
16.324335 10.139194 2.9416387
16.466442 10.148206 2.9494116
16.293167 10.258167 2.9620004
16.315634 10.249933 2.9470334
16.470726 10.248709 2.9465454
16.2934 10.320601 2.9214001
16.316055 10.337 2.9370553
16.460136 10.33669 2.9385512
16.420502 10.416 2.9215
16.542667 10.790501 2.9805
16.352486 10.844251 2.9501407
16.447168 10.838317 2.9492981
16.557064 10.84555 2.9495273
16.60675 10.8635 2.9855001
16.329578 10.953078 2.9464226
16.582256 10.948702 2.9448085
16.608301 10.928299 2.9814997
16.299 11.049 2.994
16.32506 11.032824 2.9505885
16.578758 11.028999 2.9460685
16.344309 11.177615 2.9454618
16.452297 11.171621 2.9451892
16.552999 11.104 2.9760001
16.323236 11.241352 2.9510002
16.47872 11.249675 2.9475586
16.332464 11.351847 2.9500768
16.471333 11.345026 2.9530256
16.351 11.4035 2.9850001
16.450001 11.405 2.987
16.396 11.192 3
0 0 0 1 0 0 0 1 0 0 0 1 0 0 0 0 0 565 1 0 0
