ply
format ascii 1.0
comment PCL generated
element vertex 1922
property float x
property float y
property float z
element camera 0
property float view_px
property float view_py
property float view_pz
property float x_axisx
property float x_axisy
property float x_axisz
property float y_axisx
property float y_axisy
property float y_axisz
property float z_axisx
property float z_axisy
property float z_axisz
property float focal
property float scalex
property float scaley
property float centerx
property float centery
property int viewportx
property int viewporty
property float k1
property float k2
end_header
25.556999 10.999 0.75099999
25.549 10.988 0.741
25.556 10.997 0.73400003
25.549999 10.99 0.72500002
25.559 11.002 0.71799999
25.549 10.988 0.708
25.542999 10.981 0.69800001
25.544001 10.982 0.69
25.541 10.978 0.68099999
25.542 10.979 0.67400002
25.546 10.984 0.66600001
25.546 10.985 0.65799999
25.546 10.985 0.64999998
25.549999 10.99 0.64200002
25.547001 10.986 0.634
25.542 10.979 0.62400001
25.546 10.985 0.61699998
25.537001 10.973 0.60699999
25.552 10.993 0.602
25.547001 10.986 0.59299999
25.549 10.989 0.58499998
25.539 10.975 0.57499999
25.539 10.975 0.56699997
25.542999 10.981 0.55900002
25.541 10.978 0.551
25.538 10.975 0.542
25.535999 10.971 0.53399998
25.539 10.976 0.52600002
25.544001 10.982 0.51899999
25.551001 10.992 0.51200002
25.541 10.978 0.50199997
25.542 10.98 0.49399999
25.871 11.418 2.99
25.871 11.419 2.9790001
25.877001 11.426 2.9719999
25.865999 11.413 2.951
25.882 11.434 2.954
25.870001 11.417 2.931
25.875 11.425 2.924
25.878 11.429 2.915
25.870001 11.418 2.8970001
25.875999 11.426 2.8900001
25.872999 11.422 2.8759999
25.868 11.416 2.8599999
25.871 11.42 2.8510001
25.879 11.431 2.8469999
25.879 11.43 2.835
25.879 11.431 2.823
25.872 11.422 2.806
25.875 11.425 2.7969999
25.870001 11.418 2.7809999
25.872 11.421 2.7720001
25.870001 11.419 2.7590001
25.875 11.426 2.7520001
25.865 11.412 2.7309999
25.867001 11.416 2.7219999
25.872999 11.423 2.7160001
25.870001 11.419 2.7019999
25.872999 11.423 2.6930001
25.862 11.409 2.6730001
25.881001 11.434 2.677
25.872 11.422 2.6589999
26.004999 11.605 1.5599999
25.993 11.589 1.545
25.989 11.584 1.533
25.979 11.57 1.5190001
25.976999 11.568 1.508
25.982 11.574 1.5
25.969 11.557 1.485
25.974001 11.563 1.476
25.975 11.565 1.467
25.976 11.567 1.4579999
25.975 11.565 1.447
25.978001 11.569 1.439
25.986 11.581 1.432
25.979 11.571 1.419
26 11.599 1.418
25.632 11.112 0.88
25.625 11.102 0.87
25.617001 11.092 0.85900003
25.608999 11.081 0.84799999
25.589001 11.054 0.83499998
25.584 11.047 0.82499999
25.57 11.029 0.81300002
25.568001 11.026 0.80500001
25.551001 11.004 0.792
25.548 11.001 0.78299999
25.540001 10.99 0.773
25.549999 11.002 0.76700002
25.545 10.995 0.75800002
25.539 10.988 0.74800003
25.546 10.997 0.741
25.540001 10.99 0.73199999
25.541 10.991 0.72399998
25.539 10.988 0.71499997
25.527 10.972 0.704
25.545 10.996 0.69999999
25.542999 10.994 0.69099998
25.540001 10.991 0.68300003
25.542999 10.995 0.67500001
25.533001 10.981 0.66500002
25.542999 10.994 0.65899998
25.540001 10.99 0.64999998
25.525999 10.971 0.639
25.540001 10.99 0.63300002
25.530001 10.977 0.62300003
25.518999 10.962 0.61299998
25.531 10.978 0.60699999
25.534 10.983 0.60000002
25.532 10.98 0.59100002
25.528999 10.976 0.583
25.541 10.991 0.57599998
25.528999 10.976 0.56599998
25.539 10.989 0.56
25.531 10.978 0.55000001
25.525999 10.972 0.54100001
25.534 10.983 0.53500003
25.535999 10.985 0.52700001
25.533001 10.981 0.51800001
25.530001 10.978 0.50999999
25.533001 10.981 0.50199997
25.528999 10.976 0.493
25.874001 11.438 2.9890001
25.868999 11.432 2.9719999
25.870001 11.432 2.961
25.872 11.436 2.9519999
25.868 11.43 2.9360001
25.870001 11.434 2.9260001
25.872999 11.438 2.9170001
25.863001 11.424 2.8970001
25.875999 11.442 2.8970001
25.874001 11.439 2.8829999
25.865999 11.428 2.865
25.864 11.425 2.8510001
25.865 11.426 2.8399999
25.879999 11.447 2.842
25.872 11.437 2.8239999
25.870001 11.433 2.8099999
25.875 11.441 2.8039999
25.871 11.434 2.7880001
25.871 11.435 2.777
25.872999 11.438 2.7679999
25.872999 11.439 2.756
25.875999 11.442 2.747
25.865999 11.428 2.727
25.868 11.432 2.7179999
25.865999 11.428 2.704
25.868 11.431 2.6949999
25.875 11.44 2.6889999
25.989 11.599 1.546
25.983999 11.593 1.534
25.981001 11.589 1.513
25.983 11.591 1.5039999
25.978001 11.586 1.492
25.976999 11.584 1.4809999
25.981001 11.589 1.473
25.976999 11.584 1.461
25.978001 11.585 1.452
25.974001 11.58 1.4400001
25.978001 11.585 1.432
25.985001 11.595 1.425
25.624001 11.115 0.87099999
25.615 11.103 0.86000001
25.611 11.098 0.85100001
25.6 11.083 0.83899999
25.577 11.052 0.82499999
25.575001 11.049 0.81599998
25.563999 11.035 0.80500001
25.559 11.028 0.796
25.542 11.006 0.78299999
25.540001 11.002 0.77499998
25.531 10.992 0.764
25.532 10.992 0.75599998
25.538 11 0.74900001
25.533001 10.994 0.74000001
25.528 10.987 0.73100001
25.534 10.995 0.72399998
25.535 10.997 0.71600002
25.535999 10.998 0.708
25.527 10.987 0.69800001
25.533001 10.994 0.69099998
25.528999 10.988 0.68199998
25.534 10.995 0.67500001
25.527 10.986 0.66500002
25.527 10.987 0.65700001
25.525 10.983 0.648
25.525 10.983 0.63999999
25.523001 10.981 0.63200003
25.517 10.973 0.62199998
25.532 10.993 0.61699998
25.521999 10.979 0.60699999
25.531 10.992 0.60000002
25.52 10.977 0.58999997
25.525999 10.985 0.583
25.525 10.984 0.57499999
25.523001 10.982 0.56699997
25.523001 10.981 0.55800003
25.514999 10.971 0.54900002
25.518999 10.976 0.542
25.518999 10.976 0.53299999
25.523001 10.982 0.52600002
25.511999 10.966 0.51599997
25.518 10.975 0.509
25.521 10.979 0.50099999
25.52 10.978 0.493
25.513 10.969 0.484
25.506001 10.959 0.47499999
25.872 11.45 2.993
25.870001 11.447 2.98
25.872999 11.451 2.97
25.871 11.448 2.957
25.874001 11.452 2.948
25.868999 11.446 2.931
25.868999 11.446 2.9200001
25.872 11.45 2.911
25.875 11.454 2.902
25.875 11.454 2.8900001
25.875 11.455 2.8789999
25.870001 11.448 2.8629999
25.867001 11.444 2.849
25.875 11.455 2.8440001
25.868 11.445 2.826
25.865999 11.443 2.813
25.871 11.449 2.806
25.874001 11.453 2.7969999
25.864 11.44 2.777
25.872 11.451 2.7720001
25.868999 11.447 2.7590001
25.868999 11.448 2.747
25.865999 11.444 2.734
25.872999 11.453 2.7279999
25.879999 11.463 2.723
25.98 11.603 1.516
25.975 11.597 1.5039999
25.981001 11.605 1.4859999
25.976999 11.599 1.474
25.975 11.597 1.464
25.968 11.588 1.451
25.972 11.592 1.442
25.969 11.589 1.421
25.617001 11.119 0.86199999
25.613001 11.114 0.85299999
25.599001 11.096 0.84100002
25.579 11.069 0.82700002
25.583 11.074 0.81999999
25.563999 11.048 0.80699998
25.563999 11.049 0.79900002
25.549999 11.03 0.787
25.542 11.019 0.77700001
25.528 11 0.76499999
25.528 11.001 0.75700003
25.523001 10.994 0.74800003
25.518 10.987 0.73799998
25.516001 10.984 0.72899997
25.516001 10.985 0.72100002
25.514 10.982 0.713
25.517 10.987 0.70499998
25.524 10.995 0.69800001
25.521999 10.992 0.69
25.513 10.98 0.68000001
25.517 10.986 0.67199999
25.517 10.987 0.66399997
25.521 10.991 0.65700001
25.514999 10.984 0.648
25.513 10.981 0.639
25.514 10.982 0.63099998
25.513 10.982 0.62300003
25.517 10.986 0.61500001
25.511999 10.979 0.60600001
25.51 10.977 0.59799999
25.516001 10.985 0.59100002
25.518 10.988 0.583
25.52 10.991 0.57499999
25.504999 10.971 0.565
25.507999 10.974 0.55699998
25.517 10.987 0.55000001
25.511999 10.98 0.54100001
25.513 10.981 0.53299999
25.511 10.978 0.52499998
25.521999 10.993 0.51899999
25.514 10.983 0.509
25.509001 10.976 0.5
25.511999 10.981 0.493
25.51 10.977 0.484
25.509001 10.977 0.47600001
25.497999 10.961 0.46700001
25.871 11.463 2.987
25.871 11.464 2.9749999
25.874001 11.468 2.9660001
25.865999 11.458 2.948
25.872 11.465 2.941
25.872 11.466 2.9289999
25.872 11.466 2.918
25.872999 11.467 2.9059999
25.875 11.47 2.8970001
25.863001 11.453 2.8740001
25.871 11.464 2.8699999
25.865999 11.457 2.8540001
25.879 11.475 2.8540001
25.868999 11.462 2.8329999
25.877001 11.472 2.829
25.868 11.461 2.8099999
25.865999 11.459 2.7969999
25.868999 11.462 2.7880001
25.875 11.47 2.7809999
25.864 11.456 2.7609999
25.879 11.477 2.7620001
25.875999 11.472 2.7479999
25.603001 11.114 0.84399998
25.587999 11.095 0.83099997
25.582001 11.087 0.82099998
25.576 11.079 0.81199998
25.566 11.065 0.801
25.558001 11.055 0.79000002
25.541 11.032 0.778
25.533001 11.021 0.76800001
25.531 11.018 0.759
25.514 10.995 0.74699998
25.511 10.992 0.73799998
25.506001 10.985 0.72899997
25.513 10.994 0.722
25.500999 10.979 0.71100003
25.517 10.999 0.70700002
25.511999 10.992 0.69700003
25.511 10.992 0.68900001
25.51 10.99 0.68099999
25.507 10.987 0.67199999
25.507999 10.988 0.66399997
25.504999 10.984 0.65499997
25.511999 10.993 0.648
25.503 10.982 0.639
25.5 10.978 0.63
25.504 10.983 0.62199998
25.507 10.987 0.61500001
25.506001 10.985 0.60600001
25.5 10.978 0.597
25.489 10.962 0.58700001
25.500999 10.979 0.58099997
25.500999 10.98 0.57300001
25.513 10.995 0.56699997
25.502001 10.981 0.55699998
25.502001 10.98 0.54900002
25.503 10.981 0.54100001
25.503 10.982 0.53299999
25.497999 10.975 0.52399999
25.492001 10.967 0.51499999
25.502001 10.981 0.509
25.499001 10.977 0.5
25.5 10.978 0.49200001
25.5 10.978 0.484
25.486 10.959 0.47400001
25.497999 10.975 0.46799999
25.502001 10.981 0.46000001
25.493 10.968 0.45100001
25.482 10.954 0.442
25.871 11.479 2.994
25.864 11.469 2.9749999
25.874001 11.484 2.973
25.875 11.484 2.9619999
25.867001 11.474 2.9430001
25.870001 11.478 2.934
25.870001 11.479 2.9230001
25.872999 11.483 2.914
25.871 11.48 2.9000001
25.865999 11.473 2.8840001
25.871 11.48 2.8770001
25.877001 11.488 2.8699999
25.864 11.47 2.8469999
25.868999 11.478 2.8399999
25.872 11.481 2.8310001
25.877001 11.489 2.8239999
25.870001 11.478 2.806
25.870001 11.479 2.7950001
25.875 11.485 2.7869999
25.886999 11.503 2.7869999
25.587 11.107 0.833
25.586 11.106 0.824
25.570999 11.087 0.81199998
25.570999 11.086 0.80400002
25.554001 11.063 0.79100001
25.549 11.057 0.78200001
25.541 11.046 0.77100003
25.527 11.027 0.75999999
25.528 11.028 0.75199997
25.514 11.009 0.74000001
25.504999 10.998 0.73000002
25.497 10.987 0.72000003
25.497999 10.988 0.71200001
25.507 11 0.70599997
25.502001 10.993 0.69700003
25.497 10.986 0.68699998
25.496 10.985 0.67900002
25.493999 10.983 0.671
25.495001 10.984 0.66299999
25.49 10.977 0.65399998
25.496 10.986 0.64700001
25.502001 10.993 0.63999999
25.503 10.995 0.63200003
25.497999 10.988 0.62300003
25.506001 10.999 0.616
25.493 10.981 0.60500002
25.492001 10.981 0.597
25.490999 10.978 0.58899999
25.490999 10.979 0.58099997
25.492001 10.98 0.57300001
25.49 10.977 0.56400001
25.496 10.986 0.55699998
25.493 10.982 0.54900002
25.493 10.982 0.54100001
25.493999 10.983 0.53299999
25.479 10.963 0.52200001
25.499001 10.99 0.51700002
25.490999 10.979 0.50800002
25.49 10.978 0.5
25.487 10.974 0.491
25.490999 10.979 0.484
25.497 10.987 0.47600001
25.493999 10.984 0.46799999
25.483 10.969 0.45899999
25.490999 10.98 0.45199999
25.469 10.95 0.44100001
25.488001 10.976 0.435
25.872 11.496 2.99
25.870001 11.493 2.9760001
25.868 11.49 2.9619999
25.868 11.49 2.95
25.868 11.491 2.9389999
25.868 11.491 2.927
25.868999 11.492 2.9159999
25.868999 11.492 2.905
25.864 11.485 2.888
25.867001 11.489 2.8789999
25.867001 11.49 2.868
25.872 11.497 2.8610001
25.867001 11.49 2.845
25.872999 11.498 2.8380001
25.875 11.501 2.829
25.868999 11.493 2.812
25.878 11.505 2.8080001
25.570999 11.1 0.81400001
25.57 11.098 0.80500001
25.562 11.088 0.79500002
25.554001 11.077 0.78399998
25.542999 11.063 0.773
25.525999 11.04 0.76099998
25.527 11.041 0.75300002
25.516001 11.026 0.74199998
25.502001 11.007 0.73100001
25.5 11.003 0.722
25.490999 10.992 0.71200001
25.493999 10.996 0.70499998
25.497 11 0.69700003
25.49 10.991 0.68699998
25.49 10.991 0.67900002
25.485001 10.984 0.67000002
25.485001 10.985 0.662
25.483 10.982 0.65399998
25.496 10.999 0.648
25.487 10.988 0.63800001
25.478001 10.975 0.62800002
25.483 10.981 0.62099999
25.485001 10.984 0.61299998
25.476 10.973 0.60399997
25.481001 10.978 0.59600002
25.482 10.98 0.588
25.479 10.976 0.57999998
25.485001 10.985 0.57300001
25.486 10.986 0.565
25.48 10.979 0.55599999
25.483999 10.983 0.54799998
25.483999 10.984 0.54000002
25.479 10.976 0.53100002
25.468 10.962 0.52200001
25.476 10.973 0.51499999
25.496 11 0.50999999
25.482 10.981 0.5
25.483999 10.983 0.49200001
25.481001 10.98 0.48300001
25.476 10.972 0.47499999
25.478001 10.976 0.46700001
25.488001 10.989 0.46000001
25.476999 10.974 0.45100001
25.473 10.97 0.442
25.479 10.977 0.435
25.475 10.972 0.426
25.868 11.505 2.9809999
25.875999 11.516 2.9760001
25.871 11.51 2.96
25.865999 11.503 2.944
25.861 11.497 2.927
25.868999 11.508 2.9230001
25.867001 11.504 2.9089999
25.870001 11.509 2.9000001
25.867001 11.505 2.8859999
25.867001 11.506 2.875
25.868 11.506 2.8629999
25.870001 11.51 2.8540001
25.875 11.517 2.8469999
25.881001 11.524 2.8399999
25.565001 11.106 0.79699999
25.552999 11.09 0.78600001
25.548 11.083 0.77600002
25.540001 11.072 0.76599997
25.532 11.062 0.75599998
25.518 11.043 0.74400002
25.507 11.027 0.73400003
25.496 11.012 0.72299999
25.488001 11.001 0.713
25.488001 11.002 0.70499998
25.48 10.991 0.69499999
25.478001 10.988 0.68599999
25.481001 10.992 0.67900002
25.487 11.001 0.67199999
25.481001 10.992 0.662
25.476999 10.987 0.65399998
25.472 10.98 0.64399999
25.478001 10.988 0.63800001
25.475 10.984 0.62900001
25.481001 10.993 0.62199998
25.478001 10.989 0.61299998
25.466999 10.974 0.60299999
25.474001 10.983 0.59600002
25.475 10.984 0.588
25.475 10.985 0.57999998
25.475 10.985 0.57200003
25.479 10.99 0.565
25.471001 10.979 0.55500001
25.472 10.98 0.54699999
25.466 10.973 0.53899997
25.466 10.972 0.52999997
25.465 10.971 0.52200001
25.465 10.971 0.514
25.466999 10.974 0.50599998
25.455999 10.959 0.49700001
25.478001 10.99 0.49200001
25.475 10.985 0.48300001
25.469 10.977 0.47499999
25.472 10.982 0.46700001
25.475 10.985 0.45899999
25.473 10.983 0.45100001
25.471001 10.979 0.44299999
25.471001 10.98 0.435
25.471001 10.98 0.42699999
25.462 10.968 0.41800001
25.871 11.525 2.99
25.868999 11.522 2.9760001
25.858 11.508 2.9549999
25.867001 11.519 2.951
25.872 11.527 2.944
25.864 11.517 2.925
25.875 11.531 2.9230001
25.870001 11.525 2.9070001
25.870001 11.525 2.8959999
25.865 11.518 2.8789999
25.870001 11.524 2.872
25.872999 11.529 2.8629999
25.551001 11.101 0.787
25.554001 11.105 0.77899998
25.528999 11.072 0.76499999
25.525 11.067 0.75599998
25.52 11.059 0.74599999
25.509001 11.044 0.736
25.495001 11.025 0.72399998
25.487 11.014 0.71399999
25.479 11.003 0.704
25.473 10.996 0.69499999
25.474001 10.997 0.68699998
25.472 10.993 0.67799997
25.469 10.99 0.67000002
25.466999 10.987 0.66100001
25.464001 10.984 0.65200001
25.469999 10.992 0.64600003
25.465 10.984 0.63599998
25.459999 10.978 0.62699997
25.466 10.986 0.62
25.464001 10.983 0.61199999
25.464001 10.983 0.60399997
25.465 10.984 0.59600002
25.473 10.995 0.58899999
25.459999 10.978 0.579
25.452 10.968 0.56999999
25.458 10.976 0.56199998
25.462 10.98 0.55500001
25.457001 10.974 0.546
25.454 10.969 0.53799999
25.462999 10.982 0.53100002
25.458 10.975 0.52200001
25.457001 10.974 0.514
25.455999 10.973 0.50599998
25.452999 10.969 0.49700001
25.458 10.976 0.49000001
25.455999 10.973 0.48199999
25.459999 10.978 0.47400001
25.451 10.966 0.465
25.459999 10.978 0.458
25.462999 10.983 0.45100001
25.455999 10.973 0.442
25.459 10.977 0.43399999
25.462 10.982 0.426
25.461 10.98 0.41800001
25.452 10.967 0.40900001
25.455 10.972 0.40200001
25.858999 11.524 2.974
25.871 11.541 2.974
25.867001 11.535 2.9579999
25.870001 11.539 2.9489999
25.872999 11.543 2.9400001
25.865 11.533 2.921
25.879 11.551 2.921
25.870001 11.54 2.902
25.864 11.532 2.885
25.545 11.107 0.77899998
25.541 11.101 0.76899999
25.530001 11.086 0.75800002
25.518999 11.071 0.74800003
25.511 11.061 0.73799998
25.5 11.046 0.727
25.492001 11.035 0.71700001
25.483999 11.024 0.70700002
25.473 11.008 0.69599998
25.465 10.997 0.68599999
25.462 10.994 0.67799997
25.454 10.983 0.66799998
25.457001 10.987 0.66000003
25.455 10.984 0.65200001
25.459 10.989 0.64499998
25.441999 10.967 0.63300002
25.451 10.979 0.62699997
25.459 10.99 0.62
25.458 10.988 0.61199999
25.448999 10.977 0.602
25.451 10.979 0.59500003
25.452999 10.982 0.58700001
25.448 10.976 0.57800001
25.457001 10.987 0.57099998
25.448999 10.976 0.56199998
25.450001 10.978 0.55400002
25.450001 10.978 0.546
25.438999 10.963 0.53600001
25.441999 10.967 0.52899998
25.454 10.983 0.523
25.440001 10.965 0.51300001
25.441 10.965 0.505
25.448999 10.977 0.498
25.447001 10.974 0.49000001
25.450001 10.978 0.48199999
25.438 10.963 0.472
25.444 10.97 0.465
25.438999 10.964 0.456
25.445 10.972 0.449
25.438999 10.964 0.44100001
25.445999 10.973 0.433
25.445999 10.973 0.42500001
25.447001 10.975 0.417
25.447001 10.974 0.40900001
25.445999 10.973 0.40099999
25.438999 10.964 0.39300001
25.865999 11.549 2.987
25.864 11.546 2.974
25.867001 11.551 2.9649999
25.872 11.558 2.9579999
25.872999 11.559 2.9460001
25.870001 11.555 2.9319999
25.872999 11.559 2.9230001
25.535 11.107 0.76099998
25.521999 11.089 0.75
25.517 11.082 0.74000001
25.514 11.079 0.73100001
25.497 11.056 0.71899998
25.483 11.036 0.708
25.472 11.021 0.69700003
25.466999 11.014 0.68800002
25.452999 10.995 0.67699999
25.454 10.996 0.66900003
25.451 10.992 0.66100001
25.445 10.984 0.65100002
25.445999 10.986 0.64300001
25.452999 10.995 0.63700002
25.447001 10.987 0.62699997
25.444 10.983 0.61900002
25.440001 10.977 0.61000001
25.445 10.985 0.60299999
25.444 10.982 0.59399998
25.443001 10.981 0.58600003
25.436001 10.971 0.57700002
25.438999 10.976 0.56999999
25.444 10.983 0.56199998
25.443001 10.981 0.55400002
25.437 10.974 0.54500002
25.444 10.984 0.53799999
25.438999 10.976 0.52899998
25.436001 10.973 0.52100003
25.437 10.973 0.51300001
25.437 10.974 0.505
25.437 10.974 0.49700001
25.431999 10.967 0.48800001
25.440001 10.978 0.48100001
25.438 10.975 0.47299999
25.444 10.983 0.46599999
25.431999 10.967 0.456
25.434 10.97 0.449
25.438999 10.976 0.44100001
25.427999 10.962 0.43200001
25.440001 10.978 0.42500001
25.438 10.975 0.417
25.426001 10.96 0.40799999
25.433001 10.968 0.40099999
25.438 10.976 0.39300001
25.431999 10.968 0.38499999
25.423 10.955 0.37599999
25.865999 11.564 2.994
25.861 11.558 2.9779999
25.860001 11.556 2.9649999
25.864 11.561 2.957
25.872 11.572 2.9519999
25.524 11.107 0.75199997
25.525 11.108 0.74400002
25.507999 11.084 0.73100001
25.493999 11.064 0.72000003
25.483 11.049 0.70899999
25.475 11.038 0.699
25.472 11.035 0.69099998
25.458 11.015 0.68000001
25.444 10.996 0.66900003
25.448 11.001 0.66100001
25.431 10.978 0.64999998
25.443001 10.995 0.64399999
25.431999 10.98 0.634
25.443001 10.995 0.62800002
25.433001 10.981 0.61799997
25.43 10.977 0.60900003
25.448 11.001 0.60399997
25.424999 10.97 0.59200001
25.437 10.987 0.58600003
25.434999 10.984 0.57800001
25.427 10.974 0.56900001
25.427999 10.974 0.56099999
25.434 10.982 0.55400002
25.43 10.978 0.54500002
25.426001 10.972 0.53600001
25.431999 10.981 0.52899998
25.43 10.977 0.52100003
25.422001 10.966 0.51200002
25.424999 10.97 0.50400001
25.431 10.979 0.49700001
25.431 10.98 0.48899999
25.429001 10.976 0.48100001
25.42 10.964 0.472
25.419001 10.963 0.46399999
25.423 10.968 0.456
25.436001 10.986 0.44999999
25.424 10.97 0.44
25.433001 10.982 0.433
25.43 10.978 0.42500001
25.434 10.984 0.41800001
25.427999 10.976 0.40900001
25.426001 10.973 0.40099999
25.424 10.969 0.39199999
25.427 10.974 0.38499999
25.431999 10.981 0.377
25.427 10.974 0.36899999
25.861 11.573 2.9849999
25.513 11.105 0.73400003
25.499001 11.085 0.72299999
25.496 11.082 0.71399999
25.485001 11.067 0.70300001
25.473 11.05 0.69199997
25.459999 11.032 0.68099999
25.455 11.025 0.67199999
25.43 10.99 0.65899998
25.436001 10.998 0.65200001
25.42 10.976 0.64099997
25.423 10.981 0.63300002
25.42 10.977 0.625
25.429001 10.989 0.61799997
25.427 10.987 0.61000001
25.422001 10.98 0.60100001
25.424 10.983 0.59299999
25.429001 10.989 0.58600003
25.42 10.977 0.57700002
25.42 10.977 0.56900001
25.426001 10.985 0.56199998
25.427999 10.988 0.55400002
25.421 10.979 0.54500002
25.42 10.977 0.537
25.414 10.969 0.528
25.42 10.977 0.52100003
25.417999 10.974 0.51200002
25.424 10.982 0.505
25.417999 10.975 0.49599999
25.416 10.972 0.48800001
25.410999 10.965 0.479
25.431999 10.993 0.47400001
25.42 10.978 0.465
25.410999 10.964 0.45500001
25.415001 10.97 0.44800001
25.421 10.979 0.44100001
25.416 10.972 0.43200001
25.416 10.972 0.42399999
25.424 10.984 0.417
25.419001 10.976 0.40900001
25.407 10.96 0.39899999
25.414 10.97 0.39199999
25.417 10.974 0.38499999
25.417999 10.975 0.377
25.413 10.968 0.368
25.413 10.969 0.36000001
25.41 10.964 0.352
25.507999 11.112 0.72600001
25.483999 11.079 0.713
25.479 11.072 0.70300001
25.479 11.072 0.69499999
25.471001 11.061 0.685
25.459999 11.046 0.67500001
25.443001 11.022 0.66299999
25.441 11.019 0.65399998
25.433001 11.008 0.64499998
25.427999 11.001 0.63599998
25.422001 10.993 0.62599999
25.423 10.994 0.61900002
25.409 10.975 0.60799998
25.41 10.976 0.60000002
25.413 10.98 0.59299999
25.417 10.986 0.58499998
25.414 10.981 0.57700002
25.413 10.98 0.56900001
25.410999 10.979 0.56
25.410999 10.978 0.55199999
25.413 10.981 0.54400003
25.419001 10.989 0.537
25.403999 10.969 0.52700001
25.403 10.966 0.51899999
25.405001 10.97 0.51099998
25.412001 10.98 0.50400001
25.405001 10.971 0.495
25.407 10.973 0.48800001
25.403999 10.969 0.479
25.405001 10.97 0.47099999
25.402 10.966 0.463
25.414 10.983 0.45699999
25.396 10.958 0.447
25.414 10.983 0.44100001
25.416 10.986 0.433
25.409 10.977 0.42399999
25.396999 10.96 0.41499999
25.403 10.968 0.40799999
25.412001 10.981 0.40099999
25.408001 10.975 0.39199999
25.407 10.974 0.384
25.405001 10.971 0.37599999
25.403 10.968 0.368
25.42 10.992 0.36199999
25.403999 10.97 0.352
25.398001 10.961 0.34400001
25.485001 11.095 0.71399999
25.490999 11.102 0.70700002
25.481001 11.089 0.69700003
25.466999 11.07 0.68599999
25.459 11.059 0.676
25.451 11.047 0.66600001
25.431 11.02 0.65399998
25.426001 11.013 0.64499998
25.417999 11.001 0.63499999
25.421 11.006 0.62800002
25.408001 10.987 0.61699998
25.408001 10.988 0.60900003
25.403 10.981 0.60000002
25.412001 10.994 0.59399998
25.398001 10.973 0.583
25.395 10.97 0.57499999
25.415001 10.997 0.56999999
25.402 10.979 0.56
25.405001 10.984 0.55199999
25.405001 10.984 0.54400003
25.400999 10.978 0.53600001
25.400999 10.979 0.528
25.402 10.979 0.51999998
25.41 10.991 0.51300001
25.405001 10.984 0.50400001
25.4 10.977 0.49599999
25.395 10.969 0.48699999
25.403999 10.982 0.47999999
25.403 10.982 0.472
25.398001 10.974 0.463
25.386999 10.959 0.454
25.41 10.991 0.449
25.396999 10.972 0.43900001
25.399 10.976 0.43200001
25.393 10.968 0.42300001
25.391001 10.965 0.41499999
25.399 10.977 0.40799999
25.400999 10.979 0.40000001
25.400999 10.979 0.39199999
25.396 10.971 0.384
25.402 10.98 0.37599999
25.396 10.972 0.368
25.396 10.973 0.36000001
25.391001 10.965 0.352
25.396 10.972 0.34400001
25.391001 10.965 0.336
25.473 11.092 0.69700003
25.466999 11.084 0.68699998
25.455999 11.067 0.676
25.452999 11.064 0.66799998
25.448 11.057 0.65899998
25.431 11.033 0.64700001
25.431 11.033 0.639
25.412001 11.007 0.62699997
25.403999 10.996 0.61799997
25.405001 10.997 0.61000001
25.393999 10.981 0.60000002
25.4 10.989 0.59299999
25.398001 10.987 0.58399999
25.396999 10.986 0.57599998
25.395 10.983 0.56800002
25.386999 10.973 0.55900002
25.399 10.989 0.55299997
25.393 10.981 0.54400003
25.402 10.993 0.537
25.393999 10.982 0.528
25.389 10.976 0.51899999
25.386999 10.972 0.51099998
25.384001 10.969 0.50199997
25.399 10.989 0.49599999
25.388 10.974 0.48699999
25.388 10.974 0.479
25.389 10.975 0.47099999
25.382999 10.967 0.46200001
25.385 10.97 0.45500001
25.392 10.98 0.44800001
25.384001 10.969 0.43900001
25.396999 10.987 0.43200001
25.385 10.97 0.42300001
25.388 10.974 0.41499999
25.391001 10.978 0.40799999
25.382999 10.967 0.39899999
25.386 10.972 0.391
25.389 10.975 0.384
25.375 10.956 0.37400001
25.386 10.972 0.368
25.386999 10.973 0.36000001
25.393 10.982 0.352
25.385 10.97 0.34400001
25.385 10.971 0.336
25.395 10.984 0.329
25.358 10.933 0.31799999
25.462999 11.092 0.67900002
25.461 11.089 0.671
25.447001 11.07 0.66000003
25.438999 11.058 0.64999998
25.422001 11.035 0.63800001
25.42 11.032 0.63
25.406 11.012 0.61900002
25.400999 11.006 0.61000001
25.402 11.006 0.602
25.396999 10.999 0.59299999
25.379999 10.975 0.58200002
25.377001 10.972 0.574
25.386 10.984 0.56699997
25.378 10.973 0.55800003
25.386999 10.985 0.55199999
25.393 10.994 0.54500002
25.384001 10.982 0.53500003
25.382 10.978 0.52700001
25.377001 10.972 0.51800001
25.382999 10.981 0.51099998
25.381001 10.977 0.50300002
25.389999 10.99 0.49599999
25.385 10.983 0.48699999
25.382 10.979 0.479
25.379 10.976 0.47099999
25.379 10.975 0.463
25.379999 10.977 0.45500001
25.379 10.975 0.447
25.382 10.979 0.43900001
25.375 10.97 0.43099999
25.381001 10.979 0.42300001
25.382999 10.981 0.41600001
25.378 10.974 0.40700001
25.381001 10.978 0.40000001
25.379 10.975 0.391
25.377001 10.973 0.38299999
25.374001 10.969 0.375
25.382 10.981 0.368
25.368999 10.962 0.359
25.372 10.966 0.35100001
25.381001 10.979 0.34400001
25.381001 10.979 0.336
25.375 10.971 0.32800001
25.379999 10.978 0.31999999
25.372 10.967 0.31200001
25.378 10.974 0.30399999
25.452 11.09 0.67000002
25.445 11.081 0.66100001
25.433001 11.063 0.64999998
25.43 11.06 0.64099997
25.413 11.036 0.63
25.408001 11.029 0.62099999
25.4 11.017 0.611
25.398001 11.014 0.60299999
25.386999 10.999 0.59299999
25.375999 10.984 0.583
25.377001 10.985 0.57499999
25.377001 10.985 0.56699997
25.365999 10.97 0.55699998
25.379999 10.99 0.55199999
25.372 10.978 0.542
25.370001 10.976 0.53399998
25.372999 10.98 0.52700001
25.370001 10.975 0.51800001
25.374001 10.981 0.51099998
25.368999 10.974 0.50199997
25.378 10.987 0.495
25.375 10.983 0.48699999
25.367001 10.972 0.47799999
25.367001 10.972 0.47
25.365 10.969 0.46200001
25.368 10.973 0.454
25.371 10.978 0.447
25.368 10.973 0.43799999
25.362 10.966 0.43000001
25.360001 10.963 0.42199999
25.360001 10.962 0.414
25.378 10.988 0.40799999
25.364 10.968 0.398
25.372999 10.981 0.391
25.368999 10.976 0.38299999
25.371 10.978 0.375
25.362 10.965 0.36700001
25.354 10.954 0.35800001
25.365999 10.971 0.35100001
25.365999 10.971 0.34299999
25.378 10.988 0.336
25.368999 10.976 0.32800001
25.363001 10.968 0.31900001
25.375999 10.986 0.31299999
25.375 10.984 0.30399999
25.361 10.964 0.296
25.444 11.094 0.662
25.444 11.093 0.65399998
25.431999 11.077 0.64300001
25.429001 11.073 0.634
25.416 11.054 0.62400001
25.408001 11.043 0.61400002
25.396999 11.027 0.60399997
25.391001 11.02 0.59500003
25.381001 11.005 0.58499998
25.375 10.997 0.57599998
25.375999 10.998 0.56800002
25.365 10.982 0.55800003
25.363001 10.979 0.55000001
25.368999 10.988 0.54299998
25.358 10.972 0.53299999
25.365999 10.984 0.52600002
25.364 10.981 0.51800001
25.361 10.977 0.50999999
25.356001 10.97 0.50099999
25.351 10.963 0.49200001
25.354 10.967 0.48500001
25.358999 10.975 0.47799999
25.363001 10.98 0.47
25.363001 10.98 0.463
25.358 10.974 0.454
25.347 10.958 0.44499999
25.358999 10.975 0.43799999
25.354 10.967 0.43000001
25.353001 10.967 0.42199999
25.357 10.972 0.414
25.354 10.968 0.40599999
25.361 10.977 0.39899999
25.374001 10.996 0.39199999
25.355 10.97 0.382
25.358 10.973 0.375
25.362 10.978 0.36700001
25.353001 10.967 0.359
25.353001 10.967 0.35100001
25.361 10.978 0.34299999
25.353001 10.967 0.33500001
25.365 10.983 0.32800001
25.351 10.964 0.31900001
25.346001 10.957 0.31099999
25.363001 10.981 0.30399999
25.362 10.98 0.296
25.35 10.962 0.287
25.365 10.984 0.28099999
25.43 11.088 0.64399999
25.429001 11.086 0.63599998
25.421 11.075 0.62599999
25.398001 11.043 0.61299998
25.399 11.044 0.60500002
25.388 11.028 0.59500003
25.385 11.025 0.58700001
25.372 11.006 0.57599998
25.364 10.994 0.56699997
25.361 10.991 0.55900002
25.358999 10.988 0.55000001
25.348 10.972 0.54100001
25.357 10.985 0.53399998
25.355 10.981 0.52600002
25.343 10.966 0.51599997
25.35 10.974 0.509
25.344 10.966 0.5
25.35 10.976 0.493
25.348 10.972 0.48500001
25.348 10.973 0.477
25.341999 10.964 0.46900001
25.341999 10.965 0.461
25.356001 10.985 0.45500001
25.349001 10.975 0.44600001
25.351999 10.979 0.43799999
25.35 10.976 0.43000001
25.347 10.972 0.42199999
25.344 10.968 0.414
25.336 10.957 0.405
25.332001 10.95 0.396
25.346001 10.97 0.38999999
25.343 10.966 0.382
25.357 10.986 0.375
25.344999 10.969 0.366
25.337999 10.959 0.35800001
25.344 10.968 0.35100001
25.343 10.966 0.34299999
25.341 10.963 0.33500001
25.355 10.984 0.32800001
25.355 10.984 0.31999999
25.344 10.968 0.31099999
25.348 10.974 0.30399999
25.344999 10.97 0.296
25.344 10.968 0.28799999
25.348 10.974 0.28
25.343 10.966 0.27200001
25.421 11.09 0.63499999
25.417 11.084 0.62599999
25.405001 11.067 0.616
25.400999 11.061 0.60699999
25.395 11.053 0.59799999
25.384001 11.038 0.588
25.377001 11.027 0.579
25.365999 11.011 0.56900001
25.363001 11.008 0.56
25.347 10.984 0.54900002
25.356001 10.997 0.54299998
25.348 10.985 0.53399998
25.341999 10.978 0.52499998
25.343 10.978 0.51700002
25.341999 10.978 0.509
25.351 10.991 0.50199997
25.346001 10.983 0.49399999
25.344 10.981 0.486
25.347 10.985 0.47799999
25.348 10.986 0.47
25.344 10.982 0.46200001
25.334 10.966 0.45300001
25.341999 10.978 0.44600001
25.344999 10.983 0.43799999
25.346001 10.984 0.43000001
25.334999 10.968 0.421
25.327 10.957 0.412
25.341 10.977 0.40599999
25.334999 10.969 0.398
25.336 10.97 0.38999999
25.334999 10.969 0.382
25.330999 10.964 0.37400001
25.341999 10.979 0.36700001
25.337 10.972 0.35800001
25.336 10.971 0.34999999
25.337 10.972 0.34299999
25.341999 10.979 0.33500001
25.341999 10.98 0.32699999
25.333 10.966 0.31900001
25.343 10.981 0.31200001
25.337999 10.973 0.303
25.336 10.97 0.29499999
25.334 10.967 0.287
25.336 10.971 0.28
25.337999 10.974 0.27200001
25.332001 10.966 0.264
25.346001 10.985 0.257
25.417 11.097 0.62800002
25.419001 11.101 0.62
25.393999 11.065 0.60699999
25.389 11.058 0.59799999
25.385 11.053 0.58899999
25.375999 11.039 0.579
25.368 11.028 0.56999999
25.363001 11.021 0.56099999
25.349001 11.001 0.551
25.349001 11.001 0.54299998
25.347 10.998 0.53500003
25.344 10.995 0.52600002
25.325001 10.967 0.51499999
25.337 10.983 0.509
25.34 10.988 0.50199997
25.334999 10.98 0.493
25.326 10.969 0.484
25.327 10.969 0.47600001
25.333 10.978 0.46900001
25.337999 10.985 0.46200001
25.330999 10.975 0.45300001
25.334 10.98 0.44499999
25.334 10.98 0.43799999
25.330999 10.976 0.42899999
25.334999 10.981 0.42199999
25.334999 10.981 0.414
25.334999 10.982 0.40599999
25.327 10.97 0.39700001
25.322001 10.963 0.389
25.320999 10.963 0.38100001
25.327999 10.971 0.37400001
25.319 10.959 0.36500001
25.323 10.965 0.35800001
25.334 10.981 0.35100001
25.315001 10.953 0.34099999
25.33 10.976 0.33500001
25.327999 10.973 0.32699999
25.330999 10.976 0.31900001
25.330999 10.977 0.31099999
25.323999 10.967 0.303
25.334999 10.983 0.296
25.319 10.959 0.287
25.327 10.972 0.28
25.325001 10.968 0.27200001
25.332001 10.978 0.264
25.330999 10.978 0.25600001
25.302 10.936 0.24699999
25.400999 11.089 0.61000001
25.391001 11.075 0.60000002
25.391001 11.075 0.59200001
25.382999 11.064 0.58200002
25.378 11.056 0.57300001
25.361 11.032 0.56199998
25.351 11.018 0.55199999
25.349001 11.014 0.54400003
25.332001 10.99 0.53299999
25.332001 10.991 0.52499998
25.327 10.983 0.51700002
25.313999 10.964 0.50700003
25.327999 10.984 0.50099999
25.327999 10.985 0.493
25.323999 10.98 0.48500001
25.32 10.973 0.47600001
25.320999 10.974 0.46799999
25.318001 10.971 0.46000001
25.320999 10.975 0.45300001
25.327 10.983 0.44499999
25.322001 10.976 0.43700001
25.319 10.973 0.42899999
25.32 10.973 0.421
25.32 10.974 0.41299999
25.329 10.986 0.40599999
25.315001 10.967 0.39700001
25.323999 10.979 0.38999999
25.316 10.968 0.38100001
25.320999 10.976 0.37400001
25.319 10.973 0.366
25.313 10.964 0.35699999
25.311001 10.961 0.34900001
25.316999 10.97 0.34200001
25.322001 10.978 0.33500001
25.311001 10.962 0.32600001
25.316999 10.97 0.31900001
25.319 10.974 0.31099999
25.316999 10.97 0.303
25.315001 10.968 0.29499999
25.320999 10.976 0.287
25.309999 10.96 0.27900001
25.320999 10.977 0.27200001
25.313 10.965 0.26300001
25.319 10.973 0.25600001
25.320999 10.977 0.248
25.315001 10.969 0.23999999
25.316999 10.97 0.23199999
25.385 11.08 0.60000002
25.386999 11.083 0.59200001
25.385 11.081 0.58399999
25.368999 11.057 0.57300001
25.364 11.049 0.56400001
25.358999 11.042 0.55500001
25.344999 11.023 0.54400003
25.337 11.011 0.53500003
25.329 10.999 0.52600002
25.323999 10.992 0.51700002
25.313 10.976 0.50800002
25.316 10.981 0.5
25.305 10.966 0.491
25.309 10.97 0.48300001
25.313999 10.978 0.47600001
25.306 10.966 0.46700001
25.309 10.971 0.46000001
25.313999 10.978 0.45300001
25.306999 10.969 0.44400001
25.309999 10.973 0.43599999
25.299 10.957 0.42699999
25.299999 10.958 0.419
25.308001 10.971 0.41299999
25.299 10.958 0.40400001
25.312 10.976 0.39700001
25.313999 10.979 0.38999999
25.304001 10.964 0.38100001
25.312 10.977 0.37400001
25.301001 10.961 0.36500001
25.306999 10.969 0.35699999
25.305 10.966 0.34900001
25.304001 10.964 0.34200001
25.305 10.966 0.33399999
25.313999 10.98 0.32699999
25.302999 10.963 0.31799999
25.309999 10.974 0.31099999
25.313999 10.979 0.303
25.308001 10.97 0.29499999
25.305 10.967 0.287
25.315001 10.981 0.28
25.305 10.967 0.271
25.315001 10.981 0.264
25.298 10.957 0.255
25.304001 10.965 0.248
25.302999 10.965 0.23999999
25.313 10.978 0.23199999
25.296 10.954 0.22400001
25.32 10.988 0.21699999
25.372999 11.077 0.583
25.375 11.08 0.57499999
25.363001 11.062 0.565
25.363001 11.063 0.55699998
25.353001 11.048 0.54699999
25.344999 11.036 0.537
25.327999 11.012 0.52700001
25.326 11.009 0.51800001
25.315001 10.993 0.509
25.306 10.981 0.5
25.304001 10.977 0.49200001
25.302 10.975 0.48300001
25.302 10.975 0.47600001
25.297001 10.967 0.46700001
25.302999 10.976 0.46000001
25.302 10.975 0.45199999
25.302999 10.976 0.44400001
25.304001 10.978 0.43599999
25.299 10.97 0.428
25.298 10.969 0.41999999
25.296 10.967 0.412
25.305 10.98 0.405
25.302999 10.976 0.39700001
25.297001 10.968 0.389
25.308001 10.984 0.382
25.306 10.981 0.37400001
25.295 10.965 0.36500001
25.295 10.965 0.35699999
25.305 10.98 0.34999999
25.294001 10.965 0.34099999
25.301001 10.974 0.33399999
25.299999 10.974 0.32600001
25.305 10.98 0.31900001
25.309999 10.987 0.31099999
25.292 10.962 0.30199999
25.304001 10.979 0.29499999
25.298 10.971 0.287
25.301001 10.975 0.27900001
25.291 10.96 0.271
25.291 10.961 0.26300001
25.297001 10.97 0.25600001
25.299999 10.974 0.248
25.294001 10.964 0.23999999
25.292 10.962 0.23199999
25.302999 10.978 0.22499999
25.301001 10.975 0.21699999
25.292 10.962 0.20900001
25.377001 11.097 0.57599998
25.371 11.088 0.56699997
25.362 11.075 0.55800003
25.348 11.055 0.54699999
25.337999 11.04 0.53799999
25.336 11.037 0.52899998
25.319 11.013 0.51899999
25.316999 11.009 0.50999999
25.306 10.994 0.50099999
25.306 10.994 0.493
25.304001 10.991 0.48500001
25.296 10.98 0.47600001
25.292999 10.976 0.46700001
25.288 10.968 0.45899999
25.291 10.972 0.45100001
25.291 10.973 0.44299999
25.294001 10.977 0.43599999
25.292 10.974 0.428
25.290001 10.971 0.41999999
25.290001 10.971 0.412
25.290001 10.972 0.40400001
25.288 10.968 0.396
25.294001 10.977 0.389
25.294001 10.977 0.38100001
25.288 10.969 0.373
25.291 10.974 0.36500001
25.289 10.97 0.35699999
25.278 10.954 0.34799999
25.281 10.958 0.34099999
25.287001 10.967 0.333
25.294001 10.977 0.32600001
25.283001 10.962 0.31799999
25.278999 10.956 0.30899999
25.292999 10.976 0.303
25.287001 10.969 0.294
25.294001 10.979 0.287
25.289 10.971 0.27900001
25.291 10.974 0.271
25.285 10.965 0.26300001
25.277 10.953 0.255
25.283001 10.962 0.24699999
25.285 10.966 0.23999999
25.283001 10.962 0.23199999
25.280001 10.958 0.22400001
25.291 10.975 0.21699999
25.289 10.971 0.20900001
25.275 10.951 0.2
25.358999 11.085 0.56599998
25.351999 11.075 0.55699998
25.347 11.068 0.54799998
25.348 11.069 0.54000002
25.334999 11.05 0.52999997
25.315001 11.022 0.51899999
25.323999 11.035 0.51200002
25.313 11.018 0.50300002
25.302 11.003 0.493
25.289 10.984 0.48300001
25.290001 10.984 0.47600001
25.287001 10.981 0.46700001
25.282 10.973 0.45899999
25.278999 10.969 0.45100001
25.285 10.978 0.44400001
25.285 10.978 0.43599999
25.280001 10.97 0.42699999
25.283001 10.974 0.41999999
25.283001 10.976 0.412
25.275 10.964 0.403
25.281 10.972 0.396
25.289 10.984 0.389
25.285 10.977 0.38100001
25.273001 10.961 0.37200001
25.288 10.982 0.36500001
25.282 10.975 0.35699999
25.285 10.979 0.34999999
25.274 10.963 0.34099999
25.275 10.963 0.333
25.278 10.968 0.32499999
25.283001 10.975 0.31799999
25.281 10.972 0.31
25.278 10.969 0.30199999
25.275 10.965 0.294
25.283001 10.976 0.287
25.275999 10.965 0.27900001
25.275 10.965 0.271
25.275 10.964 0.26300001
25.264 10.949 0.255
25.273001 10.961 0.24699999
25.273001 10.962 0.23899999
25.268 10.954 0.23100001
25.273001 10.962 0.22400001
25.284 10.978 0.21699999
25.271 10.959 0.208
25.281 10.973 0.20100001
25.273001 10.962 0.193
25.278 10.97 0.185
25.348 11.083 0.54900002
25.341 11.073 0.54000002
25.341999 11.074 0.53200001
25.334 11.063 0.523
25.32 11.043 0.51300001
25.312 11.031 0.50400001
25.294001 11.005 0.493
25.299 11.012 0.486
25.291 11 0.477
25.285999 10.992 0.46799999
25.285999 10.993 0.46000001
25.273001 10.974 0.45100001
25.278999 10.982 0.44400001
25.275 10.977 0.435
25.281 10.986 0.428
25.268 10.967 0.419
25.278999 10.983 0.412
25.274 10.976 0.40400001
25.283001 10.989 0.39700001
25.271999 10.973 0.38800001
25.271999 10.974 0.38
25.27 10.97 0.37200001
25.27 10.97 0.36399999
25.275999 10.979 0.35699999
25.268 10.967 0.34900001
25.264 10.961 0.34
25.261999 10.959 0.333
25.264999 10.964 0.32499999
25.257 10.952 0.317
25.268 10.968 0.31
25.274 10.976 0.30199999
25.268 10.968 0.294
25.266001 10.964 0.28600001
25.264 10.961 0.278
25.261 10.958 0.27000001
25.268999 10.969 0.26300001
25.268999 10.969 0.255
25.266001 10.966 0.24699999
25.271999 10.973 0.23999999
25.27 10.971 0.23199999
25.264 10.962 0.22400001
25.261999 10.959 0.21600001
25.267 10.967 0.208
25.264999 10.963 0.20100001
25.264999 10.964 0.193
25.264 10.963 0.185
25.25 10.942 0.177
25.337 11.081 0.54100001
25.341 11.087 0.53299999
25.33 11.071 0.523
25.32 11.056 0.514
25.309 11.04 0.50400001
25.295 11.02 0.49399999
25.301001 11.029 0.48699999
25.290001 11.013 0.47799999
25.278999 10.997 0.46799999
25.285 11.006 0.461
25.266001 10.978 0.45100001
25.267 10.979 0.44299999
25.261 10.971 0.43399999
25.267 10.979 0.42699999
25.271999 10.987 0.41999999
25.254 10.96 0.41
25.259001 10.968 0.403
25.26 10.969 0.39500001
25.257 10.965 0.38699999
25.263 10.974 0.38
25.266001 10.978 0.373
25.266001 10.979 0.36500001
25.26 10.97 0.35600001
25.264 10.975 0.34900001
25.256001 10.963 0.34
25.25 10.955 0.33199999
25.271 10.986 0.32600001
25.261999 10.973 0.31799999
25.264 10.975 0.31
25.264999 10.977 0.30199999
25.259001 10.969 0.294
25.264 10.976 0.287
25.256001 10.963 0.278
25.254999 10.962 0.27000001
25.267 10.98 0.26300001
25.26 10.97 0.255
25.259001 10.969 0.24699999
25.259001 10.969 0.23999999
25.254999 10.962 0.23199999
25.254 10.962 0.22400001
25.257999 10.967 0.21600001
25.252001 10.959 0.208
25.263 10.975 0.20100001
25.254999 10.964 0.193
25.264 10.976 0.185
25.254 10.962 0.177
25.249001 10.955 0.169
25.249001 10.955 0.162
25.333 11.09 0.52499998
25.329 11.084 0.51599997
25.309999 11.057 0.505
25.308001 11.053 0.49700001
25.302999 11.046 0.48800001
25.285999 11.021 0.47799999
25.281 11.013 0.46900001
25.264999 10.99 0.45899999
25.264999 10.991 0.45199999
25.263 10.987 0.44299999
25.254999 10.975 0.435
25.254999 10.976 0.42699999
25.26 10.983 0.41999999
25.261 10.984 0.412
25.259001 10.981 0.40400001
25.256001 10.977 0.396
25.259001 10.982 0.38800001
25.254 10.974 0.38
25.254 10.975 0.37200001
25.26 10.983 0.36500001
25.254 10.974 0.35600001
25.263 10.988 0.34900001
25.249001 10.968 0.34
25.247 10.964 0.33199999
25.254999 10.976 0.32499999
25.249001 10.968 0.317
25.254999 10.976 0.31
25.254999 10.976 0.30199999
25.243999 10.96 0.29300001
25.243999 10.961 0.28600001
25.246 10.964 0.278
25.25 10.97 0.271
25.253 10.974 0.26300001
25.247999 10.967 0.255
25.246 10.963 0.24699999
25.256001 10.978 0.23999999
25.254 10.975 0.23199999
25.253 10.973 0.22400001
25.250999 10.971 0.21600001
25.242001 10.958 0.208
25.247999 10.967 0.20100001
25.254 10.976 0.193
25.247999 10.967 0.185
25.249001 10.968 0.177
25.254 10.975 0.17
25.247 10.966 0.162
25.240999 10.957 0.154
25.323999 11.09 0.51700002
25.316999 11.081 0.50800002
25.315001 11.078 0.49900001
25.302 11.058 0.48899999
25.291 11.042 0.47999999
25.289 11.039 0.47099999
25.271999 11.014 0.461
25.27 11.011 0.45300001
25.261999 11 0.44400001
25.254 10.988 0.435
25.246 10.976 0.426
25.246 10.976 0.419
25.259001 10.996 0.412
25.247999 10.98 0.403
25.239 10.965 0.39399999
25.242001 10.97 0.38699999
25.247 10.979 0.38
25.245001 10.975 0.37200001
25.247999 10.979 0.36399999
25.245001 10.976 0.35600001
25.247999 10.979 0.34900001
25.237 10.964 0.34
25.24 10.968 0.33199999
25.239 10.967 0.32499999
25.250999 10.985 0.31799999
25.236 10.963 0.30899999
25.238001 10.965 0.301
25.235001 10.961 0.29300001
25.231001 10.955 0.285
25.23 10.954 0.27700001
25.23 10.954 0.27000001
25.254 10.989 0.26300001
25.238001 10.965 0.255
25.231001 10.956 0.24699999
25.242001 10.972 0.23899999
25.246 10.978 0.23199999
25.242001 10.971 0.22400001
25.233 10.959 0.21600001
25.233999 10.96 0.208
25.245001 10.976 0.20100001
25.240999 10.971 0.193
25.240999 10.97 0.185
25.236 10.964 0.177
25.235001 10.961 0.169
25.226 10.949 0.162
25.24 10.969 0.154
25.232 10.958 0.146
25.226999 10.95 0.138
25.308001 11.082 0.50700003
25.313999 11.09 0.5
25.294001 11.061 0.48899999
25.301001 11.072 0.48199999
25.282 11.043 0.47099999
25.288 11.052 0.46399999
25.268999 11.024 0.454
25.263 11.016 0.44499999
25.25 10.996 0.43599999
25.245001 10.989 0.42699999
25.237 10.977 0.41800001
25.237 10.977 0.41100001
25.237 10.977 0.403
25.231001 10.969 0.39399999
25.235001 10.974 0.38699999
25.233 10.971 0.37900001
25.238001 10.979 0.37200001
25.236 10.976 0.36399999
25.233 10.972 0.35600001
25.231001 10.968 0.34799999
25.231001 10.968 0.34
25.236 10.976 0.333
25.239 10.981 0.32499999
25.236 10.976 0.317
25.225 10.96 0.30899999
25.229 10.966 0.301
25.226 10.962 0.29300001
25.228001 10.966 0.28600001
25.228001 10.964 0.278
25.229 10.966 0.27000001
25.212999 10.943 0.26100001
25.233999 10.974 0.255
25.221001 10.954 0.24600001
25.229 10.967 0.23899999
25.23 10.968 0.23100001
25.228001 10.965 0.22400001
25.226999 10.963 0.21600001
25.233 10.974 0.208
25.228001 10.966 0.2
25.232 10.972 0.193
25.24 10.983 0.185
25.235001 10.977 0.177
25.225 10.961 0.169
25.223 10.958 0.162
25.228001 10.966 0.154
25.232 10.971 0.146
25.229 10.967 0.139
25.218 10.95 0.131
25.249001 10.998 0.123
25.306 11.094 0.49200001
25.299999 11.084 0.48300001
25.297001 11.081 0.47499999
25.281 11.057 0.46399999
25.278 11.053 0.456
25.261999 11.029 0.44600001
25.254 11.017 0.43700001
25.252001 11.014 0.42899999
25.247 11.006 0.41999999
25.23 10.982 0.41100001
25.222 10.97 0.40200001
25.228001 10.978 0.39500001
25.223 10.97 0.38699999
25.226 10.975 0.37900001
25.229 10.98 0.37200001
25.226 10.976 0.36399999
25.229 10.98 0.35600001
25.221001 10.968 0.34799999
25.224001 10.972 0.34
25.23 10.981 0.333
25.226999 10.978 0.32499999
25.214001 10.958 0.31600001
25.222 10.97 0.30899999
25.226999 10.977 0.301
25.221001 10.969 0.29300001
25.232 10.984 0.28600001
25.218 10.964 0.278
25.222 10.97 0.27000001
25.216999 10.963 0.26199999
25.223 10.971 0.255
25.223 10.971 0.24699999
25.215 10.96 0.23899999
25.221001 10.969 0.23100001
25.216999 10.963 0.22400001
25.216 10.961 0.21600001
25.225 10.975 0.208
25.219999 10.967 0.2
25.214001 10.959 0.193
25.219999 10.967 0.185
25.219999 10.968 0.177
25.228001 10.98 0.17
25.221001 10.969 0.162
25.218 10.965 0.154
25.212999 10.958 0.146
25.224001 10.974 0.139
25.228001 10.98 0.131
25.201 10.939 0.123
25.207001 10.948 0.115
25.299999 11.1 0.484
25.284 11.074 0.47400001
25.280001 11.069 0.465
25.267 11.049 0.45500001
25.261 11.041 0.447
25.250999 11.025 0.43700001
25.250999 11.026 0.43000001
25.247999 11.022 0.421
25.238001 11.007 0.412
25.224001 10.986 0.403
25.225 10.987 0.39500001
25.205999 10.959 0.38499999
25.219999 10.979 0.37900001
25.222 10.983 0.37200001
25.219999 10.98 0.36399999
25.225 10.988 0.35600001
25.216999 10.976 0.34799999
25.215 10.973 0.34
25.212999 10.97 0.33199999
25.208 10.962 0.324
25.211 10.966 0.31600001
25.211 10.967 0.30899999
25.208 10.963 0.301
25.211 10.967 0.29300001
25.215 10.973 0.28600001
25.216 10.974 0.278
25.214001 10.971 0.27000001
25.212 10.968 0.26199999
25.205999 10.96 0.25400001
25.212 10.969 0.24699999
25.204 10.957 0.23899999
25.211 10.968 0.23100001
25.219 10.979 0.22400001
25.212999 10.971 0.21600001
25.209 10.966 0.208
25.212 10.97 0.2
25.209999 10.967 0.193
25.211 10.968 0.185
25.214001 10.973 0.177
25.212 10.97 0.169
25.212 10.97 0.162
25.211 10.969 0.154
25.214001 10.972 0.146
25.212 10.97 0.139
25.207001 10.962 0.131
25.209 10.965 0.123
25.201 10.954 0.115
25.193001 10.942 0.108
25.202999 10.957 0.1
25.283001 11.088 0.46599999
25.278999 11.083 0.458
25.268 11.066 0.449
25.26 11.054 0.44
25.254999 11.047 0.43099999
25.239 11.023 0.421
25.237 11.019 0.41299999
25.226 11.003 0.40400001
25.218 10.991 0.39500001
25.216 10.987 0.38699999
25.207001 10.975 0.37900001
25.209999 10.979 0.37099999
25.212 10.983 0.36399999
25.212999 10.984 0.35600001
25.202999 10.969 0.347
25.208 10.976 0.34
25.205 10.972 0.33199999
25.202999 10.97 0.324
25.198 10.962 0.31600001
25.202 10.967 0.308
25.209 10.979 0.301
25.205 10.972 0.29300001
25.205 10.972 0.285
25.198999 10.963 0.27700001
25.198999 10.964 0.27000001
25.195999 10.959 0.26199999
25.198999 10.964 0.25400001
25.191999 10.952 0.24600001
25.197001 10.961 0.23899999
25.200001 10.965 0.23100001
25.193001 10.955 0.223
25.205 10.972 0.21600001
25.205 10.972 0.208
25.205999 10.975 0.2
25.197001 10.961 0.192
25.200001 10.966 0.185
25.198999 10.964 0.177
25.209 10.98 0.17
25.209 10.98 0.162
25.205 10.973 0.154
25.197001 10.961 0.146
25.200001 10.966 0.139
25.197001 10.962 0.131
25.200001 10.966 0.123
25.198 10.963 0.115
25.209999 10.981 0.108
25.191999 10.953 0.1
25.195 10.958 0.092
25.277 11.093 0.45899999
25.268999 11.081 0.44999999
25.264999 11.075 0.44100001
25.254 11.059 0.43200001
25.240999 11.039 0.42199999
25.233 11.028 0.41299999
25.228001 11.02 0.405
25.223 11.012 0.39700001
25.204 10.983 0.38699999
25.204 10.984 0.37900001
25.194 10.968 0.37
25.198999 10.977 0.36300001
25.201 10.979 0.35499999
25.202 10.98 0.34799999
25.202 10.981 0.34
25.200001 10.978 0.33199999
25.191999 10.966 0.324
25.191999 10.967 0.31600001
25.195 10.971 0.308
25.191999 10.966 0.30000001
25.195999 10.972 0.29300001
25.201 10.98 0.28600001
25.197001 10.975 0.278
25.187 10.959 0.26899999
25.193001 10.968 0.26199999
25.191 10.965 0.25400001
25.190001 10.964 0.24600001
25.195 10.972 0.23899999
25.187 10.959 0.23100001
25.188 10.961 0.223
25.198 10.976 0.21600001
25.184999 10.957 0.208
25.194 10.97 0.2
25.197001 10.975 0.193
25.191 10.966 0.185
25.186001 10.958 0.177
25.195 10.972 0.17
25.195 10.972 0.162
25.190001 10.965 0.154
25.187 10.961 0.146
25.190001 10.965 0.139
25.188 10.962 0.131
25.188 10.962 0.123
25.183001 10.954 0.116
25.188 10.963 0.108
25.187 10.96 0.1
25.191999 10.968 0.092
25.169001 10.934 0.085000001
25.256001 11.077 0.449
25.257 11.078 0.44100001
25.259001 11.081 0.433
25.242001 11.056 0.42300001
25.232 11.04 0.414
25.229 11.036 0.40599999
25.222 11.025 0.39700001
25.225 11.029 0.38999999
25.202999 10.996 0.38
25.193001 10.981 0.37099999
25.193001 10.981 0.36300001
25.181999 10.965 0.354
25.188 10.974 0.347
25.184 10.968 0.33899999
25.188 10.974 0.33199999
25.188 10.975 0.324
25.184999 10.969 0.31600001
25.188999 10.975 0.308
25.188 10.974 0.301
25.188 10.975 0.29300001
25.183001 10.967 0.285
25.183001 10.967 0.27700001
25.183001 10.968 0.27000001
25.181 10.965 0.26199999
25.174999 10.955 0.25400001
25.18 10.963 0.24600001
25.179001 10.961 0.23899999
25.177999 10.96 0.23100001
