ply
format ascii 1.0
comment PCL generated
element vertex 1922
property float x
property float y
property float z
element camera 0
property float view_px
property float view_py
property float view_pz
property float x_axisx
property float x_axisy
property float x_axisz
property float y_axisx
property float y_axisy
property float y_axisz
property float z_axisx
property float z_axisy
property float z_axisz
property float focal
property float scalex
property float scaley
property float centerx
property float centery
property int viewportx
property int viewporty
property float k1
property float k2
end_header
16.259001 2.658 2.674
16.247 2.6659999 2.665
16.247 2.6659999 2.651
16.228001 2.6800001 2.6440001
16.224001 2.6819999 2.632
16.205 2.6949999 2.625
16.209 2.691 2.609
16.18 2.7130001 2.6070001
16.18 2.7119999 2.592
16.171 2.7179999 2.5810001
16.15 2.734 2.576
16.16 2.7260001 2.5569999
15.659 2.99 0.61699998
15.669 2.9809999 0.602
15.672 2.9790001 0.588
15.679 2.973 0.574
15.67 2.9779999 0.56099999
15.681 2.9690001 0.546
15.669 2.9779999 0.53299999
15.672 2.9749999 0.51899999
15.663 2.98 0.505
15.666 2.977 0.491
15.678 2.9679999 0.477
15.673 2.971 0.463
15.667 2.9749999 0.44999999
15.664 2.9760001 0.43599999
15.671 2.97 0.42199999
15.659 2.9779999 0.40799999
15.659 2.977 0.39500001
15.642 2.99 0.38100001
15.645 2.9860001 0.36700001
15.629 2.9979999 0.35299999
15.632 2.994 0.33899999
15.668 2.9660001 0.32499999
15.61 3.0090001 0.31200001
15.601 3.0150001 0.29800001
15.594 3.02 0.28400001
15.595 3.0190001 0.27000001
15.569 3.0369999 0.25600001
15.56 3.043 0.242
15.548 3.0510001 0.227
15.547 3.0510001 0.213
15.528 3.0650001 0.199
15.523 3.0680001 0.185
15.513 3.075 0.17
15.509 3.0769999 0.156
15.497 3.085 0.142
15.47 3.1040001 0.127
15.46 3.1110001 0.112
15.463 3.108 0.097999997
15.433 3.1300001 0.082999997
15.447 3.119 0.068999998
16.311001 2.6159999 2.9070001
16.271999 2.6459999 2.9100001
16.274 2.6440001 2.895
16.282 2.6370001 2.8770001
16.285 2.6329999 2.8610001
16.292 2.6270001 2.8429999
16.285 2.632 2.832
16.292 2.625 2.8150001
16.292 2.625 2.8
16.302999 2.615 2.7809999
16.295 2.6199999 2.77
16.295 2.619 2.756
16.295 2.619 2.7420001
16.289 2.6229999 2.73
16.287001 2.6229999 2.717
16.280001 2.628 2.7060001
16.266001 2.638 2.697
16.254 2.6459999 2.688
16.254 2.6459999 2.674
16.239 2.6559999 2.6659999
16.219999 2.6700001 2.6589999
16.205 2.681 2.651
16.209 2.677 2.635
16.190001 2.691 2.6289999
16.187 2.6919999 2.6159999
16.173 2.7019999 2.6070001
16.150999 2.7179999 2.6010001
16.15 2.7190001 2.5869999
15.634 2.99 0.58999997
15.66 2.9690001 0.57499999
15.651 2.9760001 0.56199998
15.653 2.973 0.54799998
15.632 2.9879999 0.53500003
15.656 2.97 0.51999998
15.651 2.9719999 0.50599998
15.65 2.9719999 0.49200001
15.649 2.9719999 0.47799999
15.653 2.9690001 0.465
15.64 2.977 0.45100001
15.644 2.973 0.43700001
15.652 2.967 0.42300001
15.651 2.967 0.40900001
15.635 2.9779999 0.39500001
15.637 2.9749999 0.382
15.633 2.9779999 0.368
15.636 2.9749999 0.354
15.625 2.9820001 0.34
15.619 2.9860001 0.32600001
15.612 2.9909999 0.31200001
15.602 2.997 0.29800001
15.597 3 0.28400001
15.59 3.0050001 0.27000001
15.587 3.006 0.25600001
15.559 3.026 0.242
15.556 3.0280001 0.228
15.539 3.039 0.214
15.525 3.05 0.2
15.518 3.0539999 0.185
15.513 3.0569999 0.171
15.489 3.0739999 0.15700001
15.486 3.075 0.142
15.471 3.085 0.12800001
15.454 3.098 0.113
15.442 3.1059999 0.098999999
15.45 3.099 0.085000001
15.429 3.1140001 0.07
15.427 3.115 0.055
15.41 3.1270001 0.039999999
16.27 2.6340001 2.937
16.25 2.648 2.9319999
16.273001 2.6289999 2.9070001
16.292999 2.6129999 2.8829999
16.292999 2.612 2.869
16.296 2.609 2.8529999
16.289 2.6140001 2.842
16.288 2.6129999 2.8280001
16.296 2.6070001 2.8099999
16.295 2.6059999 2.796
16.292 2.608 2.783
16.296 2.6040001 2.767
16.280001 2.615 2.76
16.299 2.599 2.737
16.284 2.6099999 2.7290001
16.27 2.6199999 2.721
16.26 2.628 2.7119999
16.266001 2.622 2.6949999
16.235001 2.645 2.6930001
16.232 2.6470001 2.6800001
16.224001 2.651 2.6689999
16.212 2.6600001 2.6600001
16.201 2.668 2.6500001
16.186001 2.678 2.642
16.179001 2.6830001 2.631
16.166 2.6919999 2.622
16.153999 2.701 2.612
16.155001 2.6989999 2.5969999
15.61 2.9890001 0.56400001
15.616 2.984 0.55000001
15.628 2.974 0.53500003
15.631 2.971 0.52100003
15.623 2.977 0.50800002
15.626 2.973 0.49399999
15.625 2.973 0.47999999
15.617 2.9790001 0.46599999
15.62 2.9749999 0.45199999
15.607 2.984 0.43799999
15.615 2.9779999 0.42399999
15.618 2.974 0.41
15.614 2.977 0.396
15.619 2.9719999 0.382
15.613 2.9760001 0.36899999
15.604 2.9820001 0.35499999
15.612 2.9749999 0.34099999
15.611 2.9749999 0.32699999
15.611 2.974 0.31299999
15.581 2.9960001 0.29899999
15.585 2.9920001 0.285
15.577 2.9979999 0.271
15.576 2.997 0.257
15.564 3.006 0.243
15.548 3.016 0.229
15.549 3.0150001 0.215
15.538 3.0220001 0.20100001
15.528 3.029 0.186
15.508 3.043 0.17200001
15.502 3.0469999 0.15800001
15.479 3.063 0.14300001
15.487 3.056 0.12899999
15.46 3.075 0.114
15.456 3.0769999 0.1
15.438 3.0910001 0.085000001
15.437 3.0899999 0.071000002
15.42 3.102 0.056000002
15.411 3.108 0.041000001
15.396 3.118 0.026000001
15.396 3.1170001 0.012
16.287001 2.605 2.941
16.271999 2.615 2.9330001
16.271 2.615 2.9189999
16.289 2.5999999 2.8959999
16.278 2.608 2.8870001
16.296 2.5929999 2.8640001
16.294001 2.595 2.8510001
16.296 2.592 2.836
16.299 2.589 2.8199999
16.284 2.599 2.812
16.288 2.596 2.7969999
16.299 2.586 2.777
16.292999 2.5899999 2.766
16.287001 2.5929999 2.7539999
16.281 2.598 2.743
16.268999 2.6059999 2.733
16.254999 2.6159999 2.7249999
16.25 2.619 2.7130001
16.247 2.6210001 2.7
16.228001 2.6340001 2.694
16.223 2.6370001 2.681
16.212 2.645 2.6719999
16.212 2.6440001 2.6570001
16.190001 2.6600001 2.652
16.172001 2.6730001 2.645
16.167999 2.675 2.6329999
16.157 2.6830001 2.6229999
16.143 2.6930001 2.6140001
15.599 2.9779999 0.537
15.584 2.9890001 0.523
15.594 2.9809999 0.509
15.606 2.971 0.495
15.613 2.9649999 0.47999999
15.6 2.973 0.46700001
15.595 2.9760001 0.45300001
15.588 2.9809999 0.43900001
15.598 2.9719999 0.42500001
15.597 2.9719999 0.41100001
15.597 2.9719999 0.39700001
15.596 2.971 0.38299999
15.597 2.97 0.36899999
15.591 2.973 0.35499999
15.611 2.9579999 0.34099999
15.59 2.973 0.32800001
15.589 2.973 0.31400001
15.582 2.977 0.30000001
15.568 2.987 0.28600001
15.56 2.9920001 0.27200001
15.572 2.983 0.25799999
15.559 2.9909999 0.244
15.559 2.99 0.23
15.539 3.0039999 0.215
15.529 3.0109999 0.20100001
15.513 3.0220001 0.18700001
15.514 3.0209999 0.17299999
15.487 3.04 0.15800001
15.469 3.053 0.14399999
15.466 3.0539999 0.12899999
15.474 3.0469999 0.115
15.458 3.0580001 0.101
15.447 3.0650001 0.086000003
15.412 3.0910001 0.071000002
15.412 3.0899999 0.057
15.409 3.092 0.041999999
15.401 3.0969999 0.028000001
15.383 3.109 0.013
16.264999 2.6059999 2.9630001
16.27 2.602 2.9460001
16.290001 2.586 2.9219999
16.290001 2.585 2.908
16.282 2.5899999 2.8970001
16.278 2.5929999 2.8840001
16.296 2.5780001 2.862
16.285999 2.5840001 2.852
16.288 2.582 2.8369999
16.292 2.5780001 2.8210001
16.280001 2.586 2.8110001
16.292 2.5769999 2.7920001
16.285 2.5810001 2.7809999
16.291 2.576 2.7639999
16.268999 2.592 2.7590001
16.263 2.595 2.747
16.247999 2.6070001 2.74
16.243 2.609 2.7279999
16.232 2.6170001 2.7179999
16.219999 2.625 2.7090001
16.219999 2.625 2.6949999
16.208 2.6329999 2.6849999
16.197001 2.6400001 2.675
16.186001 2.648 2.6659999
16.162001 2.6659999 2.661
16.160999 2.6659999 2.6470001
16.142 2.6789999 2.641
15.567 2.983 0.50999999
15.566 2.983 0.49599999
15.564 2.984 0.48199999
15.575 2.9749999 0.46799999
15.578 2.9719999 0.454
15.578 2.971 0.44
15.574 2.973 0.426
15.574 2.9719999 0.412
15.564 2.9790001 0.398
15.56 2.9809999 0.384
15.566 2.9760001 0.37
15.575 2.9679999 0.35600001
15.578 2.9660001 0.34200001
15.578 2.964 0.32800001
15.569 2.971 0.31400001
15.565 2.973 0.30000001
15.557 2.9779999 0.28600001
15.56 2.9749999 0.27200001
15.543 2.987 0.25799999
15.543 2.9860001 0.244
15.539 2.9879999 0.23
15.523 2.9990001 0.21600001
15.534 2.99 0.20200001
15.522 2.9979999 0.18799999
15.499 3.0150001 0.17299999
15.495 3.017 0.15899999
15.481 3.027 0.145
15.471 3.033 0.13
15.458 3.0420001 0.116
15.444 3.0510001 0.101
15.436 3.0569999 0.086999997
15.419 3.0680001 0.071999997
15.408 3.076 0.057
15.405 3.0769999 0.043000001
15.392 3.086 0.028000001
15.388 3.0880001 0.014
16.284 2.5769999 2.9660001
16.283001 2.5769999 2.951
16.287001 2.573 2.9349999
16.290001 2.5699999 2.9189999
16.292999 2.566 2.9030001
16.292999 2.566 2.8889999
16.285 2.5710001 2.878
16.297001 2.5610001 2.859
16.292999 2.563 2.846
16.292 2.563 2.832
16.299 2.5569999 2.8150001
16.284 2.5680001 2.8069999
16.285 2.566 2.7920001
16.274 2.5739999 2.783
16.263 2.5810001 2.7739999
16.247 2.5929999 2.766
16.24 2.5969999 2.7550001
16.25 2.589 2.7360001
16.229 2.6040001 2.7309999
16.228001 2.6040001 2.717
16.202999 2.622 2.7130001
16.201 2.6229999 2.7
16.190001 2.6300001 2.6900001
16.186001 2.6329999 2.678
16.16 2.652 2.674
16.167999 2.6440001 2.6559999
16.145 2.661 2.651
15.53 2.9909999 0.47
15.562 2.9660001 0.45500001
15.549 2.9749999 0.44100001
15.553 2.9719999 0.42699999
15.548 2.974 0.41299999
15.548 2.974 0.39899999
15.553 2.9690001 0.38499999
15.543 2.9749999 0.37099999
15.542 2.9760001 0.35699999
15.537 2.9779999 0.34299999
15.533 2.9809999 0.329
15.547 2.9690001 0.315
15.54 2.974 0.301
15.548 2.967 0.287
15.531 2.9790001 0.273
15.527 2.9809999 0.259
15.523 2.983 0.245
15.53 2.977 0.23100001
15.507 2.994 0.21699999
15.522 2.9809999 0.20299999
15.518 2.984 0.189
15.498 2.997 0.17399999
15.481 3.0090001 0.16
15.491 3.0009999 0.146
15.472 3.0139999 0.131
15.46 3.023 0.117
15.442 3.0350001 0.102
15.444 3.033 0.088
15.428 3.0439999 0.072999999
15.412 3.0550001 0.059
15.413 3.053 0.044
15.388 3.0699999 0.028999999
15.399 3.0610001 0.015
16.267 2.575 2.9849999
16.280001 2.5639999 2.964
16.291 2.5550001 2.9449999
16.298 2.549 2.927
16.297001 2.5480001 2.9130001
16.290001 2.553 2.902
16.290001 2.552 2.888
16.289 2.552 2.8740001
16.296 2.546 2.8559999
16.288 2.5510001 2.845
16.288 2.55 2.8310001
16.292999 2.546 2.8150001
16.267 2.5650001 2.812
16.268 2.563 2.7969999
16.261999 2.5669999 2.7850001
16.247999 2.5769999 2.777
16.250999 2.5739999 2.7620001
16.246 2.5769999 2.75
16.225 2.592 2.744
16.214001 2.5999999 2.7349999
16.205999 2.605 2.724
16.190001 2.6159999 2.7160001
16.174999 2.6270001 2.7079999
16.174999 2.6259999 2.694
16.163 2.6340001 2.684
16.156 2.6389999 2.6730001
16.136999 2.6530001 2.6670001
15.519 2.9809999 0.456
15.51 2.9860001 0.44299999
15.521 2.977 0.428
15.521 2.977 0.414
15.523 2.974 0.40000001
15.527 2.971 0.38600001
15.522 2.974 0.37200001
15.522 2.973 0.35800001
15.518 2.9749999 0.34400001
15.518 2.974 0.33000001
15.517 2.974 0.31600001
15.52 2.971 0.30199999
15.519 2.971 0.28799999
15.535 2.9579999 0.27399999
15.531 2.961 0.25999999
15.518 2.9690001 0.24600001
15.518 2.9690001 0.23199999
15.514 2.971 0.21699999
15.494 2.9849999 0.20299999
15.51 2.9719999 0.189
15.501 2.9779999 0.175
15.497 2.98 0.161
15.481 2.9909999 0.147
15.473 2.9960001 0.132
15.453 3.01 0.118
15.448 3.013 0.103
15.424 3.03 0.088
15.404 3.0439999 0.074000001
15.418 3.033 0.059999999
15.39 3.052 0.045000002
15.377 3.0610001 0.029999999
15.376 3.0610001 0.015
16.291 2.54 2.971
16.283001 2.5450001 2.96
16.287001 2.5420001 2.944
16.294001 2.536 2.9260001
16.285999 2.5409999 2.915
16.287001 2.54 2.901
16.285 2.54 2.8870001
16.285 2.539 2.8729999
16.299999 2.527 2.852
16.288 2.5350001 2.842
16.261 2.5550001 2.8399999
16.264999 2.5510001 2.8239999
16.252001 2.5599999 2.816
16.264 2.5510001 2.796
16.257999 2.5539999 2.7850001
16.236 2.5699999 2.78
16.229 2.575 2.7690001
16.232 2.572 2.753
16.219999 2.579 2.744
16.195 2.598 2.74
16.186001 2.6040001 2.73
16.195 2.596 2.7119999
16.167999 2.6159999 2.7079999
16.17 2.6129999 2.6930001
16.146999 2.6300001 2.6889999
15.495 2.9790001 0.42899999
15.489 2.983 0.41499999
15.512 2.9649999 0.40099999
15.507 2.9679999 0.38699999
15.51 2.9649999 0.373
15.507 2.967 0.359
15.505 2.967 0.345
15.507 2.9649999 0.331
15.503 2.967 0.317
15.506 2.964 0.30199999
15.496 2.971 0.28799999
15.515 2.9560001 0.27399999
15.507 2.961 0.25999999
15.507 2.96 0.24600001
15.49 2.9719999 0.23199999
15.494 2.9679999 0.21799999
15.493 2.967 0.204
15.493 2.967 0.19
15.489 2.9690001 0.176
15.476 2.977 0.161
15.462 2.987 0.147
15.456 2.9909999 0.133
15.452 2.993 0.118
15.439 3.0009999 0.104
15.431 3.006 0.090000004
15.423 3.0120001 0.075000003
15.399 3.0280001 0.059999999
15.387 3.036 0.045000002
15.386 3.036 0.030999999
15.383 3.0380001 0.017000001
16.284 2.5309999 2.9849999
16.288 2.527 2.9690001
16.291 2.5239999 2.9530001
16.275999 2.5350001 2.9460001
16.290001 2.523 2.925
16.285999 2.5250001 2.9119999
16.294001 2.5179999 2.8940001
16.289 2.5209999 2.882
16.299999 2.5120001 2.8629999
16.283001 2.5239999 2.8570001
16.271 2.5320001 2.8469999
16.267 2.5350001 2.835
16.275 2.527 2.8169999
16.252001 2.5439999 2.813
16.247 2.5469999 2.8010001
16.24 2.5510001 2.79
16.236 2.553 2.777
16.212999 2.5699999 2.773
16.195 2.5829999 2.766
16.202 2.5769999 2.7490001
16.181999 2.5910001 2.743
16.179001 2.592 2.73
16.16 2.6059999 2.723
16.155001 2.609 2.711
16.138 2.6210001 2.704
15.466 2.9809999 0.38800001
15.478 2.971 0.37400001
15.481 2.9679999 0.36000001
15.481 2.967 0.34599999
15.477 2.9690001 0.331
15.477 2.9690001 0.317
15.491 2.957 0.303
15.479 2.9649999 0.289
15.471 2.97 0.27500001
15.483 2.96 0.26100001
15.458 2.9779999 0.24699999
15.482 2.96 0.233
15.482 2.9590001 0.219
15.477 2.9619999 0.205
15.469 2.967 0.19
15.472 2.964 0.176
15.46 2.9719999 0.162
15.46 2.971 0.148
15.451 2.9760001 0.133
15.447 2.9790001 0.119
15.439 2.984 0.105
15.431 2.9890001 0.090000004
15.431 2.9879999 0.075999998
15.418 2.9960001 0.061999999
15.396 3.0120001 0.046999998
15.382 3.0220001 0.032000002
15.376 3.0250001 0.017000001
16.284 2.5150001 2.983
16.284 2.513 2.9679999
16.295 2.5050001 2.9489999
16.287001 2.51 2.938
16.294001 2.5039999 2.9200001
16.290001 2.506 2.908
16.285999 2.5079999 2.895
16.285 2.5079999 2.881
16.281 2.51 2.869
16.274 2.5150001 2.858
16.264 2.5220001 2.848
16.257999 2.5250001 2.836
16.254 2.527 2.8239999
16.243 2.5350001 2.8139999
16.233 2.5420001 2.8039999
16.205999 2.5610001 2.802
16.224001 2.5469999 2.78
16.212 2.5550001 2.7709999
16.194 2.5680001 2.7639999
16.179001 2.579 2.756
16.179001 2.5769999 2.7420001
16.163 2.589 2.734
16.157 2.5929999 2.7219999
16.135 2.608 2.717
15.449 2.973 0.361
15.436 2.9820001 0.347
15.45 2.971 0.33199999
15.459 2.9630001 0.31799999
15.455 2.9660001 0.30399999
15.446 2.971 0.28999999
15.447 2.97 0.27599999
15.459 2.96 0.26199999
15.453 2.964 0.24699999
15.453 2.9630001 0.233
15.457 2.9590001 0.219
15.438 2.9719999 0.205
15.452 2.961 0.191
15.46 2.9549999 0.177
15.455 2.957 0.163
15.449 2.961 0.148
15.431 2.973 0.134
15.431 2.973 0.12
15.434 2.9690001 0.106
15.422 2.977 0.090999998
15.414 2.9820001 0.077
15.414 2.9820001 0.063000001
15.398 2.993 0.048
15.387 3 0.033
15.369 3.0120001 0.017999999
16.291 2.493 2.9760001
16.287001 2.4949999 2.964
16.287001 2.4949999 2.9489999
16.294001 2.4879999 2.9319999
16.294001 2.4879999 2.918
16.290001 2.49 2.905
16.294001 2.4860001 2.8889999
16.271999 2.5020001 2.885
16.268 2.5039999 2.872
16.268 2.503 2.858
16.27 2.5009999 2.842
16.263 2.506 2.8310001
16.24 2.5220001 2.8269999
16.215 2.54 2.8239999
16.209999 2.543 2.812
16.202 2.5480001 2.8010001
16.202999 2.546 2.786
16.176001 2.566 2.7839999
16.16 2.5769999 2.776
16.167999 2.5699999 2.7579999
16.163 2.573 2.7460001
16.136 2.5929999 2.743
15.431 2.967 0.333
15.419 2.9749999 0.31900001
15.438 2.96 0.30500001
15.444 2.9549999 0.29100001
15.425 2.9679999 0.27599999
15.421 2.97 0.26199999
15.429 2.964 0.248
15.416 2.9719999 0.234
15.425 2.9649999 0.22
15.424 2.9649999 0.206
15.432 2.9579999 0.191
15.435 2.9549999 0.177
15.423 2.9630001 0.163
15.431 2.9560001 0.149
15.414 2.9679999 0.134
15.402 2.9760001 0.12
15.406 2.9719999 0.106
15.406 2.9719999 0.092
15.402 2.974 0.077
15.389 2.9820001 0.063000001
15.393 2.9779999 0.048999999
15.374 2.9920001 0.034000002
15.364 2.9979999 0.018999999
16.292 2.477 2.987
16.280001 2.4849999 2.9779999
16.291 2.4760001 2.9590001
16.288 2.4779999 2.9460001
16.290001 2.4749999 2.931
16.282 2.48 2.9200001
16.281 2.4809999 2.9059999
16.275 2.484 2.895
16.27 2.487 2.882
16.261999 2.4920001 2.872
16.261999 2.4909999 2.8570001
16.256001 2.4949999 2.846
16.24 2.506 2.839
16.221001 2.52 2.8329999
16.205999 2.53 2.825
16.195 2.5380001 2.816
16.201 2.5320001 2.7980001
16.177 2.549 2.7950001
16.16 2.5610001 2.7869999
16.179001 2.546 2.7650001
16.150999 2.566 2.763
16.145 2.5699999 2.7509999
15.415 2.96 0.33399999
15.373 2.9890001 0.30599999
15.394 2.974 0.29100001
15.396 2.971 0.27700001
15.408 2.961 0.26300001
15.408 2.961 0.249
15.395 2.9690001 0.234
15.391 2.971 0.22
15.399 2.9649999 0.206
15.407 2.9590001 0.192
15.406 2.9579999 0.178
15.402 2.96 0.163
15.398 2.9630001 0.149
15.394 2.9649999 0.13500001
15.397 2.961 0.121
15.413 2.9489999 0.107
15.393 2.9630001 0.092
15.39 2.964 0.078000002
15.377 2.973 0.063000001
15.368 2.9779999 0.048999999
15.364 2.98 0.034000002
15.368 2.977 0.02
16.299 2.4560001 2.9809999
16.288 2.464 2.9719999
16.277 2.471 2.9630001
16.280001 2.4679999 2.947
16.295 2.4560001 2.9260001
16.274 2.471 2.921
16.298 2.4519999 2.8959999
16.280001 2.4649999 2.8900001
16.252001 2.4849999 2.888
16.263 2.4760001 2.869
16.245001 2.4879999 2.862
16.219999 2.506 2.859
16.216999 2.507 2.846
16.216999 2.507 2.832
16.212999 2.5090001 2.819
16.190001 2.5250001 2.8150001
16.190001 2.5239999 2.8010001
16.142 2.559 2.8069999
16.156 2.5480001 2.7869999
16.143999 2.556 2.777
15.383 2.9660001 0.33500001
15.361 2.9779999 0.278
15.367 2.973 0.264
15.379 2.964 0.249
15.367 2.9719999 0.235
15.375 2.9660001 0.221
15.37 2.9679999 0.206
15.378 2.9619999 0.192
15.375 2.9630001 0.178
15.37 2.9660001 0.164
15.375 2.9619999 0.15000001
15.377 2.9590001 0.13500001
15.374 2.961 0.121
15.381 2.9549999 0.107
15.356 2.9719999 0.092
15.365 2.9649999 0.078000002
15.369 2.961 0.064000003
15.356 2.97 0.048999999
15.364 2.9630001 0.035
15.339 2.98 0.02
16.302999 2.437 2.9760001
16.284 2.451 2.971
16.284 2.45 2.957
16.285999 2.448 2.941
16.271999 2.4579999 2.934
16.268 2.46 2.921
16.259001 2.4649999 2.911
16.242001 2.477 2.904
16.257 2.4649999 2.8829999
16.23 2.484 2.881
16.23 2.484 2.8659999
16.216 2.493 2.858
16.202 2.503 2.8499999
16.191999 2.51 2.8399999
16.188 2.5120001 2.8280001
16.177999 2.5179999 2.8180001
16.158001 2.533 2.812
16.159 2.5309999 2.7969999
16.136999 2.546 2.7920001
15.365 2.961 0.33500001
15.337 2.977 0.25
15.35 2.9660001 0.236
15.358 2.96 0.221
15.358 2.9590001 0.207
15.345 2.9679999 0.193
15.345 2.967 0.178
15.357 2.9579999 0.164
15.349 2.9619999 0.15000001
15.344 2.9649999 0.13600001
15.348 2.961 0.121
15.355 2.9560001 0.107
15.35 2.9590001 0.093000002
15.345 2.9619999 0.078000002
15.347 2.9590001 0.064000003
15.344 2.961 0.050000001
15.339 2.964 0.035
15.33 2.9679999 0.021
16.285 2.4360001 2.9820001
16.278 2.4400001 2.971
16.273001 2.4430001 2.9590001
16.266001 2.447 2.948
16.267 2.4460001 2.9330001
16.253 2.4549999 2.925
16.254999 2.4530001 2.9100001
16.235001 2.467 2.905
16.229 2.471 2.8929999
16.246 2.457 2.8710001
16.207001 2.4849999 2.8740001
16.207001 2.484 2.8599999
16.191 2.4949999 2.852
16.191 2.4949999 2.8380001
16.176001 2.5050001 2.8299999
16.172001 2.507 2.8180001
16.156 2.5179999 2.8099999
16.136999 2.5309999 2.8039999
15.335 2.9649999 0.336
15.299 2.984 0.222
15.312 2.9749999 0.207
15.332 2.9590001 0.193
15.324 2.9649999 0.17900001
15.328 2.961 0.16500001
15.327 2.96 0.15000001
15.319 2.9660001 0.13600001
15.323 2.9619999 0.122
15.323 2.961 0.107
15.317 2.9649999 0.093000002
15.32 2.9619999 0.079000004
15.31 2.9679999 0.064000003
15.325 2.9560001 0.050000001
15.315 2.9630001 0.035
15.315 2.9619999 0.021
15.311 2.964 0.0070000002
16.271999 2.4300001 2.9860001
16.275999 2.4260001 2.9690001
16.271 2.4289999 2.957
16.267 2.431 2.9449999
16.25 2.4430001 2.938
16.24 2.4489999 2.928
16.25 2.441 2.9089999
16.228001 2.457 2.905
16.224001 2.4579999 2.892
16.207001 2.47 2.8859999
16.188999 2.483 2.8800001
16.191999 2.4790001 2.8640001
16.184999 2.484 2.8529999
16.155001 2.506 2.8510001
16.153999 2.5050001 2.8369999
16.142 2.5139999 2.8280001
15.317 2.961 0.33700001
15.282 2.977 0.193
15.286 2.974 0.17900001
15.304 2.96 0.16500001
15.298 2.964 0.15099999
15.299 2.9619999 0.13600001
15.314 2.95 0.122
15.295 2.964 0.107
15.294 2.964 0.093000002
15.298 2.96 0.079000004
15.284 2.9690001 0.064000003
15.289 2.9649999 0.050000001
15.296 2.9590001 0.035999998
15.298 2.9560001 0.022
16.278 2.4100001 2.98
16.275 2.411 2.967
16.275999 2.4089999 2.9519999
16.247 2.431 2.951
16.237 2.437 2.9419999
16.236 2.4360001 2.927
16.225 2.4449999 2.918
16.219999 2.4460001 2.9059999
16.215 2.45 2.8940001
16.205 2.4560001 2.8840001
16.184999 2.47 2.8789999
16.174 2.477 2.869
16.158001 2.4879999 2.862
16.153999 2.49 2.849
16.138 2.5009999 2.842
15.29 2.9619999 0.338
15.259 2.9749999 0.16500001
15.267 2.9679999 0.15099999
15.275 2.9619999 0.13699999
15.27 2.964 0.122
15.278 2.9579999 0.108
15.27 2.9630001 0.093000002
15.277 2.957 0.079000004
15.264 2.9649999 0.064000003
15.26 2.9679999 0.050000001
15.264 2.964 0.035999998
15.266 2.9619999 0.021
15.265 2.961 0.0070000002
16.278 2.3940001 2.977
16.261 2.4059999 2.97
16.243 2.418 2.964
16.238001 2.421 2.9530001
16.239 2.4200001 2.938
16.212999 2.438 2.9349999
16.212 2.437 2.921
16.198 2.447 2.9130001
16.188999 2.4530001 2.9030001
16.181 2.4579999 2.892
16.166 2.4679999 2.8840001
16.155001 2.4749999 2.875
16.146999 2.48 2.8640001
16.139 2.4860001 2.8529999
15.259 2.967 0.33899999
15.227 2.977 0.122
15.245 2.9630001 0.108
15.249 2.9590001 0.093999997
15.256 2.9530001 0.079999998
15.247 2.9590001 0.064999998
15.247 2.9579999 0.050000001
15.247 2.9579999 0.035999998
15.243 2.96 0.021
15.252 2.9530001 0.0070000002
16.257 2.3940001 2.984
16.237 2.408 2.9790001
16.229 2.4130001 2.9679999
16.233999 2.4089999 2.9519999
16.216999 2.4200001 2.9449999
16.205 2.427 2.9360001
16.198 2.4319999 2.925
16.190001 2.437 2.914
16.177999 2.4449999 2.905
16.152 2.4630001 2.902
16.146999 2.4660001 2.8900001
16.139 2.471 2.8789999
15.246 2.9579999 0.34
15.242 2.9590001 0.32499999
15.197 2.9779999 0.093000002
15.213 2.9660001 0.079000004
15.225 2.957 0.064999998
15.217 2.9619999 0.050000001
15.208 2.9679999 0.035999998
15.221 2.9579999 0.022
15.219 2.9579999 0.0070000002
16.216 2.408 2.9860001
16.219999 2.404 2.97
16.204 2.414 2.9630001
16.207001 2.411 2.947
16.188 2.424 2.941
16.18 2.4289999 2.9300001
16.171 2.4349999 2.9200001
16.152 2.448 2.914
16.143999 2.4530001 2.9030001
16.139999 2.4549999 2.8900001
15.229 2.9519999 0.34
15.223 2.9549999 0.32600001
15.176 2.974 0.064999998
15.197 2.9579999 0.050999999
15.199 2.9560001 0.035999998
15.196 2.957 0.022
15.196 2.957 0.0070000002
16.224001 2.3859999 2.9790001
16.200001 2.402 2.9760001
16.194 2.4059999 2.9649999
16.184999 2.4119999 2.954
16.176001 2.4170001 2.944
16.157 2.4300001 2.938
16.15 2.4349999 2.927
16.150999 2.4330001 2.9119999
16.129999 2.448 2.9070001
15.185 2.964 0.32699999
15.166 2.961 0.035999998
15.152 2.971 0.021
15.164 2.961 0.0070000002
16.194 2.392 2.9909999
16.205 2.3840001 2.971
16.190001 2.3940001 2.964
16.17 2.4070001 2.9590001
16.16 2.4130001 2.948
16.150999 2.4189999 2.938
16.132999 2.4319999 2.9319999
15.166 2.96 0.32800001
16.18 2.3859999 2.98
16.17 2.392 2.97
16.162001 2.398 2.96
16.135 2.4159999 2.957
16.146 2.4070001 2.938
16.143999 2.395 2.9790001
16.157 2.385 2.9590001
16.204 2.402 2.98
16.237 2.4070001 2.957
16.153999 2.424 2.9719999
16.172001 2.4260001 2.9460001
16.268999 2.441 2.934
16.143 2.451 2.971
16.146999 2.451 2.9419999
16.135 2.4489999 2.9100001
16.26 2.4679999 2.904
16.134001 2.477 2.97
16.142 2.4790001 2.9419999
16.149 2.48 2.914
16.132999 2.477 2.882
16.247999 2.4949999 2.8729999
16.134001 2.506 2.971
16.136 2.506 2.9419999
16.141001 2.507 2.9130001
16.155001 2.5090001 2.8859999
16.139 2.507 2.8540001
16.242001 2.523 2.8429999
16.148001 2.5369999 2.974
16.148001 2.5369999 2.9449999
16.129999 2.5339999 2.9119999
16.118999 2.533 2.881
16.136999 2.5350001 2.855
16.136999 2.5350001 2.825
16.212999 2.5469999 2.809
16.221001 2.5480001 2.7809999
16.127001 2.562 2.971
16.141001 2.5639999 2.944
16.146999 2.5650001 2.9159999
16.124001 2.562 2.882
16.162001 2.5680001 2.8599999
16.155001 2.5669999 2.829
16.139999 2.5650001 2.7969999
16.198999 2.5739999 2.7780001
16.252001 2.582 2.757
16.149 2.595 2.9760001
16.131001 2.592 2.9430001
16.145 2.5940001 2.9159999
16.146 2.5940001 2.8870001
16.153999 2.595 2.859
16.158001 2.596 2.8299999
16.16 2.596 2.8010001
16.152 2.595 2.7709999
16.18 2.599 2.7460001
16.264999 2.6129999 2.7309999
16.132 2.6210001 2.974
16.127001 2.6199999 2.9430001
16.135 2.6210001 2.915
16.118999 2.618 2.8829999
16.139999 2.622 2.8570001
16.15 2.6229999 2.8299999
16.135 2.6210001 2.7980001
16.143999 2.622 2.77
16.148001 2.6229999 2.7409999
16.132 2.6199999 2.7090001
16.278999 2.6440001 2.7049999
16.319 2.6459999 0.0070000002
16.125 2.648 2.914
16.136 2.6500001 2.8870001
16.153999 2.6530001 2.8610001
16.132999 2.6500001 2.8280001
16.150999 2.652 2.8010001
16.134001 2.6500001 2.7690001
16.158001 2.654 2.744
16.143 2.651 2.7119999
16.135 2.6500001 2.681
16.268999 2.6719999 2.674
16.33 2.677 0.035999998
16.226999 2.6600001 0.0070000002
16.127001 2.677 2.8859999
16.134001 2.678 2.858
16.142 2.6789999 2.8299999
16.120001 2.675 2.7969999
16.128 2.677 2.7690001
16.15 2.6800001 2.743
16.158001 2.6819999 2.7149999
16.148001 2.6800001 2.684
16.143 2.6789999 2.654
16.256001 2.698 2.6429999
16.285 2.6989999 0.064999998
16.223 2.688 0.035999998
16.171 2.6800001 0.0070000002
16.152 2.711 2.862
16.135 2.707 2.8299999
16.125 2.7060001 2.7980001
16.122 2.7049999 2.7690001
16.148001 2.71 2.744
16.17 2.7130001 2.7179999
16.139 2.7079999 2.684
16.139 2.7079999 2.654
16.149 2.71 2.6270001
16.214001 2.721 2.608
16.27 2.7260001 0.093000002
16.198 2.7130001 0.064000003
16.159 2.707 0.035
16.158001 2.7060001 0.0070000002
16.146999 2.7390001 2.8329999
16.15 2.7390001 2.8039999
16.139 2.737 2.7720001
16.149 2.7390001 2.7449999
16.125999 2.7349999 2.7119999
16.152 2.7390001 2.687
16.139 2.737 2.655
16.150999 2.7390001 2.628
16.153999 2.7390001 2.599
16.218 2.75 2.5799999
17.466999 2.9590001 0.31600001
16.268 2.7550001 0.122
16.193001 2.7420001 0.093000002
16.172001 2.7390001 0.064000003
16.156 2.7360001 0.035999998
16.167999 2.7379999 0.0070000002
16.143999 2.767 2.8039999
16.148001 2.7679999 2.7750001
16.149 2.7679999 2.7460001
16.152 2.7679999 2.717
16.138 2.766 2.6849999
16.148001 2.7679999 2.6570001
16.148001 2.7679999 2.628
16.141001 2.766 2.598
16.156 2.7690001 2.5710001
16.169001 2.7709999 2.5439999
16.249001 2.7850001 2.527
17.316999 2.9649999 0.31400001
17.287001 2.9590001 0.28200001
17.259001 2.9549999 0.25099999
17.302999 2.9619999 0.221
17.309 2.9630001 0.191
16.266001 2.7839999 0.15099999
16.173 2.7679999 0.121
16.158001 2.7650001 0.093000002
16.181 2.7690001 0.064000003
16.160999 2.766 0.035999998
16.155001 2.7650001 0.0070000002
16.149 2.7969999 2.7460001
16.155001 2.7980001 2.7179999
16.143999 2.796 2.687
16.16 2.799 2.6600001
16.159 2.7980001 2.631
16.15 2.7969999 2.5999999
16.148001 2.7969999 2.5699999
16.157 2.7980001 2.5420001
16.158001 2.7980001 2.513
16.264999 2.8169999 2.5
17.097 2.9579999 0.43099999
17.132 2.964 0.40099999
17.146999 2.9660001 0.37099999
17.15 2.967 0.34099999
17.117001 2.961 0.31
17.146 2.9660001 0.28
17.155001 2.9679999 0.25
17.132999 2.964 0.219
16.250999 2.8110001 0.17900001
16.173 2.7969999 0.15000001
16.156 2.7939999 0.121
16.177999 2.7980001 0.093000002
16.176001 2.7969999 0.064000003
16.162001 2.7950001 0.035999998
16.172001 2.7969999 0.0070000002
16.129999 2.823 2.7149999
16.139999 2.8239999 2.687
16.158001 2.8269999 2.661
16.159 2.8269999 2.631
16.129999 2.822 2.598
16.158001 2.8269999 2.573
16.164 2.8280001 2.5439999
16.157 2.8269999 2.5139999
16.143999 2.825 2.483
16.247999 2.8429999 2.4690001
16.927 2.9590001 0.63700002
16.938 2.961 0.60699999
16.993999 2.97 0.579
16.997999 2.971 0.54900002
17.013 2.973 0.51899999
16.997999 2.971 0.48899999
16.993 2.97 0.458
16.997999 2.971 0.428
17.01 2.973 0.39899999
16.993 2.97 0.368
17.018 2.974 0.338
16.809 2.937 0.30500001
17.048 2.9790001 0.27900001
16.370001 2.8599999 0.23899999
16.246 2.8380001 0.208
16.158001 2.823 0.17900001
16.162001 2.8239999 0.15000001
16.153 2.822 0.121
16.174999 2.826 0.093000002
16.177 2.826 0.064000003
16.174999 2.826 0.035999998
16.159 2.823 0.0070000002
16.145 2.8540001 2.6889999
16.125 2.8510001 2.6559999
16.16 2.8570001 2.632
16.153 2.8559999 2.602
16.146 2.8540001 2.572
16.145 2.8540001 2.5420001
16.167999 2.858 2.516
16.158001 2.8559999 2.4860001
16.17 2.858 2.4579999
16.23 2.869 2.438
16.813 2.9690001 0.81099999
16.822001 2.971 0.78200001
16.813 2.9690001 0.75199997
16.877001 2.98 0.72500002
16.889 2.983 0.69499999
16.871 2.9790001 0.66500002
16.851999 2.9760001 0.634
16.868 2.9790001 0.60500002
16.867001 2.9779999 0.57499999
16.881001 2.9809999 0.54500002
16.860001 2.977 0.51499999
16.867001 2.9779999 0.48500001
16.902 2.984 0.456
16.923 2.9879999 0.42699999
16.937 2.99 0.39700001
16.457001 2.905 0.35699999
16.413 2.8970001 0.32699999
16.483999 2.9100001 0.29899999
16.337999 2.8840001 0.26699999
16.23 2.865 0.237
16.177999 2.8559999 0.207
16.157 2.852 0.17900001
16.167 2.8540001 0.15000001
16.177 2.855 0.122
16.162001 2.8529999 0.093000002
16.146999 2.8510001 0.064000003
16.149 2.8510001 0.035999998
16.17 2.855 0.0070000002
16.139999 2.882 2.6589999
16.152 2.8840001 2.632
16.166 2.8870001 2.605
16.149 2.8840001 2.573
16.146999 2.8829999 2.543
16.143999 2.8829999 2.5139999
16.162001 2.8859999 2.487
16.143999 2.8829999 2.4549999
16.146 2.8829999 2.4260001
16.195 2.892 2.404
16.215 2.895 2.378
16.353001 2.9189999 1.342
16.372999 2.9219999 1.169
16.35 2.918 1.138
16.351999 2.918 1.109
16.365 2.9200001 1.081
16.362 2.9200001 1.051
16.358999 2.9189999 1.022
16.353001 2.918 0.99299997
16.382 2.9230001 0.96499997
16.415001 2.9289999 0.93800002
16.445999 2.934 0.91100001
16.429001 2.931 0.88099998
16.416 2.9289999 0.85100001
16.400999 2.9260001 0.82099998
16.398001 2.925 0.792
16.403 2.9260001 0.76300001
16.386 2.9230001 0.73299998
16.393 2.924 0.704
16.393999 2.924 0.67500001
16.371 2.9200001 0.64499998
16.362 2.9189999 0.616
16.363001 2.9189999 0.58700001
16.354 2.9170001 0.55699998
16.344999 2.915 0.528
16.341 2.915 0.49900001
16.329 2.9119999 0.47
16.309999 2.9089999 0.44
16.301001 2.9070001 0.41100001
16.282 2.904 0.382
16.287001 2.905 0.35299999
16.273001 2.902 0.324
16.243999 2.8970001 0.29499999
16.229 2.8940001 0.266
16.162001 2.882 0.236
16.159 2.881 0.207
16.179001 2.885 0.17900001
16.162001 2.882 0.15000001
16.167999 2.8829999 0.121
16.177 2.8840001 0.093000002
16.158001 2.881 0.064000003
16.174 2.8840001 0.035999998
16.156 2.8800001 0.0070000002
16.146 2.9119999 2.632
16.129999 2.9089999 2.5999999
16.143 2.9119999 2.573
16.136999 2.911 2.5420001
16.132 2.9100001 2.5120001
16.135 2.9100001 2.484
16.143 2.9119999 2.4560001
16.143999 2.9119999 2.427
16.155001 2.914 2.3989999
16.188999 2.9200001 2.375
16.356001 2.95 1.8099999
16.348 2.948 1.78
16.360001 2.95 1.752
16.362 2.95 1.723
16.368 2.951 1.694
16.386 2.9549999 1.6670001
16.396 2.9560001 1.6390001
16.379999 2.9530001 1.608
16.363001 2.95 1.577
16.370001 2.951 1.548
16.375 2.9519999 1.52
16.365 2.95 1.489
16.354 2.948 1.459
16.356001 2.9489999 1.4299999
16.349001 2.947 1.4
16.347 2.947 1.3710001
16.323999 2.9430001 1.34
16.316999 2.941 1.3099999
16.309 2.9400001 1.281
16.311001 2.9400001 1.252
16.313999 2.941 1.223
16.306 2.9389999 1.193
16.289 2.9360001 1.163
16.291 2.9360001 1.1339999
16.288 2.9360001 1.105
16.295 2.937 1.076
16.287001 2.9349999 1.0470001
16.268999 2.9319999 1.017
16.261 2.931 0.98699999
16.238001 2.9260001 0.95700002
16.245001 2.928 0.92900002
16.226999 2.924 0.89899999
16.233 2.925 0.87
16.219999 2.9230001 0.84100002
16.216999 2.9219999 0.81199998
16.208 2.921 0.78299999
16.200001 2.9189999 0.75400001
16.191 2.9170001 0.72399998
16.177999 2.915 0.69499999
16.183001 2.9159999 0.667
16.184999 2.9159999 0.63800001
16.183001 2.9159999 0.60900003
16.176001 2.914 0.57999998
16.187 2.9159999 0.55199999
16.173 2.914 0.523
16.188999 2.9170001 0.495
16.184 2.9159999 0.46599999
16.17 2.9130001 0.43700001
16.172001 2.9130001 0.40799999
16.172001 2.9130001 0.37900001
16.177 2.914 0.35100001
16.159 2.911 0.322
16.166 2.9119999 0.29300001
16.157 2.9100001 0.26499999
16.15 2.9089999 0.236
16.150999 2.9089999 0.207
16.160999 2.911 0.17900001
16.118999 2.9030001 0.15000001
16.149 2.908 0.121
16.153999 2.9100001 0.093000002
16.172001 2.9119999 0.064000003
16.16 2.911 0.035999998
16.159 2.911 0.0070000002
16.141001 2.941 2.6029999
16.117001 2.9360001 2.569
16.143 2.941 2.5439999
16.146999 2.941 2.5150001
16.16 2.944 2.4879999
16.146 2.941 2.457
16.153 2.9419999 2.4289999
16.139999 2.9400001 2.398
16.15 2.9419999 2.3699999
16.16 2.944 2.342
16.382 2.984 2.345
16.395 2.9860001 2.3169999
16.384001 2.984 2.286
16.374001 2.9820001 2.2550001
16.386999 2.9849999 2.227
16.377001 2.983 2.1960001
16.379999 2.983 2.1670001
16.360001 2.98 2.135
16.35 2.9779999 2.1040001
16.339001 2.9760001 2.073
16.332001 2.974 2.043
16.320999 2.9719999 2.0120001
16.315001 2.971 1.982
16.318001 2.9719999 1.9529999
16.306999 2.97 1.923
16.315001 2.971 1.8940001
16.304001 2.9690001 1.864
16.292 2.967 1.8329999
16.266001 2.9619999 1.801
16.259001 2.961 1.771
16.267 2.9630001 1.743
16.256001 2.96 1.712
16.249001 2.9590001 1.683
16.223 2.954 1.651
16.236 2.957 1.623
16.209 2.9519999 1.592
16.216 2.9530001 1.563
16.229 2.9549999 1.535
16.207001 2.951 1.5039999
16.184999 2.947 1.474
16.183001 2.947 1.444
16.176001 2.9449999 1.415
16.173 2.9449999 1.386
16.171 2.944 1.357
16.166 2.9430001 1.327
16.188 2.947 1.3
16.167 2.9430001 1.27
16.174 2.9449999 1.242
16.174999 2.9449999 1.2130001
16.167 2.9430001 1.184
16.174999 2.9449999 1.155
16.184999 2.9460001 1.127
16.172001 2.944 1.097
16.176001 2.9449999 1.069
16.177 2.9449999 1.04
16.169001 2.9430001 1.011
16.167 2.9430001 0.98199999
16.181999 2.9449999 0.954
16.191 2.947 0.926
16.171 2.9430001 0.89600003
16.177999 2.9449999 0.86799997
16.197001 2.948 0.83999997
16.184999 2.9460001 0.81099999
16.176001 2.944 0.78100002
16.167999 2.9419999 0.75199997
16.184999 2.9460001 0.72399998
16.194 2.947 0.69599998
16.18 2.944 0.667
16.179001 2.944 0.63800001
16.164 2.941 0.60900003
16.181 2.944 0.58099997
16.190001 2.9460001 0.55199999
16.188 2.9460001 0.523
16.179001 2.944 0.49399999
16.184 2.9449999 0.46599999
16.200001 2.948 0.43799999
16.198 2.947 0.40900001
16.171 2.9419999 0.38
16.181999 2.944 0.35100001
16.172001 2.9419999 0.322
16.166 2.941 0.29300001
16.17 2.9419999 0.26499999
16.156 2.9400001 0.236
16.164 2.941 0.207
16.160999 2.941 0.17900001
16.163 2.941 0.15000001
16.163 2.941 0.122
16.156 2.9400001 0.093000002
16.172001 2.9419999 0.064000003
16.232 2.9530001 0.035999998
16.187 2.9449999 0.0070000002
16.360001 3.0109999 2.967
16.370001 3.013 2.9389999
16.385 3.016 2.911
16.379 3.0150001 2.8800001
16.385 3.016 2.852
16.363001 3.0120001 2.8180001
16.353001 3.01 2.786
16.344 3.0079999 2.7550001
16.348 3.0090001 2.7260001
16.313999 3.0020001 2.691
16.323999 3.0039999 2.6619999
16.304001 3 2.6300001
16.193001 2.98 2.582
16.134001 2.9690001 2.5439999
16.155001 2.973 2.5179999
16.152 2.9719999 2.4879999
16.159 2.973 2.46
16.141001 2.97 2.428
16.153 2.9719999 2.4000001
16.16 2.974 2.372
16.155001 2.9719999 2.342
16.146999 2.971 2.312
16.211 2.983 2.2909999
16.233999 2.987 2.2650001
16.198999 2.98 2.2309999
16.193001 2.9790001 2.201
16.177999 2.9760001 2.1700001
16.167 2.974 2.1389999
16.184 2.977 2.112
16.183001 2.977 2.0829999
16.167999 2.974 2.052
16.172001 2.9749999 2.0239999
16.160999 2.973 1.993
16.162001 2.973 1.964
16.166 2.974 1.936
16.164 2.973 1.906
16.15 2.971 1.876
16.153 2.971 1.847
16.16 2.9719999 1.819
16.162001 2.973 1.79
16.159 2.9719999 1.761
16.172001 2.974 1.733
16.18 2.9760001 1.705
16.165001 2.973 1.675
16.171 2.974 1.646
16.172001 2.9749999 1.617
16.174 2.974 1.589
16.172001 2.9749999 1.5599999
16.166 2.974 1.53
16.167999 2.974 1.501
16.18 2.9760001 1.474
16.156 2.9719999 1.442
16.173 2.9749999 1.415
16.174999 2.9749999 1.386
16.174 2.9749999 1.357
16.174999 2.9749999 1.329
16.188999 2.977 1.301
16.177 2.9749999 1.271
16.176001 2.9749999 1.242
16.172001 2.974 1.2130001
16.158001 2.971 1.183
16.167999 2.973 1.155
16.176001 2.9749999 1.127
16.167999 2.973 1.098
16.195999 2.9779999 1.071
16.187 2.977 1.041
16.173 2.974 1.012
16.176001 2.974 0.98299998
16.153 2.97 0.95300001
16.171 2.973 0.92500001
16.173 2.974 0.89600003
16.176001 2.974 0.86799997
16.181999 2.9749999 0.83899999
16.18 2.9749999 0.81099999
16.176001 2.974 0.78200001
16.169001 2.9719999 0.75300002
16.183001 2.9749999 0.72399998
16.187 2.9760001 0.69599998
16.174999 2.974 0.667
16.181 2.9749999 0.63800001
16.174 2.973 0.60900003
16.18 2.974 0.58099997
16.187 2.9760001 0.55199999
16.183001 2.9749999 0.523
16.179001 2.974 0.495
16.193001 2.9760001 0.46599999
16.171 2.9719999 0.43700001
16.176001 2.973 0.40799999
16.171 2.9719999 0.38
16.188 2.9749999 0.35100001
15.962 2.934 0.31799999
16.153999 2.9690001 0.29300001
16.171 2.9719999 0.26499999
16.172001 2.9719999 0.236
16.177999 2.973 0.208
16.162001 2.97 0.17900001
16.167 2.971 0.15000001
16.163 2.97 0.122
16.173 2.9719999 0.093000002
16.231001 2.9820001 0.064000003
16.177999 2.973 0.035999998
16.179001 2.973 0.0070000002
16.231001 3.017 2.974
16.222 3.0150001 2.9430001
16.208 3.013 2.911
16.204 3.0120001 2.8800001
16.179001 3.007 2.846
16.174999 3.006 2.816
16.17 3.0050001 2.7850001
16.155001 3.003 2.7539999
16.141001 3 2.7219999
16.157 3.003 2.6949999
16.159 3.003 2.6659999
16.162001 3.0039999 2.6370001
16.138 2.9990001 2.6040001
16.150999 3.0009999 2.576
16.162001 3.003 2.549
16.125 2.9960001 2.5139999
16.141001 2.9990001 2.487
16.146999 3 2.4590001
16.159 3.003 2.431
16.145 3 2.4000001
16.148001 3.0009999 2.3710001
16.15 3.0009999 2.342
16.167 3.0039999 2.3150001
16.166 3.0039999 2.286
16.167999 3.0039999 2.257
16.162001 3.003 2.227
16.148001 3 2.1960001
16.162001 3.003 2.1689999
16.157 3.0020001 2.1389999
16.159 3.0020001 2.1099999
16.162001 3.0020001 2.0810001
16.156 3.0009999 2.0510001
16.163 3.0020001 2.023
16.153999 3.0009999 1.993
16.15 3 1.9630001
16.156 3.0009999 1.9349999
16.177 3.0050001 1.909
16.166 3.003 1.878
16.158001 3.0009999 1.848
16.169001 3.003 1.8200001
16.174999 3.0039999 1.7920001
16.167999 3.003 1.762
16.173 3.0039999 1.734
16.176001 3.0039999 1.705
16.167999 3.003 1.675
16.17 3.003 1.647
16.188 3.006 1.619
16.158001 3.0009999 1.5880001
16.169001 3.003 1.5599999
16.179001 3.0039999 1.5319999
16.164 3.0020001 1.501
16.162001 3.0009999 1.472
16.186001 3.006 1.446
16.16 3.0009999 1.414
16.162001 3.0009999 1.386
16.169001 3.003 1.357
16.17 3.003 1.329
16.169001 3.003 1.3
16.169001 3.003 1.271
16.153 3 1.2410001
16.172001 3.003 1.2130001
16.174999 3.0039999 1.1849999
16.159 3.0009999 1.155
16.156 3 1.126
16.149 2.9990001 1.097
16.166 3.0020001 1.069
16.152 2.9990001 1.039
16.179001 3.0039999 1.012
16.141001 2.997 0.98100001
16.16 3 0.954
16.177999 3.0039999 0.926
16.171 3.0020001 0.89700001
16.164 3.0009999 0.86799997
16.166 3.0009999 0.83899999
16.162001 3 0.81
16.165001 3.0009999 0.78100002
16.169001 3.0020001 0.75300002
16.188999 3.0050001 0.72500002
16.181999 3.0039999 0.69599998
16.183001 3.0039999 0.667
16.153999 2.9990001 0.63700002
16.171 3.0020001 0.60900003
16.17 3.0020001 0.58099997
16.174 3.0020001 0.55199999
16.171 3.0020001 0.523
16.183001 3.0039999 0.495
16.177 3.003 0.46599999
16.164 3 0.43700001
16.169001 3.0009999 0.40799999
16.181 3.003 0.38
16.164 3 0.35100001
15.849 2.941 0.31600001
16.162001 3 0.294
16.157 2.9979999 0.26499999
16.181 3.003 0.236
16.162001 2.9990001 0.208
16.17 3.0009999 0.17900001
16.169001 3 0.15000001
16.169001 3 0.122
16.205999 3.007 0.093000002
16.177999 3.0020001 0.064000003
16.186001 3.003 0.035999998
16.177 3.0020001 0.0070000002
16.148001 3.0309999 2.9890001
16.146999 3.0309999 2.96
16.160999 3.033 2.9330001
16.143 3.03 2.9000001
16.152 3.0309999 2.872
16.163 3.033 2.8440001
16.153999 3.0320001 2.813
16.139999 3.029 2.7809999
16.163 3.033 2.756
16.157 3.0320001 2.7249999
16.160999 3.033 2.697
16.145 3.03 2.664
16.136999 3.0280001 2.6340001
16.138 3.0280001 2.605
16.15 3.03 2.5769999
16.162001 3.0320001 2.55
16.16 3.0320001 2.52
16.177 3.0350001 2.493
16.145 3.029 2.4590001
16.136999 3.0280001 2.4289999
16.155001 3.0309999 2.402
16.096001 3.0209999 2.3640001
16.134001 3.0280001 2.3410001
16.163 3.033 2.3150001
16.153999 3.0309999 2.2850001
16.176001 3.0350001 2.2590001
16.149 3.03 2.2260001
16.153 3.0309999 2.197
16.142 3.029 2.1670001
16.155001 3.0309999 2.1389999
16.162001 3.0320001 2.1110001
16.157 3.0309999 2.0810001
16.164 3.033 2.053
16.163 3.0320001 2.0239999
16.155001 3.0309999 1.994
16.157 3.0309999 1.965
16.173 3.0339999 1.938
16.173 3.0339999 1.909
16.160999 3.0320001 1.878
16.169001 3.033 1.85
16.135 3.027 1.817
16.150999 3.03 1.79
16.163 3.0320001 1.762
16.171 3.033 1.734
16.176001 3.0339999 1.706
16.184 3.036 1.678
16.166 3.0320001 1.647
16.167 3.0320001 1.618
16.153 3.03 1.5880001
16.166 3.0320001 1.5599999
16.162001 3.0309999 1.531
16.167 3.0320001 1.502
16.177 3.0339999 1.474
16.167 3.0320001 1.444
16.167 3.0320001 1.415
16.171 3.033 1.387
16.149 3.0280001 1.3559999
16.17 3.0320001 1.329
16.153999 3.029 1.299
16.17 3.0320001 1.271
16.159 3.03 1.242
16.136999 3.026 1.211
16.124001 3.023 1.182
16.103001 3.0190001 1.151
16.09 3.017 1.122
16.066999 3.013 1.091
16.030001 3.0050001 1.0599999
16.051001 3.0090001 1.033
16.042999 3.0079999 1.0039999
16.02 3.0039999 0.97399998
16.007 3.0020001 0.94499999
16.004 3.0009999 0.91600001
16.006001 3.0009999 0.88800001
15.997 3 0.85900003
16.004 3.0009999 0.83099997
16.007 3.0009999 0.80199999
16.01 3.0020001 0.77399999
16.136 3.026 0.75199997
16.160999 3.03 0.72399998
16.162001 3.03 0.69499999
16.17 3.0320001 0.667
16.165001 3.0309999 0.63800001
16.177999 3.033 0.61000001
16.166 3.0309999 0.58099997
16.181 3.033 0.55199999
16.173 3.0320001 0.523
16.176001 3.0320001 0.495
16.174 3.0320001 0.46599999
16.184 3.0339999 0.43799999
16.157 3.029 0.40799999
16.162001 3.03 0.38
16.149 3.027 0.35100001
15.798 2.961 0.315
16.173 3.0309999 0.294
16.174 3.0320001 0.26499999
16.177999 3.0320001 0.237
16.174 3.0309999 0.208
16.169001 3.0309999 0.17900001
16.191999 3.0350001 0.15099999
16.183001 3.033 0.122
16.225 3.0409999 0.093000002
16.184999 3.033 0.064000003
16.174 3.0309999 0.035999998
16.184 3.033 0.0070000002
16.148001 3.0610001 2.99
16.142 3.0599999 2.96
16.142 3.0599999 2.9300001
16.148001 3.0610001 2.902
16.138 3.059 2.8699999
16.152 3.0610001 2.8429999
16.146999 3.0599999 2.813
16.146999 3.0599999 2.783
16.153 3.0610001 2.7550001
16.146 3.0599999 2.724
16.141001 3.059 2.694
16.153999 3.0610001 2.6670001
16.167 3.0639999 2.6400001
16.155001 3.0610001 2.608
16.155001 3.0610001 2.579
16.153999 3.0610001 2.549
16.15 3.0599999 2.5190001
16.160999 3.062 2.4920001
16.16 3.062 2.4619999
16.157 3.0610001 2.4319999
16.152 3.0599999 2.402
16.115 3.053 2.368
16.115 3.053 2.3380001
16.129999 3.056 2.312
16.153999 3.0599999 2.286
16.15 3.0599999 2.256
16.171 3.0639999 2.23
16.157 3.0610001 2.1989999
16.16 3.0610001 2.1700001
16.155001 3.0599999 2.1400001
16.153 3.0599999 2.1110001
16.153 3.0599999 2.0810001
16.146999 3.059 2.0510001
16.179001 3.0650001 2.027
16.17 3.063 1.9960001
16.153999 3.0599999 1.965
16.164 3.062 1.937
16.165001 3.062 1.908
16.172001 3.063 1.88
16.166 3.062 1.85
16.169001 3.062 1.822
16.163 3.062 1.7920001
16.159 3.0610001 1.762
16.173 3.0639999 1.735
16.169001 3.063 1.706
16.172001 3.063 1.677
16.164 3.062 1.647
16.164 3.062 1.618
16.173 3.063 1.59
16.177 3.0639999 1.561
16.177 3.0639999 1.533
16.167999 3.062 1.503
16.166 3.062 1.474
16.18 3.0650001 1.446
16.184999 3.0650001 1.418
16.171 3.063 1.387
16.167 3.062 1.358
16.156 3.0599999 1.3279999
16.164 3.0610001 1.3
16.166 3.0610001 1.271
16.153999 3.059 1.242
16.125999 3.0539999 1.211
16.105 3.05 1.1799999
16.073 3.043 1.149
16.045 3.0380001 1.119
16.023001 3.0339999 1.089
16 3.03 1.059
15.972 3.0239999 1.028
15.974 3.0239999 1
15.952 3.02 0.97000003
15.929 3.016 0.94099998
15.916 3.013 0.91100001
15.888 3.0079999 0.88200003
15.88 3.006 0.85299999
15.857 3.0020001 0.82300001
15.839 2.9979999 0.79400003
15.826 2.9960001 0.76599997
15.823 2.9949999 0.73699999
15.809 2.993 0.70899999
15.806 2.9920001 0.68000001
15.802 2.9909999 0.65200001
15.793 2.9890001 0.62400001
15.775 2.9860001 0.59500003
15.761 2.983 0.56599998
15.747 2.98 0.53799999
15.73 2.977 0.509
15.727 2.977 0.48100001
15.704 2.9719999 0.45300001
15.737 2.9779999 0.426
16.177999 3.062 0.40900001
16.171 3.0610001 0.38
16.171 3.0599999 0.35100001
16.153 3.0569999 0.322
16.172001 3.0610001 0.294
16.18 3.062 0.26499999
16.169001 3.0599999 0.236
16.163 3.059 0.208
16.173 3.0599999 0.17900001
16.162001 3.0580001 0.15000001
16.187 3.063 0.122
16.195 3.0639999 0.093000002
16.225 3.0699999 0.064999998
16.183001 3.062 0.035999998
16.184 3.062 0.0070000002
16.139999 3.089 2.99
16.150999 3.0910001 2.9619999
16.150999 3.0910001 2.9330001
16.148001 3.0899999 2.9030001
16.155001 3.092 2.8740001
16.136 3.0880001 2.8410001
16.156 3.092 2.8150001
16.162001 3.0929999 2.7869999
16.153999 3.0910001 2.756
16.135 3.0880001 2.723
16.143999 3.089 2.6960001
16.15 3.0899999 2.6670001
16.157 3.092 2.6389999
16.149 3.0899999 2.608
16.121 3.085 2.5739999
16.15 3.0899999 2.549
16.158001 3.092 2.5209999
16.148001 3.0899999 2.49
16.158001 3.0910001 2.4630001
16.188 3.0969999 2.438
16.125 3.085 2.3989999
16.136 3.0869999 2.372
16.145 3.089 2.3440001
16.143999 3.089 2.3139999
16.141001 3.0880001 2.2850001
16.143999 3.089 2.256
16.166 3.0929999 2.23
16.148001 3.089 2.198
16.155001 3.0899999 2.1700001
16.155001 3.0899999 2.141
16.139 3.0880001 2.109
16.145 3.0880001 2.0810001
16.155001 3.0910001 2.053
16.149 3.0899999 2.023
16.152 3.0899999 1.995
16.169001 3.0929999 1.9680001
16.16 3.092 1.937
16.160999 3.092 1.909
16.169001 3.0929999 1.88
16.163 3.092 1.851
16.16 3.0910001 1.821
16.139999 3.0880001 1.79
16.167 3.0929999 1.7640001
16.167 3.0929999 1.735
16.158001 3.0910001 1.705
16.166 3.092 1.677
16.155001 3.0899999 1.647
16.164 3.092 1.619
16.16 3.0910001 1.589
16.153999 3.0899999 1.5599999
16.152 3.089 1.531
16.174999 3.0940001 1.5039999
16.193001 3.0969999 1.477
16.16 3.0910001 1.4450001
16.17 3.092 1.4170001
16.167999 3.092 1.388
16.158001 3.0899999 1.358
16.155001 3.089 1.329
16.167999 3.092 1.301
16.165001 3.0910001 1.272
16.143 3.0869999 1.2410001
16.125999 3.0840001 1.211
16.113001 3.0810001 1.181
16.082001 3.075 1.151
16.059 3.0710001 1.12
16.037001 3.066 1.09
16.009001 3.0610001 1.0599999
15.972 3.0539999 1.029
15.95 3.05 0.99900001
15.936 3.0469999 0.97000003
15.909 3.0420001 0.94
15.881 3.036 0.91000003
15.873 3.0350001 0.88099998
15.845 3.029 0.85100001
15.832 3.027 0.82200003
15.795 3.0190001 0.792
15.787 3.0179999 0.764
15.758 3.0120001 0.73400003
15.735 3.0079999 0.70499998
15.716 3.0039999 0.67699999
15.697 3 0.648
15.694 3 0.62
15.652 2.9909999 0.58999997
15.625 2.9860001 0.56199998
15.639 2.9890001 0.53399998
15.615 2.984 0.50599998
15.619 2.9849999 0.47799999
15.605 2.9820001 0.44999999
15.602 2.9820001 0.42199999
15.599 2.9809999 0.39399999
15.609 2.983 0.36700001
15.575 2.9760001 0.33899999
15.565 2.9749999 0.31099999
15.563 2.9749999 0.28299999
15.565 2.9749999 0.255
16.172001 3.0910001 0.237
16.174 3.0910001 0.208
16.181 3.0929999 0.17900001
16.174 3.0910001 0.15000001
16.188 3.0940001 0.122
16.18 3.092 0.093000002
16.17 3.0899999 0.064000003
16.215 3.099 0.035999998
16.174 3.0910001 0.0070000002
16.121 3.115 2.9579999
16.141001 3.119 2.9319999
16.142 3.119 2.9030001
16.150999 3.1210001 2.875
16.136 3.118 2.842
16.146999 3.1199999 2.8150001
16.142 3.119 2.7850001
16.153999 3.1210001 2.757
16.132999 3.1170001 2.724
16.157 3.122 2.6989999
16.15 3.1199999 2.668
16.16 3.122 2.6400001
16.17 3.1240001 2.612
16.121 3.115 2.575
16.149 3.1199999 2.55
16.143999 3.119 2.52
