ply
format ascii 1.0
comment PCL generated
element vertex 1859
property float x
property float y
property float z
element camera 0
property float view_px
property float view_py
property float view_pz
property float x_axisx
property float x_axisy
property float x_axisz
property float y_axisx
property float y_axisy
property float y_axisz
property float z_axisx
property float z_axisy
property float z_axisz
property float focal
property float scalex
property float scaley
property float centerx
property float centery
property int viewportx
property int viewporty
property float k1
property float k2
end_header
-12.43 5.0609999 0.308
-12.43 5.0599999 0.29499999
-12.426 5.0560002 0.28299999
-12.418 5.0479999 0.271
-12.421 5.0510001 0.25799999
-12.435 5.0640001 0.244
-12.42 5.0489998 0.233
-12.427 5.0549998 0.22
-12.43 5.0580001 0.207
-12.419 5.0479999 0.19599999
-12.414 5.0430002 0.184
-12.439 5.066 0.169
-12.428 5.0549998 0.15700001
-12.431 5.0580001 0.145
-12.427 5.0539999 0.132
-12.408 5.0359998 0.121
-12.426 5.053 0.107
-12.4 5.0279999 0.097000003
-12.411 5.0380001 0.082999997
-12.401 5.0279999 0.071000002
-12.393 5.02 0.059
-12.385 5.0120001 0.046999998
-12.378 5.0050001 0.035
-12.382 5.0089998 0.022
-12.373 5.0009999 0.0099999998
-13.224 5.881 2.9809999
-13.212 5.869 2.9760001
-13.187 5.8460002 2.9809999
-13.201 5.8590002 2.957
-13.198 5.855 2.9460001
-13.194 5.8509998 2.9360001
-13.191 5.848 2.925
-13.193 5.8499999 2.9100001
-13.193 5.8499999 2.8959999
-13.193 5.849 2.8829999
-13.19 5.8460002 2.872
-13.198 5.8530002 2.8529999
-13.201 5.8559999 2.8369999
-13.194 5.849 2.829
-13.192 5.8470001 2.8169999
-13.193 5.848 2.803
-13.2 5.855 2.7850001
-13.198 5.8520002 2.7739999
-13.191 5.8449998 2.7650001
-13.189 5.8429999 2.753
-13.189 5.8429999 2.7409999
-13.185 5.8390002 2.73
-13.188 5.842 2.7149999
-13.191 5.8449998 2.7
-13.19 5.8429999 2.687
-13.172 5.8260002 2.6860001
-13.167 5.8210001 2.677
-13.163 5.8169999 2.6659999
-13.151 5.8060002 2.661
-13.147 5.8010001 2.651
-13.138 5.7930002 2.6429999
-13.13 5.7849998 2.6359999
-13.117 5.7729998 2.631
-13.109 5.7649999 2.6229999
-13.098 5.7550001 2.6170001
-13.097 5.7529998 2.605
-13.083 5.7399998 2.5999999
-13.072 5.7290001 2.595
-13.07 5.7270002 2.5829999
-13.088 5.744 2.559
-12.397 5.0469999 0.34799999
-12.394 5.0440001 0.336
-12.404 5.053 0.322
-12.404 5.052 0.30899999
-12.403 5.052 0.29699999
-12.403 5.0510001 0.28400001
-12.409 5.0570002 0.271
-12.402 5.0500002 0.259
-12.405 5.053 0.24600001
-12.397 5.0440001 0.234
-12.407 5.0539999 0.221
-12.4 5.046 0.20900001
-12.413 5.0599999 0.19499999
-12.417 5.0619998 0.182
-12.409 5.0549998 0.171
-12.405 5.0510001 0.15800001
-12.401 5.0469999 0.146
-12.404 5.0500002 0.133
-12.4 5.0450001 0.121
-12.396 5.0409999 0.109
-12.399 5.0440001 0.096000001
-12.39 5.0349998 0.083999999
-12.383 5.0289998 0.071999997
-12.371 5.0170002 0.059999999
-12.37 5.0149999 0.046999998
-12.369 5.0139999 0.035
-12.372 5.0170002 0.022
-12.365 5.0100002 0.0099999998
-13.198 5.8709998 2.994
-13.178 5.8520002 2.9960001
-13.206 5.8779998 2.9619999
-13.191 5.8639998 2.9590001
-13.197 5.869 2.941
-13.191 5.8629999 2.9319999
-13.201 5.8730001 2.911
-13.195 5.8660002 2.9030001
-13.198 5.869 2.8870001
-13.193 5.8639998 2.8770001
-13.186 5.8569999 2.869
-13.198 5.868 2.848
-13.187 5.8579998 2.842
-13.187 5.8579998 2.8280001
-13.197 5.8670001 2.8080001
-13.2 5.869 2.793
-13.182 5.8520002 2.793
-13.189 5.8579998 2.7750001
-13.194 5.8629999 2.7579999
-13.19 5.8579998 2.7479999
-13.183 5.8520002 2.7390001
-13.186 5.8540001 2.7249999
-13.178 5.8470001 2.717
-13.176 5.8449998 2.7049999
-13.171 5.8400002 2.6949999
-13.179 5.8470001 2.677
-13.166 5.835 2.6730001
-13.156 5.8249998 2.6659999
-13.142 5.8119998 2.6619999
-13.133 5.803 2.655
-13.119 5.79 2.651
-13.108 5.7789998 2.645
-13.105 5.776 2.6340001
-13.099 5.7709999 2.625
-13.085 5.757 2.6210001
-13.077 5.75 2.612
-13.078 5.75 2.599
-13.064 5.737 2.5940001
-13.082 5.7540002 2.5699999
-12.386 5.0539999 0.32300001
-12.383 5.0500002 0.31
-12.394 5.0609999 0.29699999
-12.379 5.0469999 0.28600001
-12.387 5.053 0.27200001
-12.393 5.059 0.259
-12.381 5.0479999 0.248
-12.377 5.0430002 0.235
-12.38 5.046 0.222
-12.383 5.0489998 0.20999999
-12.379 5.0450001 0.197
-12.379 5.0440001 0.185
-12.382 5.0469999 0.17200001
-12.378 5.0430002 0.16
-12.378 5.0419998 0.147
-12.37 5.0349998 0.13500001
-12.38 5.0440001 0.122
-12.376 5.04 0.109
-12.37 5.0339999 0.097000003
-12.377 5.04 0.083999999
-12.376 5.039 0.071999997
-12.361 5.0250001 0.059999999
-12.358 5.0219998 0.046999998
-12.361 5.0240002 0.035
-12.353 5.0170002 0.022
-12.339 5.0029998 0.011
-13.199 5.8860002 2.9879999
-13.199 5.8860002 2.9749999
-13.205 5.8909998 2.957
-13.197 5.8839998 2.9489999
-13.194 5.881 2.938
-13.197 5.8829999 2.9230001
-13.202 5.888 2.9059999
-13.194 5.8800001 2.898
-13.18 5.8670001 2.895
-13.188 5.8740001 2.8759999
-13.194 5.8790002 2.859
-13.194 5.8790002 2.845
-13.19 5.8759999 2.8340001
-13.19 5.875 2.8210001
-13.193 5.8779998 2.806
-13.191 5.8759999 2.7939999
-13.182 5.8670001 2.7869999
-13.183 5.8670001 2.7739999
-13.18 5.8639998 2.7620001
-13.177 5.8610001 2.7509999
-13.178 5.862 2.7379999
-13.187 5.8699999 2.7190001
-13.178 5.8610001 2.7119999
-13.167 5.8509998 2.7060001
-13.162 5.8460002 2.6960001
-13.165 5.849 2.681
-13.163 5.8470001 2.6689999
-13.136 5.8210001 2.674
-13.128 5.8130002 2.6670001
-13.122 5.8080001 2.6570001
-13.102 5.789 2.6570001
-13.1 5.7870002 2.645
-13.084 5.7719998 2.6429999
-13.085 5.7719998 2.6289999
-13.075 5.763 2.622
-13.063 5.7519999 2.6159999
-12.36 5.046 0.29899999
-12.359 5.0450001 0.287
-12.359 5.0450001 0.27399999
-12.362 5.0469999 0.26100001
-12.358 5.0430002 0.249
-12.354 5.039 0.237
-12.357 5.0419998 0.22400001
-12.357 5.0409999 0.211
-12.356 5.04 0.198
-12.363 5.0469999 0.185
-12.359 5.0430002 0.17299999
-12.358 5.0419998 0.16
-12.361 5.0450001 0.147
-12.35 5.0339999 0.13600001
-12.355 5.0380001 0.123
-12.353 5.0359998 0.11
-12.345 5.0289998 0.097999997
-12.352 5.0349998 0.085000001
-12.36 5.0419998 0.071999997
-12.355 5.0370002 0.059999999
-12.355 5.0370002 0.046999998
-12.355 5.0359998 0.034000002
-12.348 5.0300002 0.022
-12.338 5.02 0.0099999998
-13.203 5.9039998 2.994
-13.196 5.8979998 2.9849999
-13.182 5.8850002 2.9820001
-13.192 5.8940001 2.961
-13.187 5.8889999 2.9519999
-13.19 5.8909998 2.9360001
-13.195 5.8959999 2.9189999
-13.195 5.895 2.9059999
-13.187 5.888 2.898
-13.195 5.8959999 2.878
-13.185 5.8860002 2.8729999
-13.186 5.8870001 2.858
-13.191 5.8909998 2.8410001
-13.195 5.8940001 2.826
-13.188 5.8870001 2.8180001
-13.191 5.8899999 2.802
-13.193 5.8920002 2.7880001
-13.177 5.8769999 2.786
-13.184 5.8829999 2.767
-13.186 5.8850002 2.753
-13.168 5.868 2.7520001
-13.187 5.8850002 2.727
-13.177 5.8759999 2.72
-13.163 5.8629999 2.7160001
-13.16 5.8590002 2.7049999
-13.15 5.8499999 2.6989999
-13.143 5.8429999 2.691
-13.127 5.8280001 2.688
-13.112 5.8140001 2.6849999
-13.117 5.8189998 2.668
-13.104 5.8070002 2.664
-13.102 5.8039999 2.652
-13.091 5.7930002 2.6459999
-13.071 5.7750001 2.6459999
-13.073 5.777 2.631
-13.041 5.7459998 2.6389999
-12.34 5.0450001 0.27500001
-12.333 5.0380001 0.26300001
-12.342 5.046 0.249
-12.337 5.0409999 0.237
-12.337 5.04 0.22400001
-12.34 5.0440001 0.211
-12.34 5.0430002 0.199
-12.339 5.0419998 0.186
-12.331 5.0339999 0.17399999
-12.334 5.0370002 0.161
-12.327 5.0289998 0.149
-12.338 5.04 0.13600001
-12.322 5.0250001 0.124
-12.333 5.0339999 0.111
-12.325 5.027 0.098999999
-12.321 5.0229998 0.086000003
-12.324 5.026 0.072999999
-12.336 5.0359998 0.059999999
-12.336 5.0359998 0.046999998
-12.322 5.0229998 0.035
-12.321 5.0219998 0.023
-12.314 5.0149999 0.011
-13.192 5.9089999 2.9820001
-13.194 5.9099998 2.9679999
-13.184 5.901 2.961
-13.186 5.9029999 2.9460001
-13.199 5.914 2.924
-13.191 5.9070001 2.9159999
-13.193 5.9089999 2.901
-13.19 5.9050002 2.8900001
-13.193 5.908 2.875
-13.189 5.9039998 2.8640001
-13.187 5.902 2.8529999
-13.187 5.902 2.839
-13.186 5.901 2.8269999
-13.186 5.9000001 2.8139999
-13.179 5.8930001 2.806
-13.177 5.8909998 2.7939999
-13.184 5.8969998 2.776
-13.186 5.8990002 2.7609999
-13.179 5.8920002 2.753
-13.187 5.9000001 2.734
-13.171 5.8850002 2.7320001
-13.156 5.8709998 2.7290001
-13.149 5.8639998 2.721
-13.149 5.8639998 2.7079999
-13.141 5.8569999 2.7
-13.126 5.8429999 2.697
-13.107 5.8249998 2.6960001
-13.114 5.8309999 2.678
-13.092 5.8099999 2.6800001
-13.089 5.8070002 2.6689999
-13.076 5.7950001 2.664
-13.074 5.7930002 2.652
-13.051 5.7719998 2.6530001
-12.312 5.0349998 0.23899999
-12.309 5.0320001 0.226
-12.306 5.0289998 0.214
-12.309 5.0320001 0.20100001
-12.319 5.0409999 0.18700001
-12.308 5.0300002 0.175
-12.308 5.0300002 0.163
-12.304 5.026 0.15000001
-12.311 5.0320001 0.13699999
-12.307 5.0279999 0.125
-12.31 5.0310001 0.112
-12.299 5.02 0.1
-12.303 5.0240002 0.086999997
-12.302 5.0219998 0.074000001
-12.312 5.0310001 0.061000001
-12.297 5.0180001 0.048999999
-12.298 5.0180001 0.035999998
-12.308 5.027 0.023
-12.301 5.0209999 0.011
-13.209 5.9390001 2.9909999
-13.19 5.921 2.9790001
-13.189 5.9200001 2.9660001
-13.192 5.9229999 2.95
-13.189 5.9200001 2.9389999
-13.188 5.9190001 2.9260001
-13.175 5.9070001 2.9219999
-13.187 5.9169998 2.901
-13.186 5.9159999 2.888
-13.193 5.9219999 2.8699999
-13.189 5.9180002 2.859
-13.176 5.9070001 2.855
-13.187 5.9169998 2.8340001
-13.173 5.9029999 2.8310001
-13.178 5.908 2.8139999
-13.194 5.9219999 2.79
-13.176 5.9050002 2.789
-13.186 5.914 2.7690001
-13.178 5.9070001 2.7609999
-13.159 5.8889999 2.7609999
-13.171 5.9000001 2.74
-13.168 5.8969998 2.7290001
-13.148 5.8779998 2.7290001
-13.144 5.8740001 2.7190001
-13.13 5.8610001 2.7149999
-13.109 5.842 2.7160001
-13.113 5.8449998 2.7
-13.111 5.8429999 2.688
-13.107 5.8390002 2.678
-13.085 5.8179998 2.6800001
-13.066 5.8010001 2.6789999
-13.071 5.8049998 2.6619999
-13.041 5.777 2.668
-12.278 5.02 0.215
-12.286 5.0279999 0.20200001
-12.285 5.027 0.189
-12.289 5.0300002 0.176
-12.288 5.0289998 0.163
-12.288 5.0279999 0.15099999
-12.295 5.0349998 0.13699999
-12.291 5.0310001 0.125
-12.283 5.0229998 0.113
-12.29 5.0289998 0.1
-12.29 5.0289998 0.086999997
-12.282 5.0219998 0.075000003
-12.282 5.0209999 0.061999999
-12.289 5.027 0.048999999
-12.288 5.027 0.035999998
-12.274 5.013 0.024
-12.281 5.0190001 0.011
-13.182 5.9289999 2.9920001
-13.19 5.9359999 2.973
-13.188 5.934 2.961
-13.176 5.9229999 2.9560001
-13.189 5.934 2.934
-13.184 5.9299998 2.924
-13.184 5.9289999 2.9100001
-13.183 5.928 2.898
-13.181 5.9260001 2.8859999
-13.191 5.934 2.8659999
-13.187 5.9310002 2.855
-13.179 5.9229999 2.848
-13.186 5.9289999 2.8299999
-13.176 5.921 2.823
-13.185 5.928 2.8039999
-13.175 5.9180002 2.7980001
-13.174 5.9180002 2.7850001
-13.166 5.9099998 2.7780001
-13.161 5.9050002 2.7679999
-13.155 5.8990002 2.7590001
-13.153 5.8969998 2.7479999
-13.142 5.8870001 2.7420001
-13.134 5.8800001 2.734
-13.143 5.888 2.7149999
-13.114 5.8600001 2.721
-13.109 5.8559999 2.711
-13.095 5.8429999 2.707
-13.08 5.829 2.704
-13.082 5.8299999 2.6900001
-13.069 5.8179998 2.6849999
-13.054 5.8049998 2.681
-12.264 5.0250001 0.19
-12.259 5.0190001 0.178
-12.265 5.0250001 0.164
-12.268 5.027 0.15099999
-12.268 5.027 0.139
-12.268 5.026 0.126
-12.264 5.0219998 0.113
-12.267 5.0250001 0.1
-12.248 5.007 0.089000002
-12.266 5.0240002 0.075000003
-12.262 5.02 0.061999999
-12.27 5.027 0.048999999
-12.258 5.0149999 0.037
-12.269 5.0250001 0.024
-12.258 5.0149999 0.012
-13.184 5.9450002 2.9849999
-13.187 5.948 2.97
-13.184 5.9439998 2.9590001
-13.171 5.9320002 2.9549999
-13.182 5.9419999 2.934
-13.181 5.941 2.921
-13.189 5.948 2.902
-13.18 5.9390001 2.895
-13.181 5.9400001 2.881
-13.182 5.9400001 2.8670001
-13.184 5.9419999 2.8529999
-13.187 5.9450002 2.8369999
-13.183 5.941 2.8269999
-13.174 5.9320002 2.8199999
-13.18 5.9380002 2.803
-13.155 5.915 2.8069999
-13.164 5.9229999 2.7869999
-13.161 5.9200001 2.776
-13.146 5.9050002 2.7739999
-13.158 5.9159999 2.7520001
-13.141 5.9000001 2.7509999
-13.123 5.8839998 2.7490001
-13.121 5.882 2.7379999
-13.117 5.8779998 2.727
-13.106 5.868 2.721
-13.082 5.8460002 2.724
-13.078 5.842 2.714
-13.072 5.836 2.704
-13.077 5.8400002 2.688
-13.034 5.8010001 2.7030001
-12.238 5.0159998 0.153
-12.237 5.0159998 0.14
-12.241 5.0190001 0.127
-12.244 5.0209999 0.114
-12.236 5.0139999 0.102
-12.251 5.027 0.088
-12.243 5.02 0.075999998
-12.246 5.0229998 0.063000001
-12.235 5.0120001 0.050000001
-12.242 5.0180001 0.037
-12.235 5.0120001 0.025
-12.245 5.0209999 0.012
-13.188 5.9629998 2.99
-13.179 5.954 2.984
-13.172 5.948 2.9749999
-13.176 5.9510002 2.9590001
-13.19 5.9640002 2.9349999
-13.182 5.9559999 2.928
-13.184 5.9569998 2.914
-13.178 5.9520001 2.904
-13.184 5.9569998 2.8870001
-13.182 5.9549999 2.875
-13.177 5.9499998 2.8659999
-13.169 5.9429998 2.858
-13.188 5.96 2.8310001
-13.175 5.948 2.8269999
-13.175 5.947 2.8139999
-13.153 5.927 2.816
-13.168 5.941 2.793
-13.162 5.9349999 2.7839999
-13.155 5.928 2.776
-13.134 5.9099998 2.776
-13.132 5.9070001 2.7650001
-13.127 5.9029999 2.7550001
-13.103 5.8800001 2.7579999
-13.111 5.888 2.7390001
-13.088 5.8660002 2.7420001
-13.085 5.8629999 2.73
-13.072 5.8509998 2.7260001
-13.063 5.8429999 2.7179999
-13.057 5.8369999 2.7090001
-13.008 5.7919998 2.7279999
-12.219 5.0159998 0.12800001
-12.217 5.0139999 0.115
-12.22 5.0170002 0.102
-12.223 5.0190001 0.089000002
-12.212 5.0089998 0.077
-12.223 5.0180001 0.063000001
-12.223 5.0180001 0.050999999
-12.233 5.0279999 0.037
-12.211 5.007 0.026000001
-12.214 5.0100002 0.013
-13.184 5.973 2.9879999
-13.172 5.9629998 2.983
-13.201 5.9879999 2.9489999
-13.19 5.9780002 2.944
-13.177 5.9660001 2.9400001
-13.178 5.967 2.925
-13.181 5.9689999 2.9100001
-13.18 5.9689999 2.8970001
-13.171 5.9590001 2.891
-13.178 5.9660001 2.872
-13.176 5.9640002 2.8610001
-13.171 5.9590001 2.8510001
-13.169 5.9569998 2.839
-13.163 5.9520001 2.8299999
-13.164 5.9520001 2.816
-13.157 5.9450002 2.8080001
-13.153 5.9419999 2.7980001
-13.139 5.928 2.7939999
-13.132 5.9219999 2.786
-13.118 5.9089999 2.7820001
-13.117 5.908 2.7690001
-13.1 5.8920002 2.7679999
-13.095 5.8870001 2.7579999
-13.084 5.8769999 2.7520001
-13.072 5.8660002 2.747
-13.075 5.868 2.7320001
-13.07 5.8639998 2.7219999
-13.042 5.8379998 2.727
-12.183 5 0.104
-12.194 5.0100002 0.090000004
-12.192 5.0079999 0.077
-12.196 5.0110002 0.064000003
-12.199 5.0139999 0.050999999
-12.199 5.013 0.037999999
-12.188 5.0029998 0.026000001
-12.195 5.0089998 0.013
-13.187 5.9910002 2.994
-13.175 5.98 2.9890001
-13.181 5.9850001 2.9719999
-13.185 5.9879999 2.9549999
-13.175 5.9790001 2.9489999
-13.18 5.9829998 2.9319999
-13.178 5.9809999 2.921
-13.175 5.9780002 2.9100001
-13.178 5.98 2.8940001
-13.173 5.9759998 2.8840001
-13.179 5.9809999 2.8670001
-13.169 5.9720001 2.8599999
-13.171 5.974 2.846
-13.167 5.9689999 2.836
-13.163 5.9650002 2.825
-13.166 5.9679999 2.8099999
-13.143 5.947 2.813
-13.139 5.9439998 2.802
-13.13 5.934 2.796
-13.117 5.9229999 2.7909999
-13.117 5.9229999 2.7780001
-13.103 5.9099998 2.7739999
-13.086 5.895 2.7720001
-13.087 5.8940001 2.7590001
-13.066 5.8759999 2.7590001
-13.065 5.875 2.747
-13.047 5.8579998 2.7449999
-13.024 5.8369999 2.7479999
-12.17 5.0050001 0.064999998
-12.158 4.994 0.052999999
-12.164 4.9990001 0.039999999
-12.168 5.0019999 0.027000001
-12.171 5.0050001 0.013
-13.183 6.0009999 2.9920001
-13.176 5.9949999 2.983
-13.189 6.006 2.961
-13.173 5.9920001 2.9590001
-13.178 5.9949999 2.9419999
-13.176 5.993 2.9300001
-13.175 5.993 2.9170001
-13.179 5.9959998 2.901
-13.173 5.9910002 2.892
-13.173 5.9899998 2.8789999
-13.171 5.9879999 2.8670001
-13.162 5.98 2.8599999
-13.156 5.974 2.852
-13.154 5.9720001 2.8399999
-13.155 5.973 2.826
-13.145 5.9640002 2.819
-13.138 5.9569998 2.8110001
-13.138 5.9559999 2.7980001
-13.12 5.9400001 2.7969999
-13.103 5.9250002 2.7950001
-13.08 5.9029999 2.7980001
-13.084 5.9070001 2.7820001
-13.074 5.8979998 2.776
-13.063 5.8870001 2.77
-13.071 5.895 2.7509999
-13.027 5.855 2.767
-12.154 5.0079999 0.039999999
-12.148 5.0009999 0.014
-13.179 6.0120001 2.9890001
-13.174 6.007 2.9790001
-13.171 6.0040002 2.9679999
-13.186 6.0170002 2.944
-13.175 6.007 2.9389999
-13.165 5.9980001 2.9330001
-13.172 6.0040002 2.914
-13.19 6.02 2.888
-13.172 6.0029998 2.888
-13.169 6 2.8770001
-13.156 5.9879999 2.8729999
-13.153 5.9850001 2.862
-13.141 5.974 2.8570001
-13.147 5.9790001 2.8399999
-13.14 5.973 2.8310001
-13.132 5.9660001 2.823
-13.116 5.9510002 2.8210001
-13.111 5.947 2.8110001
-13.093 5.9299998 2.8099999
-13.085 5.9229999 2.803
-13.08 5.9180002 2.793
-13.073 5.9109998 2.7850001
-13.065 5.9039998 2.777
-13.051 5.8909998 2.773
-12.994 5.8400002 2.7969999
-13.184 6.0310001 2.98
-13.175 6.0219998 2.974
-13.17 6.0180001 2.964
-13.17 6.0170002 2.95
-13.173 6.02 2.9349999
-13.171 6.0170002 2.924
-13.171 6.0170002 2.9100001
-13.172 6.0180001 2.8959999
-13.16 6.007 2.891
-13.159 6.006 2.8789999
-13.145 5.993 2.875
-13.151 5.9980001 2.858
-13.135 5.9840002 2.8559999
-13.134 5.9829998 2.8429999
-13.125 5.974 2.836
-13.107 5.9580002 2.835
-13.108 5.9580002 2.822
-13.093 5.9450002 2.8180001
-13.083 5.9359999 2.812
-13.075 5.928 2.8039999
-13.06 5.915 2.8010001
-13.06 5.915 2.7880001
-13.037 5.8940001 2.79
-13.168 6.0300002 2.987
-13.17 6.0320001 2.9719999
-13.171 6.0320001 2.9579999
-13.179 6.04 2.938
-13.166 6.027 2.9349999
-13.162 6.0229998 2.925
-13.157 6.0190001 2.914
-13.159 6.0209999 2.9000001
-13.155 6.0159998 2.8900001
-13.151 6.013 2.8789999
-13.14 6.0029998 2.8740001
-13.133 5.9959998 2.865
-13.125 5.9889998 2.858
-13.118 5.9829998 2.849
-13.105 5.9710002 2.845
-13.102 5.9679999 2.8340001
-13.085 5.9530001 2.832
-13.073 5.9419999 2.8269999
-13.078 5.9450002 2.8110001
-13.056 5.9260001 2.812
-13.052 5.9219999 2.802
-13.011 5.8860002 2.816
-13.175 6.0510001 2.99
-13.164 6.0409999 2.984
-13.169 6.0450001 2.9679999
-13.174 6.0489998 2.951
-13.179 6.053 2.934
-13.162 6.0380001 2.9330001
-13.164 6.04 2.918
-13.162 6.0370002 2.9059999
-13.146 6.0229998 2.904
-13.15 6.027 2.888
-13.134 6.0120001 2.8859999
-13.125 6.0040002 2.8789999
-13.123 6.0019999 2.8670001
-13.109 5.9889998 2.8640001
-13.105 5.9860001 2.8529999
-13.102 5.9819999 2.842
-13.069 5.9530001 2.852
-13.077 5.96 2.832
-13.075 5.9580002 2.8210001
-13.055 5.9400001 2.8210001
-13.047 5.9330001 2.813
-13.169 6.059 2.9890001
-13.168 6.0580001 2.9760001
-13.175 6.0650001 2.957
-13.162 6.052 2.954
-13.153 6.0450001 2.947
-13.164 6.0539999 2.9260001
-13.155 6.046 2.9189999
-13.145 6.0370002 2.9130001
-13.154 6.0440001 2.8929999
-13.129 6.0219998 2.898
-13.121 6.0149999 2.8900001
-13.113 6.0079999 2.882
-13.101 5.9959998 2.878
-13.105 6 2.862
-13.082 5.9790001 2.8640001
-13.079 5.9770002 2.852
-13.073 5.9710002 2.8440001
-13.053 5.9530001 2.8440001
-13.052 5.9510002 2.832
-13.004 5.9089999 2.8499999
-13.172 6.0770001 2.9949999
-13.173 6.0770001 2.98
-13.163 6.0679998 2.974
-13.163 6.0679998 2.961
-13.166 6.0700002 2.9460001
-13.147 6.053 2.9460001
-13.161 6.0650001 2.9230001
-13.145 6.0510001 2.921
-13.141 6.0469999 2.911
-13.12 6.0279999 2.9119999
-13.114 6.0219998 2.9030001
-13.1 6.0100002 2.9000001
-13.109 6.0180001 2.8800001
-13.092 6.0019999 2.8789999
-13.066 5.9790001 2.8840001
-13.074 5.987 2.8640001
-13.056 5.9699998 2.8640001
-13.053 5.967 2.852
-13.037 5.9530001 2.8499999
-13.161 6.0799999 2.984
-13.158 6.0770001 2.973
-13.153 6.073 2.9630001
-13.158 6.0760002 2.947
-13.137 6.0580001 2.948
-13.147 6.0669999 2.928
-13.132 6.053 2.925
-13.125 6.0469999 2.9170001
-13.117 6.039 2.9100001
-13.092 6.0180001 2.914
-13.094 6.0190001 2.8989999
-13.086 6.0120001 2.891
-13.072 5.9990001 2.888
-13.067 5.994 2.878
-13.055 5.9840002 2.872
-13.054 5.9829998 2.8599999
-13.002 5.9369998 2.882
-13.165 6.0970001 2.9760001
-13.154 6.0869999 2.971
-13.14 6.0749998 2.9679999
-13.141 6.0760002 2.9530001
-13.136 6.0710001 2.944
-13.129 6.0650001 2.9349999
-13.118 6.0549998 2.9300001
-13.106 6.0440001 2.925
-13.097 6.0359998 2.918
-13.102 6.04 2.902
-13.079 6.02 2.904
-13.074 6.0159998 2.8940001
-13.056 5.9990001 2.8940001
-13.049 5.993 2.885
-13.033 5.9790001 2.882
-13.153 6.1009998 2.993
-13.148 6.0960002 2.983
-13.15 6.0970001 2.9690001
-13.138 6.0869999 2.964
-13.131 6.0799999 2.9560001
-13.12 6.0710001 2.95
-13.113 6.0650001 2.9419999
-13.104 6.0560002 2.9349999
-13.098 6.0510001 2.9260001
-13.071 6.027 2.9319999
-13.076 6.0310001 2.915
-13.065 6.0209999 2.9089999
-13.054 6.0120001 2.9030001
-13.059 6.0159998 2.8859999
-13.018 5.98 2.901
-13.143 6.1059999 2.9949999
-13.139 6.1020002 2.9849999
-13.137 6.0999999 2.973
-13.127 6.0910001 2.967
-13.116 6.0819998 2.961
-13.101 6.0679998 2.9590001
-13.098 6.0650001 2.948
-13.085 6.0539999 2.944
-13.081 6.0500002 2.9330001
-13.074 6.0440001 2.925
-13.064 6.0349998 2.918
-13.052 6.0240002 2.9130001
-13.048 6.02 2.9030001
-13 5.9790001 2.9219999
-13.123 6.1020002 2.9779999
-13.112 6.092 2.973
-13.099 6.0799999 2.9690001
-13.091 6.0739999 2.961
-13.092 6.0739999 2.947
-13.076 6.0599999 2.9449999
-13.067 6.052 2.938
-13.047 6.0339999 2.938
-13.052 6.039 2.921
-13.032 6.0209999 2.9219999
-13.104 6.099 2.987
-13.092 6.0890002 2.9820001
-13.088 6.085 2.971
-13.073 6.072 2.9690001
-13.065 6.0650001 2.961
-13.062 6.0609999 2.95
-13.043 6.0450001 2.9489999
-13.051 6.052 2.9300001
-13.002 6.0089998 2.9519999
-13.09 6.1009998 2.9920001
-13.075 6.0869999 2.9890001
-13.078 6.0900002 2.973
-13.072 6.0840001 2.9649999
-13.06 6.0739999 2.9590001
-13.041 6.0580001 2.9590001
-13.03 6.0479999 2.9530001
-13.065 6.0929999 2.9909999
-13.055 6.085 2.984
-13.04 6.0710001 2.9820001
-13.06 6.0879998 2.954
-13.011 6.0469999 2.9749999
-13.051 6.0960002 2.9960001
-13.046 6.0910001 2.9860001
-13.031 6.0780001 2.983
-13.001 6.052 2.977
-13.122 6.1069999 2.994
-13.07 6.086 2.984
-13.12 6.0819998 2.967
-13.182 6.0760002 2.9530001
-13.025 6.0650001 2.9749999
-13.074 6.0599999 2.9579999
-13.123 6.0560002 2.9419999
-13.143 6.0539999 2.9189999
-13.021 6.039 2.9749999
-13.037 6.0380001 2.951
-13.072 6.0349998 2.9319999
-13.111 6.0310001 2.9130001
-13.142 6.0279999 2.8929999
-13.018 6.0139999 2.9749999
-13.024 6.0139999 2.9489999
-13.035 6.013 2.925
-13.085 6.0079999 2.908
-13.119 6.0050001 2.8889999
-13.137 6.0029998 2.8659999
-13.018 5.9889998 2.9749999
-13.021 5.9879999 2.9489999
-13.011 5.9889998 2.9200001
-13.033 5.987 2.8989999
-13.048 5.9860001 2.875
-13.107 5.98 2.8599999
-13.146 5.9770002 2.8410001
-13.03 5.961 2.9779999
-13.021 5.9619999 2.95
-12.995 5.9650002 2.918
-13.033 5.961 2.8989999
-13.015 5.9629998 2.869
-13.061 5.9580002 2.8510001
-13.119 5.9530001 2.8369999
-13.134 5.9510002 2.813
-13.037 5.9349999 2.98
-13.013 5.9369998 2.9489999
-13.018 5.9369998 2.9230001
-13.031 5.9359999 2.8989999
-13.021 5.9369998 2.8710001
-13.041 5.9349999 2.848
-13.068 5.9320002 2.8269999
-13.102 5.9289999 2.8069999
-13.126 5.9260001 2.7850001
-13.045 5.9089999 2.9820001
-13.04 5.9089999 2.9549999
-13.026 5.9109998 2.925
-13.021 5.9109998 2.898
-13.03 5.9099998 2.8729999
-13.011 5.9120002 2.8429999
-13.025 5.9109998 2.819
-13.055 5.908 2.7980001
-13.105 5.9029999 2.7820001
-13.134 5.9000001 2.7609999
-13.201 5.8930001 2.747
-13.037 5.8829999 2.9809999
-13.028 5.8839998 2.9530001
-13.023 5.8850002 2.925
-13.014 5.8860002 2.8970001
-13.004 5.8860002 2.868
-13.029 5.8839998 2.8469999
-13.027 5.8839998 2.8199999
-13.028 5.8839998 2.7939999
-13.068 5.8800001 2.7750001
-13.088 5.8779998 2.7520001
-13.127 5.8740001 2.733
-13.149 5.8720002 2.711
-13.044 5.8559999 2.983
-13.035 5.8569999 2.9549999
-13.03 5.8579998 2.927
-13.02 5.8590002 2.8989999
-13.036 5.8569999 2.875
-13.031 5.8579998 2.848
-13.021 5.8590002 2.819
-13.038 5.8569999 2.796
-13.04 5.8569999 2.77
-13.044 5.8559999 2.744
-13.1 5.8499999 2.7290001
-13.153 5.8449998 2.7119999
-13.205 5.8400002 2.6949999
-13.042 5.8299999 2.957
-13.032 5.8309999 2.928
-13.023 5.8319998 2.9000001
-13.028 5.8319998 2.8740001
-13.043 5.8299999 2.8510001
-13.023 5.8319998 2.8210001
-13.033 5.8309999 2.796
-13.028 5.8309999 2.7690001
-13.042 5.8299999 2.7449999
-13.057 5.8280001 2.721
-13.082 5.8260002 2.6989999
-13.141 5.8200002 2.684
-13.162 5.8169999 2.661
-13.049 5.8039999 2.9330001
-13.04 5.8049998 2.904
-13.04 5.8049998 2.8770001
-13.026 5.8060002 2.848
-13.04 5.8049998 2.8239999
-13.026 5.8060002 2.7950001
-13.04 5.8049998 2.7709999
-13.036 5.8049998 2.744
-13.038 5.8049998 2.7179999
-13.044 5.8039999 2.6930001
-13.094 5.7989998 2.6760001
-13.123 5.796 2.654
-13.14 5.7940001 2.631
-13.072 5.776 2.938
-13.062 5.777 2.9089999
-13.042 5.7800002 2.8789999
-13.038 5.7800002 2.8510001
-13.038 5.7800002 2.825
-13.033 5.7800002 2.7969999
-13.022 5.7820001 2.7690001
-13.032 5.7800002 2.744
-13.051 5.7779999 2.721
-13.049 5.7789998 2.694
-13.052 5.7779999 2.668
-13.091 5.7740002 2.6489999
-13.13 5.77 2.6300001
-13.151 5.7670002 2.6070001
-13.053 5.7529998 2.881
-13.039 5.7540002 2.852
-13.059 5.7519999 2.829
-13.045 5.7540002 2.8
-13.029 5.7550001 2.77
-13.055 5.7519999 2.7490001
-13.035 5.7540002 2.7190001
-13.02 5.756 2.6889999
-13.044 5.7529998 2.6670001
-13.062 5.7509999 2.6440001
-13.078 5.75 2.6210001
-13.112 5.7459998 2.6010001
-13.173 5.7389998 2.585
-13.071 5.7249999 2.859
-13.052 5.7270002 2.829
-13.042 5.7280002 2.8
-13.042 5.7280002 2.7739999
-13.047 5.7280002 2.7479999
-13.047 5.7280002 2.721
-13.032 5.7290001 2.6919999
-13.031 5.7290001 2.6659999
-13.045 5.7280002 2.642
-13.054 5.7270002 2.6170001
-13.075 5.724 2.5940001
-13.124 5.7189999 2.5769999
-13.175 5.7129998 2.559
-13.072 5.6989999 2.8329999
-13.059 5.7010002 2.8039999
-13.044 5.7020001 2.7750001
-13.054 5.7010002 2.75
-13.057 5.7010002 2.724
-13.059 5.6999998 2.698
-13.044 5.7020001 2.6689999
-13.032 5.7030001 2.6400001
-13.065 5.6999998 2.6199999
-13.057 5.7010002 2.592
-13.067 5.6989999 2.5669999
-13.121 5.6929998 2.55
-13.145 5.691 2.5280001
-13.159 5.6890001 2.5039999
-13.064 5.6739998 2.806
-13.051 5.6760001 2.777
-13.041 5.677 2.7479999
-13.051 5.6760001 2.723
-13.046 5.6760001 2.6960001
-13.046 5.6760001 2.6700001
-13.044 5.6760001 2.6429999
-13.058 5.6750002 2.619
-13.032 5.678 2.5880001
-13.039 5.677 2.563
-13.068 5.6739998 2.5409999
-13.122 5.6669998 2.5250001
-13.171 5.6620002 2.506
-13.174 5.6609998 2.48
-13.083 5.6459999 2.783
-13.072 5.6479998 2.7550001
-13.043 5.651 2.723
-13.047 5.6500001 2.697
-13.057 5.6490002 2.6719999
-13.048 5.6500001 2.6440001
-13.042 5.651 2.6170001
-13.035 5.652 2.589
-13.065 5.6479998 2.5680001
-13.065 5.6479998 2.5409999
-13.056 5.6490002 2.513
-13.114 5.6420002 2.497
-13.162 5.6370001 2.4790001
-13.173 5.6350002 2.454
-13.081 5.6209998 2.757
-13.074 5.6220002 2.7290001
-13.06 5.6240001 2.7
-13.04 5.6259999 2.6700001
-13.059 5.6240001 2.6470001
-13.043 5.6259999 2.6170001
-13.049 5.625 2.592
-13.071 5.6220002 2.5699999
-13.056 5.6240001 2.5409999
-13.062 5.6230001 2.5150001
-13.082 5.6209998 2.4920001
-13.096 5.619 2.4679999
-13.159 5.6110001 2.4530001
-13.167 5.6100001 2.427
-13.071 5.5970001 2.7290001
-13.071 5.5970001 2.7030001
-13.056 5.598 2.6730001
-13.066 5.5970001 2.6489999
-13.056 5.598 2.6199999
-13.056 5.598 2.5940001
-13.054 5.598 2.5669999
-13.054 5.598 2.5409999
-13.05 5.598 2.5139999
-13.058 5.5970001 2.4890001
-13.067 5.5960002 2.464
-13.102 5.592 2.4430001
-13.16 5.585 2.427
-13.182 5.5819998 2.404
-13.064 5.5710001 2.7019999
-13.058 5.572 2.674
-13.077 5.5689998 2.652
-13.055 5.572 2.6210001
-13.057 5.572 2.595
-13.057 5.572 2.5680001
-13.062 5.5710001 2.543
-13.061 5.5710001 2.516
-13.07 5.5700002 2.4909999
-13.064 5.5710001 2.464
-13.082 5.5689998 2.441
-13.098 5.5669999 2.4170001
-13.137 5.5619998 2.3970001
-13.188 5.5560002 2.3789999
-13.076 5.5440001 2.6789999
-13.084 5.5430002 2.6530001
-13.059 5.546 2.622
-13.059 5.546 2.596
-13.057 5.546 2.569
-13.054 5.546 2.5420001
-13.058 5.5450001 2.516
-13.071 5.5440001 2.4920001
-13.052 5.546 2.4630001
-13.055 5.546 2.437
-13.06 5.5450001 2.411
-13.124 5.5370002 2.395
-13.148 5.5339999 2.3729999
-13.185 5.5289998 2.3529999
-13.086 5.5159998 2.628
-13.071 5.5180001 2.599
-13.055 5.52 2.569
-13.055 5.52 2.543
-13.081 5.5170002 2.5209999
-13.053 5.52 2.49
-13.063 5.5190001 2.4649999
-13.058 5.5190001 2.438
-13.065 5.5180001 2.4130001
-13.061 5.5190001 2.3859999
-13.095 5.5149999 2.365
-13.123 5.5110002 2.3429999
-13.087 5.4899998 2.602
-13.077 5.4910002 2.5739999
-13.062 5.493 2.5450001
-13.076 5.4910002 2.5209999
-13.056 5.494 2.4909999
-13.059 5.493 2.4649999
-13.07 5.4920001 2.4400001
-13.064 5.493 2.4130001
-13.066 5.4920001 2.3870001
-13.077 5.4910002 2.362
-13.101 5.4879999 2.3399999
-13.212 5.474 2.279
-13.078 5.4660001 2.575
-13.088 5.4650002 2.55
-13.058 5.4679999 2.5179999
-13.067 5.467 2.494
-13.057 5.4679999 2.4649999
-13.071 5.4660001 2.441
-13.066 5.467 2.414
-13.065 5.467 2.388
-13.077 5.4650002 2.3629999
-13.064 5.467 2.335
-13.103 5.4619999 2.2880001
-13.174 5.4530001 2.273
-13.185 5.4510002 2.2479999
-13.094 5.4380002 2.552
-13.074 5.441 2.5220001
-13.059 5.4419999 2.493
-13.082 5.4390001 2.47
-13.063 5.4419999 2.441
-13.077 5.4400001 2.4170001
-13.067 5.441 2.388
-13.076 5.4400001 2.3640001
-13.06 5.4419999 2.335
-13.078 5.4390001 2.2850001
-13.107 5.4349999 2.263
-13.175 5.4260001 2.247
-13.201 5.4229999 2.2249999
-14.052 5.3080001 0.035999998
-14.055 5.3080001 0.0080000004
-13.097 5.4109998 2.527
-13.085 5.4130001 2.4979999
-13.075 5.414 2.47
-13.099 5.4109998 2.447
-13.084 5.4130001 2.418
-13.088 5.4120002 2.3929999
-13.082 5.4130001 2.365
-13.075 5.414 2.2850001
-13.074 5.414 2.2590001
-13.107 5.4089999 2.237
-13.156 5.4029999 2.2190001
-13.207 5.3959999 2.2
-13.931 5.296 0.199
-13.957 5.2930002 0.17200001
-13.966 5.2919998 0.145
-13.997 5.2880001 0.118
-13.983 5.289 0.090000004
-13.999 5.2870002 0.063000001
-13.998 5.2870002 0.035999998
-14.015 5.2849998 0.0080000004
-13.116 5.3829999 2.5039999
-13.091 5.3860002 2.473
-13.091 5.3860002 2.447
-13.075 5.388 2.418
-13.07 5.3889999 2.3900001
-13.084 5.3870001 2.3659999
-13.067 5.3889999 2.2839999
-13.081 5.3870001 2.26
-13.093 5.3850002 2.2360001
-13.113 5.3829999 2.2130001
-13.156 5.3769999 2.1930001
-13.217 5.368 2.1760001
-13.214 5.369 2.1489999
-13.805 5.2849998 0.33199999
-13.839 5.2810001 0.30500001
-13.859 5.2779999 0.27900001
-13.87 5.277 0.252
-13.864 5.277 0.22499999
-13.879 5.2750001 0.198
-13.906 5.2719998 0.171
-13.882 5.2750001 0.14399999
-13.891 5.2740002 0.117
-13.902 5.2719998 0.090000004
-13.908 5.2709999 0.063000001
-13.918 5.27 0.035
-13.903 5.2719998 0.0080000004
-13.143 5.3530002 2.483
-13.097 5.3590002 2.448
-13.082 5.3610001 2.4189999
-13.091 5.3600001 2.3940001
-13.085 5.3610001 2.3670001
-13.083 5.3610001 2.2880001
-13.077 5.362 2.26
-13.069 5.3629999 2.233
-13.084 5.3600001 2.2090001
-13.108 5.3559999 2.1860001
-13.147 5.3520002 2.1659999
-13.197 5.3439999 2.1470001
-13.202 5.3439999 2.1210001
-13.667 5.2779999 0.46200001
-13.728 5.27 0.43700001
-13.74 5.2680001 0.41100001
-13.761 5.2649999 0.38499999
-13.786 5.2620001 0.35800001
-13.792 5.2600002 0.33199999
-13.792 5.2600002 0.30500001
-13.788 5.2600002 0.278
-13.749 5.2659998 0.25
-13.759 5.2639999 0.223
-13.807 5.2579999 0.197
-13.833 5.2540002 0.17
-13.81 5.257 0.14300001
-13.808 5.2579999 0.116
-13.815 5.257 0.089000002
-13.83 5.2550001 0.061999999
-13.84 5.2529998 0.035
-13.855 5.2509999 0.0080000004
-13.141 5.3270001 2.483
-13.139 5.3270001 2.4560001
-13.088 5.3340001 2.421
-13.092 5.3340001 2.395
-13.096 5.3330002 2.3699999
-13.089 5.3340001 2.289
-13.083 5.335 2.2620001
-13.078 5.335 2.2349999
-13.084 5.3340001 2.2090001
-13.085 5.3340001 2.1830001
-13.099 5.3319998 2.1589999
-13.137 5.3270001 2.138
-13.208 5.3169999 2.122
-13.194 5.3189998 2.0940001
-13.547 5.2670002 0.61799997
-13.612 5.2579999 0.59399998
-13.615 5.2579999 0.56800002
-13.651 5.2529998 0.542
-13.665 5.25 0.51599997
-13.679 5.2490001 0.49000001
-13.675 5.2490001 0.463
-13.676 5.2490001 0.43599999
-13.685 5.2480001 0.41
-13.688 5.2470002 0.38299999
-13.692 5.2470002 0.35600001
-13.694 5.2459998 0.329
-13.695 5.2459998 0.303
-13.705 5.2449999 0.27599999
-13.701 5.2449999 0.249
-13.731 5.2410002 0.223
-13.726 5.2420001 0.19599999
-13.727 5.2420001 0.169
-13.747 5.2389998 0.142
-13.782 5.2340002 0.116
-13.787 5.2329998 0.089000002
-13.826 5.2280002 0.061999999
-13.856 5.224 0.035
-13.856 5.224 0.0080000004
-13.195 5.2930002 2.493
-13.107 5.3049998 2.4519999
-13.096 5.3070002 2.4230001
-13.108 5.3049998 2.3989999
-13.103 5.3060002 2.3710001
-13.09 5.3070002 2.29
-13.09 5.3070002 2.2639999
-13.079 5.309 2.2360001
-13.088 5.3070002 2.211
-13.072 5.3099999 2.1819999
-13.09 5.3070002 2.158
-13.094 5.3060002 2.1329999
-13.127 5.302 2.1110001
-13.198 5.2919998 2.095
-13.22 5.289 2.072
-13.483 5.2490001 0.74800003
-13.499 5.2470002 0.722
-13.537 5.2420001 0.69800001
-13.548 5.2399998 0.67199999
-13.559 5.2379999 0.64499998
-13.576 5.2360001 0.62
-13.574 5.2360001 0.59299999
-13.599 5.2329998 0.56699997
-13.576 5.2360001 0.54000002
-13.587 5.2350001 0.51300001
-13.587 5.2340002 0.48699999
-13.592 5.2340002 0.46000001
-13.594 5.2329998 0.43399999
-13.605 5.2319999 0.40700001
-13.606 5.2319999 0.38100001
-13.598 5.2329998 0.354
-13.607 5.2309999 0.32699999
-13.632 5.2280002 0.301
-13.649 5.2249999 0.27500001
-13.648 5.2249999 0.248
-13.678 5.2210002 0.222
-13.708 5.217 0.19599999
-13.738 5.2129998 0.169
-13.757 5.21 0.14300001
-13.783 5.2059999 0.116
-13.809 5.2030001 0.089000002
-13.822 5.2010002 0.061999999
-13.857 5.1960001 0.035
-13.862 5.1950002 0.0080000004
-13.227 5.2620001 2.526
-13.173 5.27 2.49
-13.101 5.2800002 2.451
-13.079 5.283 2.421
-13.121 5.277 2.402
-13.114 5.2779999 2.3740001
-13.102 5.2800002 2.293
-13.086 5.2820001 2.2639999
-13.085 5.2820001 2.237
-13.094 5.2810001 2.2119999
-13.103 5.2789998 2.187
-13.092 5.2810001 2.1589999
-13.076 5.283 2.1300001
-13.104 5.2789998 2.108
-13.118 5.277 2.0840001
-13.17 5.27 2.0650001
-13.221 5.2620001 2.046
-13.384 5.237 0.90100002
-13.397 5.2350001 0.875
-13.419 5.2319999 0.85000002
-13.435 5.2290001 0.82499999
-13.447 5.2280002 0.79900002
-13.458 5.2259998 0.773
-13.464 5.2249999 0.74699998
-13.446 5.2280002 0.72000003
-13.457 5.2259998 0.69400001
-13.473 5.224 0.66799998
-13.479 5.223 0.64200002
-13.481 5.223 0.616
-13.49 5.2210002 0.58899999
-13.497 5.2199998 0.56300002
-13.487 5.2220001 0.53600001
-13.504 5.2189999 0.51099998
-13.492 5.2210002 0.484
-13.509 5.2179999 0.458
-13.526 5.2160001 0.43200001
-13.542 5.2140002 0.40599999
-13.567 5.21 0.38
-13.588 5.2069998 0.354
-13.618 5.2030001 0.32800001
-13.634 5.2010002 0.301
-13.663 5.1960001 0.27500001
-13.673 5.1950002 0.249
-13.704 5.191 0.223
-13.719 5.1880002 0.19599999
-13.749 5.184 0.17
-13.764 5.1820002 0.14300001
-13.784 5.1789999 0.116
-13.795 5.178 0.089000002
-13.818 5.1739998 0.061999999
-13.867 5.1669998 0.035999998
-13.877 5.1659999 0.0089999996
-13.143 5.2480001 2.4860001
-13.115 5.2519999 2.454
-13.12 5.2509999 2.4289999
-13.096 5.2550001 2.398
-13.125 5.2509999 2.3759999
-13.098 5.2540002 2.293
-13.092 5.2550001 2.2650001
-13.091 5.2550001 2.2390001
-13.09 5.2550001 2.2119999
-13.094 5.2540002 2.1860001
-13.093 5.2550001 2.1600001
-13.092 5.2540002 2.1340001
-13.086 5.2550001 2.1059999
-13.099 5.2529998 2.082
-13.132 5.2480001 2.0599999
-13.202 5.2379999 2.0439999
-13.218 5.2360001 2.02
-13.216 5.2360001 1.993
-13.22 5.2350001 1.967
-13.215 5.2360001 1.9400001
-13.238 5.2329998 1.9170001
-13.21 5.237 1.886
-13.215 5.2360001 1.8609999
-13.229 5.2340002 1.836
-13.244 5.2319999 1.812
-13.217 5.2360001 1.7819999
-13.21 5.237 1.755
-13.222 5.2350001 1.73
-13.218 5.2350001 1.7029999
-13.215 5.2360001 1.676
-13.265 5.2290001 1.656
-13.224 5.2340002 1.625
-13.295 5.223 1.001
-13.315 5.2199998 0.97600001
-13.343 5.2160001 0.95099998
-13.349 5.2150002 0.92500001
-13.367 5.2129998 0.89999998
-13.359 5.2140002 0.87400001
-13.361 5.2140002 0.847
-13.387 5.21 0.82200003
-13.373 5.211 0.79500002
-13.374 5.211 0.76899999
-13.401 5.2069998 0.74400002
-13.383 5.21 0.71700001
-13.389 5.2090001 0.69099998
-13.377 5.21 0.66399997
-13.401 5.2069998 0.639
-13.408 5.2059999 0.61299998
-13.419 5.204 0.58700001
-13.454 5.1989999 0.56199998
-13.465 5.197 0.53600001
-13.481 5.1950002 0.50999999
-13.496 5.1929998 0.484
-13.502 5.1919999 0.458
-13.532 5.1880002 0.43200001
-13.548 5.1849999 0.40599999
-13.583 5.1799998 0.38
-13.604 5.177 0.354
-13.634 5.1729999 0.32800001
-13.649 5.171 0.30199999
-13.663 5.1690001 0.27599999
-13.68 5.1659999 0.249
-13.708 5.1620002 0.223
-13.745 5.1570001 0.197
-13.74 5.158 0.17
-13.785 5.151 0.14300001
-13.81 5.1469998 0.116
-13.813 5.1469998 0.089000002
-13.834 5.1440001 0.063000001
-13.864 5.1399999 0.035999998
-13.889 5.1360002 0.0089999996
-13.052 5.2350001 2.444
-13.048 5.2350001 2.4170001
-13.057 5.2340002 2.392
-13.079 5.23 2.369
-13.073 5.2309999 2.289
-13.089 5.2290001 2.266
-13.096 5.2280002 2.24
-13.099 5.2270002 2.214
-13.092 5.2280002 2.187
-13.105 5.2259998 2.1619999
-13.111 5.2249999 2.1370001
-13.097 5.2270002 2.109
-13.115 5.2249999 2.085
-13.116 5.2249999 2.059
-13.112 5.2249999 2.0320001
-13.123 5.223 2.007
-13.128 5.223 1.9809999
-13.132 5.2220001 1.956
-13.134 5.2220001 1.9299999
-13.141 5.2210002 1.904
-13.144 5.2199998 1.878
-13.157 5.2179999 1.854
-13.141 5.2210002 1.825
-13.155 5.2179999 1.801
-13.16 5.2179999 1.775
-13.161 5.217 1.749
-13.174 5.2160001 1.725
-13.187 5.2140002 1.7
-13.176 5.2150002 1.6720001
-13.196 5.2119999 1.648
-13.204 5.211 1.623
-13.201 5.211 1.596
-13.199 5.2119999 1.5700001
-13.215 5.2090001 1.545
-13.227 5.2080002 1.52
-13.226 5.2069998 1.494
-13.23 5.2059999 1.4680001
-13.225 5.2069998 1.441
-13.247 5.204 1.4170001
-13.227 5.2069998 1.3890001
-13.223 5.2069998 1.362
-13.245 5.204 1.3380001
-13.222 5.2069998 1.3099999
-13.227 5.2069998 1.284
-13.209 5.2090001 1.256
-13.223 5.2069998 1.2309999
-13.186 5.2119999 1.202
-13.182 5.2129998 1.176
-13.18 5.2129998 1.149
-13.209 5.2090001 1.126
-13.233 5.2049999 1.101
-13.233 5.2049999 1.075
-13.251 5.2030001 1.05
-13.194 5.211 1.02
-13.265 5.2010002 0.99900001
-13.262 5.2010002 0.97299999
-13.269 5.1999998 0.94700003
-13.26 5.2010002 0.92000002
-13.267 5.1999998 0.89399999
-13.273 5.1989999 0.86799997
-13.263 5.2010002 0.84200001
-13.282 5.198 0.81699997
-13.285 5.197 0.79100001
-13.277 5.198 0.764
-13.306 5.1939998 0.73900002
-13.32 5.1919999 0.71399999
-13.341 5.1890001 0.68900001
-13.372 5.1849999 0.66399997
-13.378 5.184 0.63800001
-13.404 5.1799998 0.61299998
-13.42 5.177 0.58700001
-13.431 5.1760001 0.56099999
-13.466 5.171 0.53600001
-13.491 5.1669998 0.51099998
-13.502 5.165 0.484
-13.523 5.1620002 0.45899999
-13.547 5.1589999 0.433
-13.564 5.1560001 0.40700001
-13.599 5.151 0.38100001
-13.618 5.1479998 0.35499999
-13.632 5.1459999 0.329
-13.644 5.1440001 0.30199999
-13.675 5.1399999 0.27599999
-13.704 5.1360002 0.25
-13.725 5.1329999 0.223
-13.741 5.1300001 0.197
-13.746 5.1290002 0.17
-13.778 5.125 0.14300001
-13.796 5.1220002 0.116
-13.82 5.119 0.090000004
-13.835 5.1160002 0.063000001
-13.88 5.1100001 0.035999998
-13.9 5.1069999 0.0089999996
-12.897 5.2319999 2.971
-12.987 5.2179999 2.4070001
-13.001 5.2160001 2.3840001
-12.99 5.2179999 2.355
-12.998 5.2160001 2.2780001
-12.982 5.2189999 2.2490001
-12.991 5.217 2.224
-13.009 5.2140002 2.201
-12.998 5.2160001 2.1730001
-13.002 5.2150002 2.148
-13.011 5.2140002 2.1229999
-13.024 5.2119999 2.098
-13.022 5.2119999 2.072
-13.021 5.2119999 2.046
-13.028 5.211 2.02
-13.037 5.21 1.9960001
-13.043 5.2090001 1.97
-13.036 5.21 1.943
-13.037 5.21 1.9170001
-13.035 5.21 1.891
-13.04 5.2090001 1.865
-13.056 5.2069998 1.841
-13.047 5.2080002 1.814
-13.07 5.2049999 1.791
-13.066 5.2049999 1.7640001
-13.066 5.2049999 1.738
-13.074 5.204 1.7130001
-13.073 5.204 1.687
-13.074 5.204 1.661
-13.073 5.204 1.635
-13.079 5.2030001 1.609
-13.085 5.2020001 1.584
-13.091 5.2010002 1.558
-13.102 5.1999998 1.534
-13.113 5.198 1.5089999
-13.101 5.1999998 1.4809999
-13.102 5.1989999 1.455
-13.131 5.1950002 1.432
-13.115 5.197 1.405
-13.119 5.197 1.3789999
-13.124 5.1960001 1.353
-13.135 5.1950002 1.3279999
-13.139 5.1939998 1.303
-13.147 5.1929998 1.277
-13.142 5.1929998 1.251
-13.155 5.191 1.226
-13.14 5.1929998 1.198
-13.148 5.1919999 1.173
-13.146 5.1919999 1.147
-13.153 5.191 1.1210001
-13.154 5.191 1.095
-13.156 5.1900001 1.0700001
-13.159 5.1900001 1.044
-13.166 5.1890001 1.018
-13.172 5.1880002 0.99299997
-13.177 5.1869998 0.96700001
-13.173 5.1880002 0.94099998
-13.175 5.1869998 0.91500002
-13.204 5.1830001 0.89099997
-13.235 5.178 0.866
-13.222 5.1799998 0.83999997
-13.243 5.177 0.815
-13.26 5.1750002 0.79000002
-13.276 5.1719999 0.764
-13.292 5.1700001 0.73900002
-13.311 5.1669998 0.71399999
-13.322 5.165 0.68800002
-13.358 5.1599998 0.66399997
-13.379 5.1570001 0.63800001
-13.39 5.1550002 0.61199999
-13.416 5.151 0.58700001
-13.442 5.1479998 0.56199998
-13.453 5.1459999 0.53600001
-13.469 5.1440001 0.50999999
-13.508 5.138 0.48500001
-13.528 5.1350002 0.45899999
-13.554 5.131 0.433
-13.57 5.1279998 0.40700001
-13.586 5.1259999 0.38100001
-13.616 5.1220002 0.35499999
-13.645 5.1170001 0.329
-13.661 5.1149998 0.303
-13.671 5.1129999 0.27599999
-13.706 5.1079998 0.25
-13.712 5.1069999 0.223
-13.742 5.1030002 0.197
-13.77 5.099 0.17
-13.796 5.0949998 0.14399999
-13.816 5.092 0.117
-13.855 5.086 0.090000004
-13.833 5.0890002 0.063000001
-12.981 5.1919999 1.988
-12.988 5.191 1.937
-12.991 5.191 1.886
-12.965 5.1950002 1.8559999
-12.978 5.1929998 1.832
-12.978 5.1919999 1.728
-12.987 5.191 1.7029999
-13.002 5.1890001 1.679
-12.994 5.1900001 1.652
-13.007 5.1880002 1.628
-13.011 5.1869998 1.602
-13.012 5.1869998 1.576
-13.008 5.1880002 1.55
-13.027 5.1849999 1.526
-13.027 5.1849999 1.5
-13.03 5.184 1.474
-13.028 5.1849999 1.448
-13.04 5.1830001 1.424
-13.04 5.1830001 1.398
-13.046 5.1820002 1.372
-13.062 5.1789999 1.348
-13.041 5.1820002 1.3200001
-13.062 5.1789999 1.296
-13.056 5.1799998 1.2690001
-13.062 5.1789999 1.244
-13.071 5.178 1.219
-13.062 5.1789999 1.192
-13.064 5.1789999 1.1670001
-13.047 5.1810002 1.1390001
-13.055 5.1799998 1.114
-13.071 5.178 1.089
-13.073 5.177 1.064
-13.038 5.1820002 1.035
-13.02 5.1849999 1.008
-13.048 5.1810002 0.98400003
-13.058 5.1789999 0.95899999
-13.065 5.178 0.93400002
-13.111 5.171 0.91100001
-13.146 5.165 0.88700002
-13.132 5.1669998 0.86000001
-13.142 5.1659999 0.83499998
-13.139 5.1659999 0.80900002
-13.162 5.1630001 0.78399998
-13.173 5.1609998 0.759
-13.168 5.1620002 0.73299998
-13.181 5.1599998 0.70700002
-13.177 5.1599998 0.68099999
-13.177 5.1599998 0.65499997
-13.185 5.1589999 0.63
-13.196 5.158 0.60399997
-13.192 5.158 0.57800001
-13.203 5.1560001 0.55199999
-13.214 5.1550002 0.52700001
-13.2 5.1570001 0.5
-13.216 5.1539998 0.47499999
-13.221 5.1529999 0.449
-13.227 5.1529999 0.42300001
-13.208 5.1550002 0.396
-13.229 5.152 0.37099999
-13.219 5.1539998 0.345
-13.245 5.1500001 0.31900001
-13.245 5.1500001 0.29300001
-13.256 5.1479998 0.26699999
-13.245 5.1500001 0.241
-13.257 5.1479998 0.215
-13.238 5.151 0.189
-13.211 5.1550002 0.163
-13.207 5.1550002 0.13699999
-13.213 5.1539998 0.111
-13.203 5.1560001 0.085000001
-13.208 5.1550002 0.059
-13.217 5.1529999 0.033
-13.198 5.1560001 0.0070000002
-13.133 5.1399999 0.34299999
-13.133 5.1399999 0.317
-13.154 5.1370001 0.266
-13.145 5.138 0.23899999
-13.14 5.1389999 0.213
-13.155 5.1370001 0.18799999
-13.153 5.1370001 0.162
-13.158 5.1360002 0.13600001
-13.187 5.132 0.085000001
-13.175 5.1339998 0.057999998
-13.195 5.1300001 0.033
-13.175 5.1329999 0.0070000002
-12.611 4.9159999 0.58200002
-12.565 4.9239998 0.55500001
-12.532 4.9299998 0.528
-12.514 4.9330001 0.50300002
-12.498 4.9349999 0.477
-12.466 4.941 0.45100001
-12.452 4.9429998 0.426
-12.448 4.9429998 0.40099999
-12.411 4.9499998 0.375
-12.389 4.9530001 0.34999999
-12.369 4.9569998 0.32499999
-12.352 4.96 0.30000001
-12.316 4.9660001 0.27399999
-12.316 4.9660001 0.25
-12.302 4.9679999 0.22499999
-12.258 4.9749999 0.2
-12.523 4.9060001 0.50300002
-12.494 4.9109998 0.477
-12.48 4.9130001 0.45199999
-12.474 4.914 0.42699999
-12.429 4.9219999 0.40099999
-12.417 4.9239998 0.37599999
-12.398 4.927 0.34999999
-12.364 4.9330001 0.32499999
-12.337 4.9380002 0.30000001
-12.328 4.9390001 0.27500001
-12.316 4.941 0.25
-12.298 4.9439998 0.22499999
-12.269 4.9489999 0.2
-13.3 4.75 2.6900001
-12.48 4.8870001 0.428
-12.438 4.895 0.40099999
-12.407 4.9000001 0.37599999
-12.398 4.902 0.35100001
-12.362 4.908 0.32499999
-12.351 4.9099998 0.30000001
-12.329 4.914 0.27500001
-13.307 4.7220001 2.7190001
-12.404 4.8759999 0.35100001
-12.384 4.8800001 0.32600001
-13.298 4.697 2.7460001
-13.27 4.7020001 2.7130001
-13.255 4.678 2.7379999
-12.193 4.8629999 0.102
-12.186 4.8639998 0.078000002
-12.167 4.868 0.052999999
-12.149 4.8709998 0.028999999
-12.221 4.8330002 0.103
-12.179 4.8410001 0.078000002
-12.16 4.8439999 0.054000001
-12.159 4.8439999 0.028999999
-12.149 4.822 0.028999999
-13.277 4.2719998 2.977
-13.266 4.2470002 2.9760001
-13.321 4.2350001 2.96
-13.131 6.0929999 2.954
-13.028 6.033 2.948
-13.172 6.026 2.8959999
-13.035 5.9679999 2.95
-13.049 5.9660001 2.8889999
-13.149 5.961 2.8329999
-13.052 5.9029999 2.954
-13.037 5.902 2.8900001
-13.055 5.9000001 2.8280001
-13.131 5.8959999 2.7709999
-13.049 5.8410001 2.9549999
-13.035 5.8400002 2.891
-13.04 5.8379998 2.829
-13.043 5.8369999 2.766
-13.118 5.8319998 2.7090001
-13.076 5.777 2.8959999
-13.047 5.777 2.8310001
-13.056 5.7750001 2.7690001
-13.049 5.7740002 2.7060001
-13.11 5.77 2.6470001
-13.074 5.7129998 2.835
-13.044 5.7129998 2.77
-13.047 5.711 2.707
-13.065 5.7090001 2.6459999
-13.065 5.7069998 2.5829999
-13.197 5.6999998 2.529
-13.089 5.6479998 2.7750001
-13.049 5.6479998 2.7090001
-13.08 5.6459999 2.6489999
-13.087 5.6440001 2.586
-13.067 5.6430001 2.5220001
-13.201 5.6360002 2.4679999
-13.092 5.5840001 2.714
-13.062 5.5840001 2.6489999
-13.056 5.5819998 2.586
-13.069 5.5799999 2.5239999
-13.073 5.579 2.4619999
-13.197 5.5710001 2.4070001
-13.363 5.3239999 2.9949999
-13.18 5.2709999 2.9820001
-13.145 5.2709999 2.9159999
-13.101 5.2719998 2.8499999
-13.153 5.2680001 2.7909999
-13.247 5.257 2.5450001
-13.176 5.2589998 2.477
-13.111 5.2610002 2.4100001
-13.12 5.2589998 2.348
-13.119 5.2579999 2.2850001
-13.123 5.256 2.2219999
-13.096 5.2550001 2.158
-13.115 5.2540002 2.096
-13.235 5.244 2.04
-13.252 5.2420001 1.978
-13.211 5.2220001 1.0319999
-13.344 5.2129998 0.97299999
-13.386 5.2090001 0.91000003
-13.368 5.2090001 0.847
-13.389 5.2059999 0.78399998
-13.405 5.204 0.72100002
-13.401 5.2030001 0.65799999
-13.422 5.1999998 0.59500003
-13.487 5.1950002 0.53299999
-13.518 5.1919999 0.47
-13.582 5.1859999 0.40700001
-13.629 5.1820002 0.34400001
-13.671 5.178 0.28099999
-13.737 5.1729999 0.21699999
-12.943 5.2179999 2.902
-12.988 5.2140002 2.8429999
-13.002 5.2119999 2.7809999
-13.016 5.21 2.72
-13.01 5.2059999 2.5309999
-12.997 5.2049999 2.467
-13.011 5.2030001 2.4059999
-12.997 5.2020001 2.342
-12.991 5.2010002 2.279
-12.979 5.1999998 2.2160001
-12.993 5.198 2.154
-13.006 5.1960001 2.092
-12.994 5.1950002 2.029
-12.964 5.1950002 1.965
-12.986 5.1929998 1.903
-13.034 5.1729999 1.155
-13.059 5.1700001 1.0930001
-13.029 5.1700001 1.029
-13.025 5.1690001 0.96700001
-13.035 5.1669998 0.90399998
-13.107 5.1609998 0.84299999
-13.133 5.158 0.78100002
-13.139 5.1560001 0.71899998
-13.15 5.1539998 0.65600002
-13.165 5.152 0.59399998
-13.161 5.151 0.53100002
-13.192 5.1469998 0.46799999
-12.989 5.152 2.845
-13.019 5.1479998 2.7850001
-13.026 5.1459999 2.7219999
-13.023 5.145 2.6589999
-13.014 5.1399999 2.408
-13.018 5.138 2.345
-13.007 5.1370001 2.2820001
-13.029 5.1350002 2.22
-12.989 5.1360002 2.155
-13.015 5.1329999 2.0940001
-13.028 5.1300001 2.0320001
-13.007 5.1300001 1.969
-13.005 5.1290002 1.906
-13.004 5.1279998 1.8430001
-13.013 5.1100001 1.0930001
-12.94 5.1129999 1.029
-12.894 5.1139998 0.96499997
-12.847 5.1160002 0.90200001
-12.795 5.1170001 0.83899999
-12.772 5.1170001 0.77600002
-12.788 5.1149998 0.71399999
-13.005 5.0890002 0.21799999
-12.994 5.0879998 0.156
-12.998 5.086 0.093000002
-12.984 5.086 0.030999999
-13.04 5.0840001 2.7880001
-13.042 5.0830002 2.7249999
-13.019 5.0830002 2.661
-13.046 5.0799999 2.5999999
-13.019 5.0770001 2.4100001
-13.033 5.0749998 2.348
-13.027 5.0739999 2.2850001
-13.029 5.072 2.2219999
-13.019 5.0710001 2.1589999
-13.016 5.0700002 2.096
