ply
format ascii 1.0
comment PCL generated
element vertex 709
property float x
property float y
property float z
element camera 1
property float view_px
property float view_py
property float view_pz
property float x_axisx
property float x_axisy
property float x_axisz
property float y_axisx
property float y_axisy
property float y_axisz
property float z_axisx
property float z_axisy
property float z_axisz
property float focal
property float scalex
property float scaley
property float centerx
property float centery
property int viewportx
property int viewporty
property float k1
property float k2
end_header
-19.611 5.9990001 0.041999999
-19.533598 5.9955339 0.050000004
-19.495716 5.9944286 0.059000004
-18.838963 5.976193 0.054354839
-19.732218 6.032486 0.049729735
-19.650082 6.0174451 0.04997224
-19.548512 6.0134263 0.045999993
-19.48937 6.0505695 0.051792305
-18.934002 6.0193329 0.069166668
-18.879873 6.0348749 0.035875004
-18.723379 6.0606208 0.064757593
-19.506334 6.1554437 0.064444445
-19.483271 6.1545835 0.049053691
-18.923658 6.1340814 0.071822599
-18.849962 6.1186686 0.051514424
-18.752382 6.113431 0.051431593
-18.681999 6.1101632 0.032530613
-20.521902 6.2912002 0.0297
-20.443733 6.2750835 0.050583325
-20.358355 6.2793169 0.056947369
-20.290501 6.2922506 0.092500001
-19.726328 6.2541194 0.049955223
-19.648891 6.2535906 0.049779676
-19.54623 6.2389183 0.048479598
-19.485907 6.2095842 0.055292305
-20.518501 6.3059998 0.052000001
-20.416 6.3990002 0.043000001
-20.330446 6.3559418 0.042167738
-20.286089 6.3642387 0.08113043
-20.524721 6.4507957 0.032037031
-20.45195 6.4349608 0.049126443
-20.362223 6.4135599 0.050850384
-20.274 6.4000001 0.090000004
-19.530167 5.9963336 0.14166665
-19.4925 5.99575 0.15025
-18.926912 5.9890609 0.15896969
-18.846434 5.977541 0.15210845
-19.73209 6.0332732 0.15009092
-19.65094 6.0189848 0.15100001
-19.550735 6.0148959 0.14979103
-19.48942 6.0492978 0.15012397
-19.196999 6.0317497 0.167
-19.021252 6.0403752 0.171875
-18.96096 6.0147085 0.14591667
-18.827728 6.0266366 0.18027274
-18.764797 6.0487185 0.14691454
-19.50275 6.1482496 0.16824999
-19.482435 6.1534657 0.14943704
-19.015566 6.1517396 0.18104348
-18.947088 6.1382194 0.15204953
-18.848669 6.1274457 0.15115188
-18.771025 6.1217871 0.13962992
-20.43339 6.2794442 0.13866667
-20.34716 6.262321 0.14604838
-20.249929 6.2730713 0.15970585
-19.727039 6.2547355 0.1511111
-19.650276 6.2546158 0.1496857
-19.547977 6.2396531 0.14982419
-19.483973 6.2160573 0.15154286
-20.492001 6.3060002 0.112
-20.31926 6.3878894 0.13044445
-20.248863 6.3612857 0.15173601
-20.187714 6.3605714 0.19342858
-20.507 6.4439998 0.102
-20.433876 6.4343548 0.13811462
-20.354424 6.4184465 0.15028304
-20.279716 6.4065003 0.1524643
-19.530499 5.9975004 0.2175
-19.491001 5.9984999 0.235
-19.000999 5.993 0.26899999
-18.940945 5.9910927 0.24707411
-18.86487 5.984983 0.24131665
-19.726547 6.0362854 0.25364283
-19.649651 6.0221424 0.24877778
-19.547266 6.0189738 0.25531647
-19.490835 6.048945 0.24752717
-19.106001 6.052 0.289
-19.040817 6.022819 0.25818181
-18.969465 6.0054293 0.25367856
-18.845495 6.0487499 0.24840011
-19.504166 6.1461668 0.25599998
-19.48333 6.1522317 0.24793282
-19.110374 6.1726251 0.291875
-19.044188 6.1539822 0.25513664
-18.950773 6.1439977 0.24953619
-18.858068 6.1358738 0.24316382
-18.787001 6.1100001 0.214
-20.402 6.289 0.23100001
-20.337999 6.256083 0.24108331
-20.239897 6.242662 0.2388923
-20.169468 6.2642503 0.26086366
-19.726576 6.2593088 0.25112677
-19.650572 6.2548308 0.24854974
-19.549097 6.2435846 0.24921428
-19.48308 6.2195005 0.24908695
-20.412001 6.3959999 0.23199999
-20.309624 6.3947496 0.25437498
-20.23979 6.3833671 0.24651408
-20.161282 6.3513627 0.25716674
-20.098 6.3649998 0.29300001
-20.410603 6.4222002 0.20780002
-20.34152 6.4166765 0.24427941
-20.270407 6.4057741 0.24706124
-19.511 5.9976668 0.32433334
-19.481001 5.9949999 0.37
-19.009501 5.9975004 0.329
-18.954971 5.9929714 0.33541173
-19.730972 6.0404243 0.34851515
-19.651703 6.0240479 0.35163933
-19.544561 6.0155749 0.35556248
-19.492273 6.0522432 0.34914964
-19.130194 6.0391293 0.3630968
-19.051085 6.0157838 0.35090536
-18.941406 6.038693 0.35654709
-18.891239 6.0563807 0.30899999
-19.508801 6.1318002 0.361
-19.486185 6.149157 0.34805468
-19.13455 6.1727548 0.35733894
-19.050272 6.1607022 0.34951326
-18.950918 6.1483965 0.34808409
-18.889248 6.1363745 0.31487501
-20.323002 6.2613335 0.31066668
-20.246164 6.2337503 0.33990905
-20.14048 6.243422 0.34065387
-20.075354 6.2653584 0.37297019
-19.726412 6.2638674 0.34968004
-19.650682 6.2568736 0.34892577
-19.547298 6.2439823 0.35009143
-19.484055 6.2156672 0.35007414
-19.173 6.204 0.39700001
-20.316668 6.3933334 0.32333335
-20.236568 6.3895097 0.34475958
-20.146032 6.3657937 0.34518528
-20.075048 6.3419051 0.36095288
-20.307402 6.4168005 0.31619999
-20.26162 6.4087739 0.34816983
-20.194 6.4095001 0.35549998
-19.521 5.9984999 0.42500001
-19.499001 5.9990001 0.40599999
-19.056999 5.9980001 0.48899999
-18.989 5.9965 0.41125003
-19.730524 6.0442376 0.44836837
-19.649185 6.0274067 0.44998291
-19.541674 6.0239635 0.45017079
-19.492973 6.0518203 0.45035139
-19.2255 6.0628748 0.46649998
-19.148836 6.0352283 0.44945902
-19.042494 6.0306482 0.4575043
-18.983206 6.0530844 0.42349994
-20.102001 6.1989999 0.42650002
-20.061232 6.1951542 0.47130772
-19.506599 6.1328006 0.45760003
-19.486156 6.1540632 0.4473089
-19.225555 6.1860962 0.46777773
-19.150703 6.1760955 0.4485957
-19.046604 6.1646395 0.45352998
-18.980654 6.1486402 0.42585343
-20.228374 6.2389998 0.42075002
-20.146633 6.2161317 0.44502175
-20.03738 6.2408981 0.44129455
-19.986977 6.2518334 0.48011902
-19.726151 6.2661653 0.45019999
-19.649153 6.2592254 0.44966051
-19.548756 6.2475953 0.44967955
-19.485025 6.2191525 0.4494651
-19.240767 6.2080007 0.46711767
-20.214773 6.3898644 0.41818187
-20.146408 6.3753705 0.44565907
-20.047365 6.3486862 0.44688791
-19.983074 6.3285098 0.47800002
-20.217667 6.4106665 0.41277781
-20.164089 6.406364 0.47063637
-19.493 5.9983339 0.51966667
-19.731312 6.0489483 0.54725629
-19.649673 6.0306206 0.55122423
-19.540583 6.0262146 0.54890811
-19.494505 6.0525789 0.55050522
-19.317387 6.0781541 0.56815392
-19.249142 6.055769 0.55631137
-19.144442 6.0402255 0.55368537
-19.076082 6.0516529 0.53384727
-20.042059 6.1917219 0.54711127
-19.959002 6.1881108 0.56733334
-19.870001 6.1630001 0.58175004
-19.510498 6.1350002 0.51324999
-19.48835 6.147696 0.54899162
-19.316002 6.1935 0.55733335
-19.239567 6.1889486 0.54863918
-19.14572 6.1799879 0.55311245
-19.070963 6.1601658 0.53597623
-20.124866 6.2142 0.53353339
-20.062201 6.2051997 0.54245001
-19.946735 6.2406282 0.54149127
-19.894001 6.2705717 0.58971435
-19.726177 6.2704487 0.5473448
-19.649261 6.2622046 0.54851562
-19.547396 6.2481308 0.54893667
-19.484507 6.2175546 0.55111754
-19.319162 6.2130275 0.5753513
-19.266302 6.2055178 0.55476677
-19.163332 6.2035556 0.5598889
-19.082001 6.1999998 0.56
-20.120811 6.3749847 0.53216171
-20.049248 6.3564124 0.55090004
-19.954231 6.3317275 0.55294031
-19.889183 6.3151817 0.58581811
-20.132 6.4050002 0.51899999
-19.5215 5.9965 0.62950003
-19.801001 6.0970001 0.67299998
-19.733843 6.0510621 0.65100002
-19.65062 6.0307002 0.64893329
-19.536957 6.0285993 0.65117002
-19.493589 6.0570631 0.64624202
-19.336813 6.0704999 0.65483338
-19.24942 6.0521593 0.65192747
-19.163767 6.0602899 0.64208889
-20.024052 6.1881495 0.63260001
-19.9464 6.1776681 0.64376676
-19.868643 6.1710005 0.65852392
-19.792999 6.119 0.62
-19.504499 6.1485 0.67549998
-19.486015 6.1508412 0.65097517
-19.33367 6.181778 0.62822223
-19.242393 6.192811 0.63889652
-19.15727 6.1646256 0.64124674
-20.101 6.2140002 0.60299999
-20.048447 6.2081113 0.64555556
-19.932167 6.2145 0.62133336
-19.854416 6.255805 0.65070736
-19.728088 6.2675943 0.64785725
-19.64963 6.2647963 0.64946795
-19.550303 6.2515268 0.64801621
-19.482786 6.2258515 0.64858115
-19.345905 6.2152066 0.65409327
-19.253662 6.2082024 0.65335482
-19.172073 6.2069077 0.65248829
-20.030561 6.3572288 0.63305753
-19.949368 6.3369055 0.65047514
-19.865391 6.314374 0.65827131
-19.735939 6.0567884 0.74833339
-19.651667 6.0358682 0.74927855
-19.538271 6.0296893 0.75061166
-19.472361 6.0697694 0.74719268
-19.348015 6.070972 0.75157732
-19.253347 6.0671959 0.74563044
-19.198 6.0970001 0.70999998
-20.005001 6.1855001 0.70700002
-19.939327 6.1726217 0.7431891
-19.855467 6.1676216 0.74140006
-19.795834 6.1700001 0.75733328
-19.504499 6.1094999 0.70899999
-19.483061 6.1468973 0.73396158
-19.309502 6.1949997 0.75300002
-19.238859 6.153749 0.75082815
-19.192499 6.1613116 0.70750004
-20.016001 6.1999998 0.71799999
-19.814655 6.2700391 0.7274999
-19.751942 6.2701273 0.7544502
-19.64887 6.2665458 0.74918389
-19.549822 6.2540665 0.74942231
-19.452339 6.2293525 0.75568664
-19.349983 6.2169223 0.74996042
-19.259117 6.2124557 0.74466938
-19.197248 6.2062502 0.71500003
-19.935644 6.3352227 0.74049175
-19.852856 6.3169456 0.74972904
-19.785278 6.3077593 0.76143998
-19.736158 6.0612168 0.84670275
-19.646034 6.0359659 0.84968972
-19.538202 6.0322146 0.85288179
-19.464115 6.0755806 0.84851855
-19.347073 6.0728302 0.84729564
-19.292889 6.0824447 0.81900001
-19.917833 6.1771674 0.82216668
-19.857622 6.15838 0.84606898
-19.5825 6.1964998 0.87599999
-19.469584 6.103334 0.84733337
-19.327497 6.1469421 0.86723191
-19.284643 6.1496768 0.81606442
-19.829849 6.2928462 0.87253851
-19.738613 6.2867203 0.84736383
-19.651339 6.2691665 0.84864599
-19.551199 6.2496667 0.84958792
-19.451395 6.2356782 0.84905446
-19.353661 6.2251039 0.84864169
-19.287704 6.2175555 0.8221851
-19.911999 6.3201108 0.80822223
-19.8451 6.3163781 0.84184247
-19.772919 6.3063459 0.85197955
-19.733973 6.0573788 0.95299995
-19.64802 6.0377445 0.94800007
-19.538811 6.0346146 0.94596022
-19.461199 6.0763121 0.94953227
-19.382467 6.0796676 0.9211334
-19.82225 6.15625 0.93825001
-19.51 6.1009998 0.98000002
-19.427734 6.1367865 0.9677856
-19.379051 6.1529207 0.93503189
-19.819252 6.2876248 0.94081259
-19.740517 6.2889829 0.95024806
-19.650818 6.2659502 0.94832575
-19.546518 6.2583175 0.94855046
-19.448847 6.2436485 0.94968766
-19.377228 6.2307901 0.93130648
-19.816723 6.3102226 0.92005563
-19.765886 6.3059149 0.93685716
-19.697001 6.3070002 0.92699999
-19.542 6.3000002 0.97100002
-19.736095 6.059833 1.0492144
-19.647757 6.0422096 1.0496449
-19.536074 6.0409479 1.054235
-19.486465 6.0775557 1.0385333
-19.514717 6.1500001 1.085
-19.467039 6.1482401 1.0485002
-19.72772 6.2824812 1.0477467
-19.64567 6.2720761 1.0502115
-19.548517 6.2630072 1.0489024
-19.468023 6.2411203 1.0438777
-19.737362 6.3057275 1.0411819
-19.657461 6.3063846 1.0198462
-19.735399 6.0635781 1.1490788
-19.648451 6.0451493 1.1513498
-19.529861 6.0448275 1.1506406
-19.495584 6.0687642 1.145353
-19.509729 6.1457729 1.1519547
-19.492697 6.1499648 1.1504323
-19.726379 6.2877402 1.1475888
-19.649885 6.2738624 1.1489751
-19.544712 6.2650542 1.1490178
-19.485746 6.2334743 1.1494852
-19.728003 6.3041434 1.1315715
-19.679432 6.3038578 1.1684287
-19.737614 6.0671945 1.2477499
-19.652046 6.0498734 1.2504288
-19.528854 6.0498748 1.2498816
-19.496033 6.0668225 1.2507501
-19.5079 6.1427093 1.2548063
-19.49271 6.1542292 1.2458911
-19.725819 6.2871528 1.2458646
-19.64727 6.2843966 1.246195
-19.543938 6.2681575 1.2496086
-19.487076 6.2309208 1.2500889
-19.722954 6.3080473 1.2531905
-19.650112 6.3049998 1.2695557
-19.736326 6.0726223 1.3507298
-19.64945 6.0514059 1.348703
-19.528669 6.0523229 1.3479003
-19.496447 6.0696502 1.3503
-19.506733 6.1381707 1.3540974
-19.493433 6.1561027 1.3474092
-19.723661 6.2910938 1.348415
-19.646255 6.2889228 1.34811
-19.546907 6.2728691 1.3480544
-19.487797 6.2322841 1.3481052
-19.724361 6.3083997 1.3532001
-19.660053 6.303401 1.35015
-19.734695 6.0745287 1.4511113
-19.652367 6.0553832 1.4493002
-19.531567 6.0549197 1.44727
-19.496143 6.072 1.4540715
-19.766001 6.0999999 1.4220001
-19.508867 6.1404643 1.4534653
-19.493973 6.1596947 1.446264
-19.725758 6.2911882 1.4566488
-19.648285 6.2914658 1.4471581
-19.546547 6.2726912 1.4502125
-19.48786 6.2364593 1.4471877
-19.727978 6.3087859 1.4476906
-19.659546 6.3050909 1.4566362
-19.592001 6.3011999 1.4404
-19.731924 6.0751314 1.549737
-19.650772 6.0587192 1.5502808
-19.533482 6.0565557 1.5476241
-19.494335 6.0636668 1.531
-19.508665 6.1398368 1.5508121
-19.495918 6.1642847 1.5424898
-19.730608 6.2931299 1.549087
-19.645653 6.2920008 1.5489132
-19.543438 6.2731647 1.5498512
-19.489063 6.2374787 1.5533153
-19.724962 6.3078127 1.5510564
-19.657555 6.3065419 1.5527288
-19.578249 6.3031244 1.5398749
-19.736256 6.0779357 1.6503617
-19.648804 6.0600185 1.6500536
-19.5327 6.0592489 1.6486769
-19.497501 6.078167 1.6338334
-19.508816 6.1437736 1.6473454
-19.495459 6.1659555 1.6474563
-19.7293 6.2937503 1.6536001
-19.642382 6.2915754 1.6447877
-19.542109 6.2740564 1.6497836
-19.49058 6.233552 1.6528591
-19.724815 6.3086119 1.6495512
-19.655174 6.3054171 1.6521758
-19.582001 6.3045454 1.6607273
-19.735712 6.0786662 1.7491333
-19.645315 6.062613 1.7493858
-19.528982 6.061058 1.7499341
-19.497999 6.0524998 1.7850001
-19.757999 6.1015 1.7685001
-19.509489 6.1452336 1.7504591
-19.495888 6.1638904 1.7489998
-19.734501 6.2952991 1.7522999
-19.642843 6.2944736 1.7397634
-19.543446 6.2752848 1.749699
-19.492184 6.2339015 1.7522222
-19.723835 6.3105412 1.7491529
-19.651659 6.306881 1.7507796
-19.585533 6.3023338 1.7584668
-19.739628 6.0826516 1.8492329
-19.648932 6.0638666 1.8468173
-19.533737 6.0617495 1.8512095
-19.49625 6.0717502 1.8535
-19.509481 6.1460814 1.8510619
-19.496878 6.1639996 1.8450401
-19.729572 6.2957144 1.8332858
-19.640406 6.2955179 1.8475187
-19.538681 6.2771902 1.8471909
-19.492905 6.238647 1.8507886
-19.725687 6.3118143 1.8534286
-19.649834 6.3086052 1.8500179
-19.583334 6.3052921 1.8491666
-19.737001 6.0798602 1.95307
-19.650839 6.0652237 1.9531193
-19.533548 6.0620561 1.9476144
-19.496801 6.0719004 1.9495
-19.738668 6.1013336 1.9376668
-19.510183 6.1472893 1.9505864
-19.495998 6.1694503 1.9405998
-19.767334 6.2953334 1.9586667
-19.622833 6.2948337 1.9368333
-19.534758 6.2784529 1.9447795
-19.491453 6.2443671 1.9494996
-19.733921 6.3185515 1.9575976
-19.650625 6.3160458 1.9532311
-19.568611 6.304935 1.9569563
-19.735502 6.0329738 2.0420003
-19.641502 6.0370746 2.0472813
-19.534233 6.0652995 2.0493987
-19.493999 6.0609999 2.017
-19.510878 6.1478848 2.0509555
-19.495802 6.172133 2.0470669
-19.811001 6.29 2.0580001
-19.612715 6.2955718 2.0605714
-19.525557 6.2770872 2.0485702
-19.493458 6.2435994 2.0469718
-19.802 6.3210001 2.0799999
-19.739908 6.3614788 2.0385182
-19.641897 6.3572063 2.043932
-19.570024 6.3125625 2.0538025
-19.738001 6.4164004 2.083025
-19.649143 6.4108987 2.0851834
-19.597668 6.4103332 2.086
-19.764999 6.007 2.105
-19.62615 6.04106 2.1499701
-19.538921 6.0678291 2.1504226
-19.513449 6.1460552 2.1523242
-19.495884 6.162941 2.1518824
-19.620499 6.2940001 2.1554999
-19.52194 6.2690201 2.1523597
-19.494457 6.2483048 2.1445932
-19.610901 6.3492107 2.1489723
-19.563961 6.3129907 2.1465573
-19.730391 6.4586473 2.1361575
-19.644402 6.4552422 2.1438508
-19.594343 6.4475455 2.1601562
-19.734594 6.5144873 2.180027
-19.650866 6.5109463 2.1872163
-19.593002 6.5126667 2.1920002
-19.651466 5.9506841 2.2473474
-19.633709 6.0464773 2.2498837
-19.539057 6.0689383 2.2524273
-19.51351 6.1477304 2.2494814
-19.497417 6.1699171 2.2389169
-19.612667 6.2966666 2.2466667
-19.522913 6.2661061 2.2514472
-19.495697 6.2544351 2.2492638
-19.615068 6.3389592 2.250375
-19.561266 6.3115768 2.2485056
-19.611879 6.4404249 2.2475455
-19.591978 6.4590511 2.2478359
-19.724859 6.5587282 2.2408996
-19.648407 6.5550103 2.2447534
-19.589148 6.5425043 2.2588694
-19.726782 6.6097836 2.2833478
-19.649145 6.6093221 2.2909646
-19.588749 6.6040001 2.29
-19.743 5.9940004 2.3660002
-19.658983 5.9394073 2.3435633
-19.7192 6.0698004 2.3724
-19.652096 6.065609 2.351078
-19.540447 6.0692019 2.3494587
-19.751499 6.1040001 2.3594999
-19.515102 6.1505551 2.3497438
-19.498201 6.1486001 2.3236001
-19.517578 6.2606454 2.3506536
-19.495195 6.2573476 2.3477395
-19.743 6.3509998 2.3345001
-19.620766 6.3313804 2.3491418
-19.559958 6.3116136 2.3505054
-19.499001 6.3049998 2.3069999
-19.732 6.414 2.3699999
-19.608864 6.4421945 2.3486943
-19.591509 6.4627738 2.342623
-19.761999 6.599 2.316
-19.621298 6.5461001 2.3569999
-19.582878 6.5534873 2.3482683
-19.720682 6.6516862 2.3397861
-19.649166 6.6530099 2.3486722
-19.579475 6.6431947 2.357929
-19.718786 6.7139292 2.3852146
-19.6439 6.7058997 2.3922002
-19.587124 6.7183747 2.3798749
-19.737225 5.7269049 2.4322577
-19.7075 5.8151665 2.4595001
-19.670116 5.8459883 2.4477932
-19.734501 5.9370003 2.4320002
-19.666876 5.923542 2.4225419
-19.733585 6.0905166 2.4525518
-19.645597 6.076509 2.4477794
-19.54141 6.0737987 2.4502201
-19.737446 6.1070004 2.4630001
-19.677999 6.1040001 2.4170001
-19.515884 6.1503286 2.4500623
-19.4995 6.1595001 2.4493334
-19.511545 6.2533727 2.4529901
-19.492867 6.2503252 2.4438376
-19.749668 6.3270006 2.4496667
-19.628801 6.3232398 2.4515066
-19.553909 6.3118324 2.4497058
-19.499001 6.3049998 2.47
-19.74 6.454 2.4089999
-19.624186 6.4652958 2.4335556
-19.590084 6.4815826 2.4214168
-19.635681 6.5321822 2.4655001
-19.584782 6.5546765 2.4465377
-19.708 6.6914997 2.4030001
-19.638332 6.6768332 2.4170001
-19.571247 6.6538534 2.4454825
-19.713276 6.751863 2.4420547
-19.649986 6.7477908 2.4496343
-19.574127 6.7408433 2.4585671
-19.7106 6.8118997 2.4914002
-19.652752 6.8122501 2.49475
-19.5935 6.8070002 2.4955001
-19.730967 5.6426649 2.5479259
-19.692175 5.6821771 2.564647
-19.705584 5.7258334 2.5528333
-19.683119 5.7503815 2.548526
-19.72975 5.8347497 2.5352499
-19.673441 5.8286829 2.5350976
-19.731443 6.0940003 2.5538888
-19.649881 6.0796556 2.5468786
-19.544708 6.0727477 2.5502222
-19.756264 6.1070876 2.5481305
-19.6665 6.1030002 2.5339999
-19.515682 6.1478906 2.5488293
-19.497501 6.1885004 2.5613334
-19.610001 6.2969999 2.5610001
-19.51265 6.2493935 2.5493822
-19.495863 6.2542071 2.5442066
-19.737999 6.3275003 2.5425
-19.640547 6.3210382 2.5534766
-19.545929 6.3126173 2.5505974
-19.499001 6.3039999 2.533
-19.6285 6.4695001 2.553
-19.711332 6.5723333 2.5326667
-19.638504 6.5639248 2.5326154
-19.587244 6.5809093 2.5293639
-19.707001 6.6206665 2.5866668
-19.639336 6.6160002 2.5695832
-19.574762 6.6519318 2.5489228
-19.705 6.7919998 2.5020001
-19.653168 6.7910547 2.5074997
-19.561987 6.7533698 2.5447819
-19.708735 6.8461313 2.5441315
-19.650881 6.844049 2.5515318
-19.571224 6.8391767 2.5614505
-19.6455 6.9029999 2.5964999
-19.709913 5.6399627 2.6438589
-19.693745 5.6751165 2.6497204
-19.715265 5.7526007 2.6497333
-19.686272 5.73592 2.6351891
-19.820999 5.8010001 2.6140001
-19.712502 5.8179998 2.6385
-19.698999 5.8189998 2.6140001
-19.720694 6.0946159 2.6460772
-19.650265 6.0846605 2.651509
-19.546846 6.0753946 2.6484878
-19.75342 6.1112251 2.6490641
-19.651333 6.1036663 2.6621666
-19.518719 6.1498823 2.6489661
-19.497499 6.1897502 2.652
-19.515265 6.2562852 2.6468823
-19.493166 6.2571259 2.6741874
-19.723835 6.3328338 2.6611669
-19.648516 6.3277125 2.6500325
-19.552734 6.3140316 2.6558449
-19.48925 6.3067503 2.68925
-19.611 6.5780001 2.652
-19.6 6.5830002 2.6140001
-19.702999 6.6610003 2.6269999
-19.642763 6.667429 2.6355238
-19.576256 6.667666 2.6285133
-19.7115 6.7305002 2.6914999
-19.6369 6.7089996 2.6730001
-19.563791 6.7483916 2.649924
-19.728739 6.8725553 2.6444445
-19.649454 6.8908796 2.612788
-19.553955 6.8558669 2.6444528
-19.71825 6.9145002 2.6798332
-19.647476 6.9385257 2.6555147
-19.566084 6.9358034 2.6642823
-19.570999 7.0009999 2.6900001
-19.710894 5.6451249 2.7412338
-19.695652 5.6424003 2.7356
-19.720125 5.7225003 2.733
-19.694 5.7214999 2.7055001
-19.723356 6.0935726 2.7442861
-19.648281 6.0877995 2.7497201
-19.549873 6.078382 2.7500122
-19.748003 6.1116343 2.7485664
-19.671499 6.1091666 2.7673335
-19.521767 6.1433487 2.7439418
-19.480761 6.180779 2.7602966
-19.524002 6.2810001 2.7378261
-19.464003 6.2562199 2.7536428
-19.71105 6.348526 2.7455263
-19.651226 6.3371515 2.7474611
-19.551086 6.3146257 2.7514167
-19.477793 6.3061767 2.7508528
-19.606001 6.6290002 2.714
-19.591499 6.6739998 2.7154999
-19.727669 6.7706671 2.7296667
-19.646654 6.7619572 2.7378697
-19.570541 6.7685823 2.7357912
-19.7365 6.83775 2.7495
-19.645716 6.8132863 2.7850001
-19.552938 6.8470492 2.7502217
-19.720102 6.9559002 2.7424335
-19.649353 6.9854379 2.7166667
-19.547443 6.9584751 2.7439687
-19.716333 7.0100002 2.7776668
-19.64493 7.0351329 2.7589302
-19.565401 7.0244603 2.7549376
-19.72633 5.6343331 2.8282776
-19.733999 5.711 2.819
-19.712667 6.0970001 2.8186665
-19.646139 6.0891824 2.8497272
-19.555281 6.079484 2.8482499
-19.744848 6.1143503 2.8493502
-19.66782 6.1041822 2.8580909
-19.524195 6.1363773 2.8521471
-19.449888 6.169466 2.8522377
-19.395 6.1989999 2.8959999
-19.848999 6.2340002 2.8695002
-19.645443 6.2838888 2.859
-19.526922 6.2979226 2.837846
-19.43047 6.2579269 2.8419046
-19.392006 6.2596788 2.8812201
-19.829 6.3610001 2.8759999
-19.722481 6.3546238 2.8553123
-19.653278 6.3349099 2.8508127
-19.551893 6.3134475 2.8485882
-19.456684 6.3065767 2.8514736
-19.396 6.3065004 2.8699999
-20.701 6.5100002 2.8599999
-19.573999 6.789 2.8180001
-19.650885 6.8550777 2.8363848
-19.561609 6.8640714 2.8351965
-19.736668 6.9833336 2.8210001
-19.642666 6.9068332 2.892
-19.544643 6.9434605 2.8463154
-19.711287 7.0327148 2.8180003
-19.664572 7.0625725 2.8055716
-19.531816 7.0475307 2.8488371
-19.6455 7.1265001 2.865
-19.534586 7.1251678 2.8673332
-19.704 6.0980005 2.9140003
-19.64529 6.0912108 2.9517899
-19.556982 6.0812359 2.9488542
-19.745443 6.1172562 2.9500232
-19.663601 6.1055341 2.9528
-19.526913 6.1321039 2.9526896
-19.440733 6.1565113 2.9432671
-19.377239 6.1777258 2.9629195
-19.9165 6.2539997 2.9727499
-19.868801 6.2317996 2.9505
-19.703499 6.2985001 2.9640002
-19.6826 6.2867999 2.9238002
-19.550364 6.296454 2.951273
-19.433065 6.2871594 2.9403636
-19.365873 6.2573047 2.9516945
-19.820333 6.3616667 2.9503334
-19.729679 6.3535738 2.9550149
-19.649715 6.3362155 2.9514418
-19.551542 6.3186464 2.9498405
-19.457451 6.3067932 2.9510555
-19.373091 6.3077269 2.9549999
-20.688499 6.5369997 2.9345
-19.63125 6.9614 2.9514
-19.554375 6.964325 2.9398134
-19.701 7.0110002 2.9419999
-19.533379 7.0481215 2.9465001
-19.629999 7.1820002 2.9189999
-19.524292 7.1443081 2.9513469
-19.637501 7.2375002 2.9765
-19.5296 7.2254004 2.9820001
0 0 0 1 0 0 0 1 0 0 0 1 0 0 0 0 0 709 1 0 0
