ply
format ascii 1.0
comment PCL generated
element vertex 2121
property float x
property float y
property float z
element camera 0
property float view_px
property float view_py
property float view_pz
property float x_axisx
property float x_axisy
property float x_axisz
property float y_axisx
property float y_axisy
property float y_axisz
property float z_axisx
property float z_axisy
property float z_axisz
property float focal
property float scalex
property float scaley
property float centerx
property float centery
property int viewportx
property int viewporty
property float k1
property float k2
end_header
13.201 10.705 0.079000004
13.242 10.689 0.061999999
13.267 10.68 0.044
13.272 10.677 0.027000001
13.277 10.675 0.0089999996
13.421 10.707 2.993
13.41 10.71 2.977
13.405 10.712 2.96
13.409 10.709 2.9400001
13.404 10.711 2.9230001
13.386 10.717 2.9089999
13.381 10.718 2.892
13.372 10.72 2.8759999
13.375 10.718 2.8559999
13.389 10.712 2.8329999
13.371 10.718 2.8199999
13.366 10.719 2.802
13.368 10.718 2.783
13.366 10.718 2.7650001
13.377 10.714 2.743
13.364 10.718 2.7290001
13.379 10.712 2.7060001
13.38 10.711 2.687
13.362 10.717 2.6730001
13.37 10.713 2.6530001
13.374 10.711 2.6329999
13.366 10.713 2.6170001
13.359 10.715 2.5999999
13.357 10.715 2.582
13.38 10.706 2.5569999
13.365 10.711 2.543
13.352 10.715 2.5280001
13.368 10.709 2.5050001
13.354 10.713 2.49
13.356 10.712 2.471
13.361 10.71 2.4519999
13.35 10.713 2.4360001
13.359 10.709 2.415
13.355 10.71 2.398
13.359 10.708 2.3789999
13.344 10.713 2.3640001
13.349 10.71 2.3440001
13.354 10.708 2.325
13.343 10.711 2.309
13.356 10.706 2.2880001
13.344 10.709 2.2720001
13.332 10.713 2.257
13.342 10.709 2.2360001
13.334 10.711 2.22
13.326 10.714 2.2030001
13.331 10.711 2.184
13.332 10.71 2.1659999
13.335 10.708 2.1470001
13.316 10.715 2.1329999
13.319 10.713 2.1140001
13.32 10.712 2.095
13.313 10.714 2.079
13.331 10.707 2.0569999
13.319 10.711 2.0409999
13.316 10.711 2.0239999
13.318 10.71 2.0050001
13.316 10.71 1.987
13.303 10.714 1.972
13.328 10.704 1.949
13.308 10.711 1.9349999
13.303 10.712 1.918
13.307 10.71 1.899
13.313 10.707 1.8789999
13.312 10.707 1.862
13.299 10.711 1.846
13.309 10.707 1.826
13.302 10.708 1.809
13.305 10.707 1.791
13.31 10.704 1.772
13.307 10.705 1.7539999
13.301 10.706 1.737
13.303 10.705 1.719
13.293 10.708 1.7029999
13.312 10.701 1.682
13.292 10.707 1.6670001
13.294 10.706 1.649
13.292 10.706 1.631
13.29 10.706 1.614
13.286 10.707 1.596
13.283 10.707 1.579
13.272 10.711 1.563
13.281 10.707 1.543
13.285 10.705 1.525
13.276 10.708 1.508
13.271 10.709 1.4910001
13.266 10.71 1.474
13.275 10.706 1.455
13.274 10.706 1.437
13.264 10.709 1.421
13.268 10.707 1.402
13.266 10.707 1.385
13.262 10.708 1.367
13.261 10.707 1.35
13.259 10.708 1.332
13.252 10.709 1.3150001
13.264 10.705 1.296
13.256 10.707 1.279
13.27 10.701 1.26
13.258 10.705 1.243
13.261 10.703 1.225
13.26 10.703 1.207
13.281 10.695 1.187
13.288 10.692 1.169
13.298 10.688 1.15
13.311 10.682 1.131
13.304 10.684 1.114
13.27 10.696 1.1
13.317 10.678 1.077
13.298 10.685 1.062
13.277 10.691 1.046
13.262 10.697 1.03
13.297 10.683 1.0089999
13.374 10.655 0.98400003
13.321 10.673 0.97100002
13.235 10.704 0.96100003
13.216 10.71 0.94499999
13.215 10.71 0.92799997
13.222 10.706 0.90899998
13.209 10.711 0.89300001
13.217 10.707 0.87400001
13.201 10.712 0.85799998
13.205 10.71 0.83999997
13.209 10.708 0.82200003
13.211 10.707 0.80400002
13.207 10.708 0.78600001
13.208 10.707 0.76899999
13.219 10.703 0.75
13.211 10.705 0.73299998
13.198 10.709 0.71600002
13.2 10.707 0.69800001
13.208 10.704 0.68000001
13.22 10.699 0.662
13.205 10.704 0.64499998
13.199 10.705 0.62699997
13.206 10.702 0.60900003
13.203 10.703 0.59200001
13.201 10.703 0.574
13.201 10.702 0.55599999
13.191 10.705 0.53899997
13.184 10.707 0.52200001
13.183 10.706 0.50400001
13.174 10.709 0.48699999
13.184 10.705 0.46900001
13.174 10.708 0.45100001
13.193 10.7 0.433
13.176 10.706 0.41600001
13.175 10.706 0.398
13.185 10.702 0.38
13.171 10.706 0.36300001
13.164 10.708 0.345
13.183 10.701 0.32699999
13.178 10.702 0.31
13.159 10.708 0.292
13.171 10.703 0.27399999
13.183 10.698 0.25600001
13.179 10.699 0.23899999
13.16 10.705 0.221
13.161 10.704 0.20299999
13.16 10.704 0.186
13.163 10.702 0.168
13.166 10.701 0.15000001
13.165 10.701 0.133
13.164 10.7 0.115
13.163 10.7 0.097000003
13.192 10.689 0.079999998
13.205 10.684 0.061999999
13.235 10.673 0.045000002
13.255 10.665 0.027000001
13.266 10.66 0.0099999998
13.381 10.702 2.9849999
13.372 10.705 2.9690001
13.358 10.709 2.954
13.366 10.705 2.9330001
13.375 10.702 2.911
13.352 10.709 2.8989999
13.366 10.704 2.8759999
13.352 10.708 2.862
13.343 10.711 2.846
13.347 10.709 2.826
13.355 10.705 2.8050001
13.336 10.711 2.7909999
13.329 10.713 2.7750001
13.333 10.711 2.7550001
13.335 10.71 2.7349999
13.329 10.711 2.7190001
13.313 10.717 2.704
13.318 10.714 2.684
13.325 10.711 2.664
13.329 10.709 2.6440001
13.325 10.71 2.6259999
13.321 10.711 2.609
13.319 10.711 2.5910001
13.312 10.712 2.5739999
13.308 10.713 2.5569999
13.315 10.71 2.536
13.309 10.712 2.5190001
13.323 10.706 2.497
13.317 10.708 2.48
13.31 10.709 2.4630001
13.299 10.713 2.448
13.307 10.709 2.427
13.3 10.711 2.4100001
13.296 10.712 2.3929999
13.311 10.706 2.3710001
13.296 10.711 2.3559999
13.29 10.712 2.339
13.296 10.71 2.319
13.286 10.713 2.303
13.293 10.709 2.283
13.285 10.712 2.267
13.295 10.707 2.2460001
13.277 10.713 2.2320001
13.301 10.704 2.2079999
13.284 10.71 2.194
13.275 10.712 2.177
13.279 10.71 2.158
13.282 10.708 2.1389999
13.281 10.708 2.1210001
13.279 10.708 2.1029999
13.271 10.711 2.0869999
13.284 10.705 2.066
13.267 10.711 2.0510001
13.273 10.708 2.0320001
13.284 10.704 2.0109999
13.264 10.71 1.997
13.264 10.709 1.979
13.25 10.714 1.964
13.257 10.711 1.944
13.265 10.707 1.924
13.258 10.709 1.9069999
13.242 10.714 1.892
13.26 10.707 1.8710001
13.252 10.709 1.854
13.252 10.708 1.836
13.259 10.705 1.817
13.256 10.706 1.799
13.254 10.706 1.781
13.245 10.708 1.765
13.244 10.708 1.747
13.243 10.708 1.729
13.248 10.706 1.71
13.255 10.703 1.691
13.252 10.703 1.673
13.23 10.71 1.659
13.232 10.709 1.641
13.248 10.702 1.62
13.234 10.707 1.604
13.225 10.709 1.5880001
13.236 10.705 1.568
13.223 10.709 1.552
13.23 10.706 1.533
13.227 10.706 1.515
13.215 10.71 1.499
13.227 10.705 1.479
13.211 10.711 1.464
13.229 10.703 1.443
13.227 10.703 1.426
13.207 10.71 1.41
13.218 10.705 1.391
13.205 10.709 1.375
13.21 10.707 1.3559999
13.201 10.71 1.339
13.195 10.711 1.322
13.211 10.705 1.302
13.192 10.711 1.2869999
13.194 10.71 1.2690001
13.178 10.715 1.253
13.198 10.707 1.232
13.223 10.698 1.212
13.245 10.689 1.191
13.257 10.684 1.1720001
13.24 10.69 1.156
13.25 10.686 1.137
13.243 10.687 1.12
13.252 10.683 1.102
13.239 10.688 1.085
13.238 10.688 1.068
13.238 10.687 1.05
13.231 10.689 1.033
13.3 10.663 1.0089999
13.365 10.64 0.98500001
13.345 10.646 0.96899998
13.207 10.695 0.96399999
13.196 10.698 0.94700003
13.18 10.703 0.93099999
13.174 10.705 0.91299999
13.143 10.716 0.898
13.157 10.71 0.87900001
13.172 10.704 0.86000001
13.183 10.699 0.84100002
13.157 10.708 0.82599998
13.146 10.711 0.80900002
13.161 10.705 0.79000002
13.162 10.704 0.77200001
13.168 10.701 0.75400001
13.158 10.704 0.73699999
13.157 10.704 0.71899998
13.158 10.703 0.70099998
13.143 10.708 0.68400002
13.132 10.711 0.667
13.122 10.714 0.64999998
13.111 10.717 0.63200003
13.125 10.712 0.61400002
13.119 10.714 0.59600002
13.138 10.706 0.57700002
13.128 10.709 0.56
13.135 10.706 0.542
13.125 10.709 0.52499998
13.139 10.703 0.50599998
13.13 10.706 0.48899999
13.136 10.703 0.47099999
13.16 10.694 0.45199999
13.17 10.69 0.43399999
13.164 10.691 0.417
13.145 10.698 0.39899999
13.148 10.696 0.382
13.171 10.678 0.079999998
13.155 10.683 0.061999999
13.181 10.673 0.045000002
13.212 10.662 0.028000001
13.247 10.648 0.0099999998
13.329 10.701 2.9809999
13.336 10.698 2.9590001
13.337 10.697 2.9400001
13.316 10.704 2.928
13.313 10.704 2.9100001
13.317 10.702 2.8900001
13.31 10.704 2.8729999
13.305 10.705 2.8559999
13.309 10.703 2.835
13.332 10.694 2.8099999
13.318 10.699 2.7950001
13.32 10.697 2.776
13.305 10.702 2.7620001
13.282 10.71 2.7490001
13.291 10.706 2.7279999
13.277 10.71 2.7130001
13.287 10.706 2.6919999
13.291 10.704 2.6719999
13.296 10.702 2.652
13.287 10.704 2.635
13.255 10.715 2.625
13.281 10.705 2.5999999
13.277 10.706 2.582
13.266 10.709 2.566
13.285 10.702 2.543
13.264 10.709 2.53
13.261 10.709 2.5120001
13.25 10.713 2.4960001
13.243 10.715 2.4790001
13.249 10.712 2.4590001
13.23 10.718 2.4449999
13.221 10.721 2.4289999
13.24 10.713 2.4059999
13.244 10.711 2.3859999
13.257 10.706 2.3640001
13.258 10.705 2.346
13.259 10.704 2.3269999
13.276 10.697 2.3050001
13.256 10.704 2.2909999
13.259 10.702 2.2720001
13.275 10.695 2.25
13.273 10.696 2.2320001
13.265 10.698 2.2149999
13.286 10.69 2.1919999
13.288 10.688 2.174
13.271 10.694 2.1589999
13.267 10.695 2.142
13.273 10.691 2.122
13.246 10.701 2.1099999
13.215 10.711 2.098
13.206 10.714 2.0810001
13.197 10.716 2.0650001
13.21 10.711 2.0439999
13.21 10.71 2.026
13.203 10.712 2.0090001
13.2 10.713 1.9910001
13.192 10.715 1.974
13.193 10.714 1.956
13.198 10.712 1.936
13.176 10.719 1.9220001
13.193 10.712 1.901
13.179 10.716 1.885
13.184 10.714 1.8660001
13.185 10.713 1.848
13.185 10.713 1.829
13.167 10.718 1.814
13.176 10.715 1.794
13.178 10.713 1.776
13.184 10.711 1.757
13.169 10.715 1.7410001
13.175 10.713 1.722
13.169 10.714 1.705
13.164 10.715 1.687
13.162 10.715 1.67
13.156 10.717 1.652
13.152 10.718 1.635
13.167 10.712 1.614
13.148 10.718 1.599
13.163 10.712 1.579
13.136 10.721 1.5650001
13.159 10.712 1.543
13.149 10.715 1.526
13.148 10.715 1.5089999
13.148 10.714 1.49
13.147 10.714 1.473
13.151 10.712 1.454
13.152 10.711 1.436
13.158 10.708 1.4170001
13.139 10.714 1.401
13.153 10.709 1.381
13.161 10.706 1.362
13.137 10.713 1.347
13.138 10.713 1.329
13.147 10.708 1.3099999
13.149 10.707 1.2920001
13.19 10.687 1.1440001
13.159 10.698 1.1289999
13.174 10.692 1.11
13.168 10.694 1.0930001
13.172 10.691 1.074
13.166 10.693 1.057
13.174 10.69 1.038
13.185 10.685 1.0190001
13.259 10.658 0.995
13.208 10.676 0.98199999
13.182 10.684 0.96600002
13.166 10.689 0.94999999
13.155 10.692 0.93300003
13.159 10.691 0.91500002
13.148 10.694 0.898
13.137 10.697 0.88099998
13.126 10.701 0.86400002
13.115 10.704 0.847
13.128 10.699 0.82800001
13.098 10.709 0.81199998
13.078 10.715 0.796
13.059 10.721 0.77899998
13.066 10.718 0.76099998
13.033 10.729 0.745
13.037 10.728 0.727
13.026 10.731 0.70899999
13.015 10.734 0.69199997
12.995 10.74 0.67500001
12.98 10.745 0.65799999
12.97 10.748 0.63999999
12.959 10.751 0.62300003
12.944 10.756 0.60500002
12.924 10.763 0.588
12.914 10.766 0.56999999
12.895 10.772 0.55299997
12.875 10.778 0.53500003
12.856 10.784 0.51800001
12.848 10.787 0.5
12.82 10.796 0.48300001
12.827 10.793 0.46399999
12.808 10.799 0.44600001
12.814 10.796 0.428
13.17 10.657 0.028000001
13.219 10.639 0.011
13.267 10.704 2.9790001
13.275 10.701 2.9579999
13.28 10.698 2.937
13.259 10.705 2.925
13.268 10.701 2.9030001
13.267 10.701 2.8840001
13.273 10.698 2.8640001
13.286 10.692 2.8410001
13.265 10.699 2.8280001
13.278 10.694 2.806
13.272 10.696 2.7880001
13.264 10.698 2.7720001
13.259 10.699 2.7539999
13.263 10.697 2.7349999
13.257 10.699 2.7179999
13.266 10.695 2.6960001
13.256 10.698 2.6800001
13.222 10.709 2.671
13.214 10.711 2.654
13.185 10.721 2.6429999
13.172 10.725 2.6270001
13.196 10.716 2.602
13.186 10.719 2.586
13.193 10.716 2.566
13.171 10.723 2.552
13.18 10.719 2.5309999
13.175 10.72 2.5139999
13.167 10.723 2.497
13.172 10.72 2.477
13.167 10.721 2.46
13.166 10.721 2.441
13.157 10.724 2.425
13.267 10.683 2.3800001
13.265 10.684 2.362
13.266 10.683 2.3429999
13.271 10.68 2.3239999
13.263 10.683 2.3069999
13.268 10.68 2.2869999
13.277 10.676 2.267
13.272 10.677 2.25
13.282 10.673 2.2290001
13.289 10.67 2.2090001
13.299 10.666 2.1889999
13.278 10.673 2.175
13.274 10.674 2.158
13.266 10.676 2.141
13.244 10.683 2.128
13.218 10.692 2.115
13.187 10.702 2.1029999
13.16 10.711 2.0899999
13.162 10.71 2.0710001
13.154 10.712 2.0550001
13.155 10.711 2.036
13.147 10.714 2.0190001
13.162 10.707 1.998
13.14 10.715 1.984
13.146 10.712 1.964
13.15 10.71 1.9450001
13.137 10.714 1.929
13.161 10.705 1.906
13.149 10.709 1.89
13.128 10.715 1.876
13.14 10.71 1.855
13.118 10.718 1.841
13.138 10.684 1.0599999
13.172 10.671 1.038
13.167 10.673 1.021
13.117 10.69 1.008
13.124 10.686 0.98900002
13.118 10.688 0.972
13.124 10.685 0.954
13.122 10.685 0.93599999
13.123 10.685 0.91799998
13.132 10.681 0.89899999
13.122 10.684 0.88200003
13.12 10.684 0.86400002
13.105 10.689 0.84799999
13.099 10.69 0.82999998
13.083 10.695 0.81300002
13.082 10.695 0.796
13.066 10.7 0.77899998
13.052 10.704 0.76200002
13.046 10.706 0.74400002
13.031 10.711 0.727
13.02 10.714 0.70999998
13.019 10.714 0.69199997
12.994 10.722 0.67500001
12.998 10.72 0.65700001
12.973 10.728 0.63999999
12.949 10.736 0.62300003
12.938 10.739 0.60600001
12.928 10.742 0.588
12.913 10.746 0.57099998
12.884 10.756 0.55400002
12.888 10.754 0.53500003
12.878 10.757 0.51700002
12.868 10.76 0.5
12.843 10.768 0.48199999
12.833 10.771 0.46399999
12.809 10.779 0.447
12.784 10.787 0.42899999
12.775 10.789 0.41100001
12.754 10.796 0.39300001
12.761 10.793 0.375
12.732 10.803 0.35699999
12.724 10.805 0.338
13.157 10.642 0.011
13.229 10.699 2.99
13.215 10.704 2.9749999
13.219 10.702 2.954
13.225 10.699 2.9330001
13.221 10.699 2.9159999
13.234 10.694 2.8929999
13.23 10.695 2.875
13.239 10.691 2.8540001
13.227 10.695 2.8380001
13.237 10.69 2.816
13.237 10.69 2.7969999
13.214 10.698 2.7850001
13.215 10.697 2.766
13.222 10.693 2.7449999
13.182 10.707 2.737
13.151 10.718 2.727
13.151 10.717 2.7079999
13.146 10.717 2.6900001
13.158 10.713 2.668
13.25 10.672 2.4200001
13.27 10.664 2.3970001
13.268 10.665 2.3789999
13.266 10.665 2.3610001
13.257 10.667 2.3440001
13.264 10.664 2.325
13.275 10.66 2.3039999
13.271 10.66 2.286
13.271 10.66 2.2679999
13.268 10.66 2.25
13.266 10.66 2.2320001
13.285 10.653 2.21
13.266 10.659 2.1949999
13.263 10.66 2.178
13.268 10.657 2.158
13.265 10.658 2.141
13.211 10.676 2.1340001
13.184 10.685 2.1210001
13.163 10.692 2.1070001
13.15 10.696 2.092
13.163 10.691 2.0699999
13.157 10.692 2.053
13.152 10.694 2.036
13.148 10.662 1.059
13.179 10.65 1.038
13.188 10.646 1.0190001
13.077 10.684 0.99400002
13.055 10.692 0.97799999
13.055 10.691 0.95999998
13.067 10.686 0.94099998
13.06 10.688 0.92299998
13.067 10.685 0.90499997
13.074 10.682 0.88599998
13.071 10.682 0.86799997
13.07 10.682 0.85100001
13.067 10.682 0.833
13.063 10.683 0.815
13.06 10.684 0.79699999
13.047 10.688 0.77999997
13.041 10.689 0.76300001
13.007 10.7 0.74699998
13.017 10.696 0.72799999
13.009 10.698 0.71100003
12.999 10.702 0.69300002
12.998 10.701 0.67500001
12.978 10.708 0.65799999
12.958 10.714 0.64099997
12.952 10.715 0.62400001
12.937 10.72 0.60600001
12.922 10.725 0.58899999
12.911 10.728 0.57099998
12.887 10.736 0.55400002
12.895 10.732 0.53500003
12.867 10.741 0.51800001
12.852 10.746 0.50099999
12.846 10.747 0.48300001
12.832 10.752 0.465
12.812 10.758 0.447
12.792 10.764 0.42899999
12.777 10.769 0.41100001
12.763 10.774 0.39300001
12.748 10.778 0.375
12.738 10.781 0.35699999
12.713 10.789 0.33899999
12.702 10.792 0.32100001
12.688 10.797 0.303
12.674 10.801 0.28400001
12.666 10.803 0.266
13.197 10.691 2.9790001
13.191 10.693 2.961
13.203 10.688 2.9389999
13.185 10.693 2.925
13.172 10.697 2.9100001
13.176 10.696 2.8900001
13.188 10.69 2.8670001
13.179 10.693 2.8510001
13.188 10.689 2.829
13.181 10.691 2.812
13.258 10.651 2.4360001
13.252 10.653 2.4189999
13.261 10.649 2.398
13.262 10.648 2.3789999
13.276 10.642 2.358
13.272 10.643 2.3399999
13.264 10.645 2.3239999
13.269 10.643 2.3039999
13.279 10.639 2.2839999
13.27 10.641 2.267
13.282 10.636 2.2460001
13.272 10.639 2.23
13.282 10.635 2.21
13.256 10.644 2.197
13.261 10.641 2.178
13.249 10.645 2.1619999
13.223 10.654 2.1489999
13.182 10.668 2.1389999
13.165 10.673 2.125
13.149 10.642 1.041
13.159 10.638 1.022
13.015 10.685 0.92699999
13.009 10.686 0.90899998
13 10.689 0.89200002
13.003 10.687 0.87400001
12.997 10.689 0.85600001
13.004 10.685 0.838
13.012 10.682 0.81900001
13.02 10.679 0.80000001
13.003 10.684 0.78299999
13.007 10.682 0.76499999
12.987 10.688 0.74800003
13 10.683 0.73000002
13.008 10.679 0.71100003
12.993 10.684 0.69400001
12.968 10.692 0.67699999
12.972 10.69 0.65899998
12.938 10.702 0.64300001
12.946 10.698 0.62400001
12.926 10.704 0.60699999
12.925 10.704 0.58899999
12.905 10.71 0.57200003
12.9 10.712 0.55400002
12.889 10.715 0.53600001
12.882 10.717 0.51800001
12.851 10.727 0.50099999
12.85 10.727 0.48300001
12.84 10.73 0.465
12.801 10.742 0.44800001
12.8 10.742 0.43000001
12.795 10.743 0.41100001
12.771 10.751 0.39399999
12.765 10.752 0.375
12.736 10.762 0.35800001
12.726 10.765 0.33899999
12.717 10.767 0.32100001
12.679 10.78 0.303
12.66 10.786 0.285
12.661 10.785 0.266
12.645 10.79 0.248
12.64 10.791 0.23
12.621 10.797 0.211
12.603 10.803 0.193
13.192 10.674 2.96
13.202 10.669 2.938
13.151 10.687 2.934
13.118 10.698 2.924
13.129 10.693 2.902
13.151 10.685 2.8770001
13.272 10.628 2.45
13.256 10.633 2.4349999
13.269 10.628 2.414
13.256 10.632 2.3989999
13.27 10.626 2.3770001
13.251 10.633 2.3629999
13.266 10.627 2.3410001
13.249 10.632 2.326
13.263 10.626 2.3050001
13.268 10.624 2.2850001
13.283 10.618 2.2639999
13.289 10.616 2.244
13.28 10.618 2.2279999
13.263 10.623 2.2130001
13.255 10.626 2.197
13.237 10.631 2.1819999
13.216 10.638 2.168
13.18 10.65 2.158
13.158 10.657 2.1440001
12.952 10.685 0.86000001
12.928 10.693 0.84299999
12.949 10.685 0.824
12.941 10.687 0.80599999
12.93 10.69 0.78899997
12.948 10.683 0.76899999
12.945 10.684 0.75099999
12.95 10.682 0.73299998
12.954 10.679 0.71399999
12.96 10.677 0.69599998
12.953 10.679 0.67799997
12.956 10.677 0.66000003
12.936 10.683 0.64300001
12.935 10.683 0.625
12.92 10.688 0.60799998
12.9 10.694 0.58999997
12.899 10.694 0.57200003
12.875 10.702 0.55500001
12.874 10.701 0.537
12.86 10.706 0.51899999
12.868 10.702 0.50099999
12.844 10.71 0.48300001
12.815 10.719 0.46599999
12.824 10.716 0.44800001
12.818 10.717 0.42899999
12.799 10.723 0.412
12.779 10.729 0.39399999
12.764 10.734 0.37599999
12.749 10.738 0.35800001
12.721 10.748 0.34
12.711 10.75 0.322
12.703 10.752 0.303
12.682 10.759 0.285
12.668 10.764 0.26699999
12.643 10.771 0.249
12.624 10.777 0.23
12.61 10.782 0.212
12.593 10.787 0.193
12.577 10.791 0.175
12.585 10.788 0.156
12.568 10.793 0.13699999
12.529 10.806 0.118
13.184 10.657 2.961
13.2 10.651 2.937
13.18 10.657 2.924
13.252 10.617 2.473
13.255 10.616 2.454
13.249 10.617 2.4360001
13.245 10.618 2.4189999
13.264 10.611 2.3959999
13.264 10.61 2.3770001
13.256 10.612 2.3610001
13.274 10.605 2.3380001
13.266 10.607 2.322
13.266 10.607 2.303
13.267 10.606 2.2850001
13.273 10.603 2.2650001
13.264 10.605 2.2490001
13.265 10.604 2.23
13.248 10.61 2.2160001
13.217 10.62 2.204
13.214 10.621 2.187
13.178 10.633 2.1760001
13.151 10.641 2.1630001
12.891 10.685 0.79100001
12.878 10.688 0.77399999
12.877 10.688 0.75599998
12.882 10.685 0.73699999
12.874 10.688 0.72000003
12.903 10.677 0.69999999
12.889 10.681 0.68199998
12.897 10.678 0.66399997
12.892 10.679 0.64600003
12.911 10.672 0.62599999
12.909 10.672 0.60799998
12.885 10.68 0.59100002
12.884 10.679 0.57300001
12.865 10.685 0.55599999
12.873 10.682 0.537
12.844 10.691 0.51999998
12.834 10.694 0.50199997
12.824 10.697 0.48500001
12.823 10.697 0.46599999
12.818 10.698 0.44800001
12.784 10.709 0.43099999
12.783 10.709 0.41299999
12.773 10.711 0.39399999
12.763 10.714 0.37599999
12.757 10.716 0.35800001
12.743 10.72 0.34
12.721 10.727 0.322
12.695 10.735 0.30399999
12.695 10.735 0.28600001
12.675 10.741 0.26699999
12.651 10.748 0.249
12.642 10.751 0.23100001
12.627 10.756 0.212
12.608 10.762 0.19400001
12.598 10.764 0.175
12.569 10.774 0.156
12.551 10.779 0.138
12.518 10.79 0.119
12.51 10.792 0.1
12.517 10.789 0.081
12.487 10.799 0.061999999
12.462 10.807 0.043000001
13.179 10.64 2.9619999
13.157 10.647 2.9489999
13.263 10.595 2.4879999
13.26 10.595 2.47
13.256 10.596 2.4519999
13.252 10.597 2.4349999
13.239 10.601 2.4200001
13.258 10.594 2.3970001
13.259 10.593 2.378
13.277 10.586 2.355
13.259 10.591 2.3410001
13.264 10.589 2.3210001
13.274 10.585 2.3010001
13.271 10.585 2.283
13.262 10.588 2.267
13.254 10.59 2.25
13.255 10.589 2.2320001
13.247 10.591 2.2149999
13.198 10.608 2.2079999
13.171 10.617 2.1949999
13.167 10.617 2.178
13.142 10.625 2.164
12.853 10.676 0.72100002
12.821 10.685 0.70499998
12.825 10.683 0.68599999
12.815 10.686 0.66799998
12.824 10.682 0.64999998
12.828 10.681 0.63099998
12.831 10.679 0.61299998
12.849 10.672 0.59399998
12.843 10.674 0.57599998
12.847 10.672 0.55699998
12.848 10.671 0.53899997
12.843 10.672 0.52100003
12.837 10.673 0.50300002
12.818 10.679 0.48500001
12.809 10.682 0.46700001
12.807 10.682 0.449
12.773 10.693 0.43200001
12.767 10.694 0.41299999
12.772 10.692 0.39500001
12.738 10.703 0.37799999
12.737 10.703 0.359
12.718 10.709 0.34099999
12.706 10.712 0.32300001
12.704 10.712 0.30399999
12.692 10.715 0.28600001
12.665 10.724 0.26800001
12.659 10.726 0.25
12.64 10.731 0.23100001
12.635 10.733 0.213
12.611 10.74 0.19400001
12.601 10.743 0.176
12.591 10.746 0.15700001
12.568 10.753 0.138
12.558 10.756 0.12
12.548 10.759 0.101
12.511 10.771 0.082000002
12.489 10.777 0.063000001
12.475 10.782 0.044
12.44 10.793 0.025
12.456 10.787 0.0060000001
13.272 10.574 2.503
13.254 10.579 2.4890001
13.241 10.583 2.474
13.255 10.578 2.4519999
13.256 10.577 2.4330001
13.264 10.573 2.4130001
13.26 10.574 2.395
13.266 10.572 2.375
13.271 10.569 2.3559999
13.272 10.568 2.3369999
13.268 10.569 2.3199999
13.269 10.568 2.3010001
13.27 10.567 2.283
13.266 10.568 2.2650001
13.244 10.575 2.2520001
13.249 10.572 2.2320001
13.209 10.586 2.223
13.16 10.602 2.2149999
13.147 10.606 2.2
13.145 10.606 2.1819999
12.762 10.684 0.63499999
12.766 10.682 0.616
12.759 10.684 0.59799999
12.756 10.684 0.57999998
12.772 10.678 0.56099999
12.771 10.678 0.542
12.778 10.674 0.52399999
12.781 10.673 0.505
12.771 10.676 0.48699999
12.788 10.669 0.46799999
12.777 10.673 0.44999999
12.786 10.669 0.43200001
12.771 10.673 0.414
12.78 10.67 0.39500001
12.751 10.679 0.37799999
12.745 10.68 0.359
12.729 10.685 0.34099999
12.711 10.691 0.32300001
12.706 10.692 0.30500001
12.687 10.698 0.287
12.666 10.704 0.26899999
12.672 10.701 0.25
12.644 10.711 0.23199999
12.624 10.717 0.213
12.61 10.721 0.19499999
12.595 10.725 0.176
12.59 10.726 0.15800001
12.58 10.729 0.139
12.561 10.735 0.12
12.566 10.733 0.102
12.524 10.746 0.082999997
12.5 10.754 0.064000003
12.491 10.756 0.045000002
12.481 10.759 0.026000001
12.448 10.77 0.0070000002
13.23 10.571 2.55
13.253 10.562 2.526
13.239 10.567 2.5109999
13.271 10.555 2.484
13.253 10.56 2.47
13.254 10.56 2.451
13.25 10.56 2.434
13.263 10.555 2.4119999
13.269 10.553 2.392
13.265 10.553 2.375
13.27 10.551 2.355
13.266 10.552 2.3380001
13.262 10.552 2.3199999
13.259 10.553 2.303
13.264 10.551 2.283
13.246 10.556 2.2690001
13.229 10.561 2.2550001
13.208 10.568 2.2409999
13.185 10.575 2.2279999
13.14 10.59 2.2190001
13.15 10.586 2.198
12.737 10.671 0.58099997
12.725 10.674 0.56300002
12.701 10.682 0.546
12.71 10.678 0.52700001
12.714 10.676 0.50800002
12.701 10.68 0.49000001
12.705 10.678 0.472
12.717 10.673 0.45300001
12.706 10.677 0.435
12.731 10.668 0.41499999
12.732 10.667 0.39700001
12.732 10.666 0.37900001
12.711 10.672 0.361
12.709 10.673 0.34200001
12.682 10.681 0.324
12.69 10.678 0.30599999
12.677 10.682 0.287
12.657 10.688 0.26899999
12.647 10.69 0.25099999
12.619 10.699 0.233
12.599 10.705 0.214
12.604 10.703 0.19499999
12.594 10.706 0.177
12.57 10.713 0.15800001
12.565 10.714 0.14
12.546 10.72 0.121
12.55 10.718 0.102
12.515 10.729 0.082999997
12.508 10.731 0.064000003
12.494 10.735 0.046
12.484 10.737 0.027000001
12.456 10.746 0.0080000004
13.252 10.544 2.543
13.251 10.544 2.5250001
13.26 10.54 2.5039999
13.266 10.538 2.4849999
13.265 10.537 2.4660001
13.248 10.542 2.4519999
13.264 10.537 2.4300001
13.258 10.538 2.4130001
13.281 10.529 2.3889999
13.259 10.536 2.3759999
13.275 10.53 2.3529999
13.279 10.528 2.3340001
13.257 10.535 2.3210001
13.254 10.536 2.303
13.249 10.537 2.286
13.245 10.537 2.2690001
13.215 10.547 2.257
13.165 10.564 2.25
13.152 10.568 2.234
13.149 10.568 2.2160001
12.657 10.676 0.51099998
12.646 10.679 0.493
12.649 10.677 0.47400001
12.649 10.677 0.45500001
12.653 10.675 0.43700001
12.657 10.673 0.41800001
12.659 10.671 0.39899999
12.639 10.677 0.38100001
12.669 10.667 0.36199999
12.67 10.666 0.34400001
12.665 10.667 0.32499999
12.67 10.664 0.30700001
12.664 10.666 0.28799999
12.642 10.673 0.27000001
12.632 10.675 0.252
12.636 10.673 0.233
12.607 10.682 0.215
12.617 10.679 0.19599999
12.593 10.686 0.177
12.564 10.695 0.15899999
12.559 10.696 0.14
12.549 10.699 0.122
12.537 10.703 0.103
12.526 10.705 0.083999999
12.497 10.714 0.064999998
12.488 10.717 0.046
12.478 10.72 0.027000001
12.478 10.719 0.0080000004
13.254 10.526 2.5610001
13.263 10.522 2.54
13.264 10.521 2.5209999
13.25 10.525 2.506
13.255 10.523 2.4860001
13.264 10.519 2.4660001
13.269 10.517 2.4460001
13.256 10.521 2.431
13.266 10.517 2.4100001
13.257 10.519 2.3940001
13.265 10.516 2.3729999
13.277 10.511 2.352
13.264 10.515 2.3369999
13.256 10.517 2.3210001
13.249 10.519 2.3039999
13.239 10.522 2.2880001
13.226 10.525 2.2720001
13.163 10.546 2.2679999
13.145 10.552 2.2539999
13.126 10.558 2.2390001
12.618 10.666 0.43799999
12.601 10.672 0.41999999
12.583 10.677 0.40200001
12.58 10.677 0.38299999
12.588 10.674 0.36500001
12.599 10.67 0.34599999
12.592 10.672 0.32699999
12.587 10.673 0.30899999
12.59 10.671 0.28999999
12.602 10.667 0.271
12.598 10.667 0.25299999
12.608 10.663 0.234
12.587 10.67 0.215
12.587 10.669 0.197
12.577 10.672 0.178
12.572 10.673 0.16
12.553 10.679 0.141
12.538 10.683 0.122
12.538 10.682 0.103
12.524 10.686 0.085000001
12.506 10.692 0.066
12.491 10.696 0.046999998
12.477 10.7 0.028000001
12.468 10.703 0.0089999996
13.254 10.507 2.5780001
13.234 10.513 2.5650001
13.248 10.508 2.543
13.258 10.504 2.5220001
13.262 10.502 2.5020001
13.263 10.501 2.484
13.263 10.5 2.4649999
13.264 10.5 2.4460001
13.273 10.496 2.4260001
13.26 10.5 2.4100001
13.275 10.494 2.3889999
13.275 10.493 2.3699999
13.259 10.498 2.3559999
13.259 10.497 2.3369999
13.243 10.503 2.323
13.23 10.506 2.3069999
13.192 10.518 2.2980001
13.161 10.528 2.286
13.129 10.539 2.2750001
13.128 10.538 2.257
12.545 10.669 0.38499999
12.539 10.67 0.366
12.539 10.67 0.34799999
12.514 10.677 0.329
12.509 10.678 0.31099999
12.52 10.674 0.292
12.526 10.671 0.273
12.535 10.668 0.25400001
12.535 10.667 0.235
12.535 10.667 0.21600001
12.534 10.666 0.198
12.529 10.667 0.17900001
12.535 10.665 0.16
12.542 10.662 0.142
12.532 10.664 0.123
12.509 10.671 0.104
12.514 10.669 0.085000001
12.495 10.675 0.066
12.481 10.679 0.048
12.48 10.679 0.028999999
12.471 10.681 0.0099999998
13.254 10.489 2.596
13.253 10.489 2.5780001
13.252 10.488 2.5599999
13.247 10.489 2.5420001
13.265 10.483 2.5190001
13.253 10.486 2.5039999
13.257 10.484 2.484
13.271 10.479 2.4619999
13.249 10.486 2.4489999
13.263 10.48 2.427
13.241 10.487 2.414
13.274 10.475 2.388
13.27 10.476 2.3710001
13.257 10.48 2.3559999
13.249 10.482 2.339
13.23 10.488 2.325
13.2 10.497 2.3139999
13.182 10.503 2.299
13.151 10.513 2.2880001
12.46 10.673 0.27399999
12.455 10.674 0.25600001
12.461 10.672 0.237
12.459 10.671 0.21799999
12.463 10.67 0.199
12.487 10.661 0.18000001
12.458 10.67 0.161
12.48 10.662 0.142
12.462 10.668 0.123
12.467 10.665 0.105
12.478 10.661 0.086000003
12.47 10.663 0.067000002
12.446 10.67 0.048
12.451 10.668 0.028999999
12.432 10.674 0.0099999998
13.233 10.478 2.619
13.253 10.47 2.595
13.255 10.469 2.576
13.255 10.468 2.5580001
13.246 10.471 2.5420001
13.255 10.467 2.5209999
13.26 10.465 2.5009999
13.261 10.464 2.483
13.27 10.46 2.4619999
13.266 10.461 2.444
13.276 10.457 2.4230001
13.267 10.459 2.4070001
13.252 10.464 2.3929999
13.249 10.464 2.375
13.242 10.466 2.358
13.238 10.467 2.3410001
13.198 10.48 2.332
13.162 10.491 2.322
13.135 10.5 2.309
12.397 10.67 0.18099999
12.391 10.672 0.162
12.386 10.673 0.14300001
12.395 10.669 0.124
12.394 10.669 0.105
12.4 10.666 0.086000003
12.412 10.661 0.067000002
12.403 10.664 0.048
12.4 10.664 0.028999999
12.401 10.663 0.0099999998
13.237 10.459 2.6359999
13.252 10.453 2.6129999
13.267 10.448 2.5910001
13.234 10.458 2.5810001
13.254 10.451 2.5569999
13.258 10.449 2.5380001
13.254 10.449 2.52
13.27 10.443 2.4979999
13.26 10.446 2.4820001
13.27 10.442 2.461
13.27 10.442 2.4430001
13.271 10.441 2.424
13.262 10.443 2.408
13.255 10.445 2.391
13.236 10.451 2.3770001
13.218 10.456 2.3629999
13.209 10.458 2.3469999
13.169 10.471 2.3380001
13.119 10.487 2.3310001
12.355 10.661 0.106
12.332 10.668 0.086999997
12.337 10.666 0.068000004
12.331 10.667 0.048999999
12.327 10.668 0.028999999
12.341 10.663 0.0099999998
13.246 10.438 2.651
13.248 10.437 2.632
13.253 10.435 2.612
13.257 10.432 2.5929999
13.257 10.432 2.5739999
13.24 10.437 2.5599999
13.262 10.429 2.536
13.267 10.427 2.516
13.263 10.427 2.4990001
13.264 10.427 2.48
13.273 10.423 2.4590001
13.26 10.426 2.444
13.24 10.433 2.431
13.244 10.431 2.4119999
13.248 10.429 2.392
13.221 10.437 2.3800001
13.19 10.447 2.369
13.163 10.455 2.3570001
13.136 10.463 2.345
12.282 10.663 0.029999999
13.25 10.419 2.668
13.247 10.419 2.6500001
13.256 10.416 2.6289999
13.247 10.418 2.6129999
13.26 10.413 2.5910001
13.239 10.419 2.5780001
13.27 10.408 2.5510001
13.275 10.406 2.5320001
13.271 10.407 2.5139999
13.276 10.405 2.4949999
13.268 10.407 2.4779999
13.259 10.409 2.4619999
13.257 10.409 2.444
13.238 10.415 2.431
13.238 10.414 2.4119999
13.234 10.415 2.395
13.193 10.428 2.3859999
13.171 10.434 2.3729999
13.116 10.452 2.3670001
13.21 10.415 2.7149999
13.246 10.402 2.687
13.257 10.398 2.665
13.254 10.398 2.6470001
13.255 10.397 2.628
13.269 10.392 2.6070001
13.26 10.395 2.5899999
13.26 10.394 2.572
13.26 10.393 2.553
13.252 10.396 2.5369999
13.266 10.39 2.5150001
13.276 10.386 2.494
13.248 10.395 2.483
13.25 10.394 2.464
13.249 10.393 2.4449999
13.241 10.395 2.4289999
13.218 10.402 2.4159999
13.187 10.412 2.405
13.16 10.42 2.3929999
13.133 10.428 2.381
13.236 10.388 2.707
13.254 10.381 2.684
13.24 10.385 2.6689999
13.25 10.381 2.648
13.258 10.378 2.6270001
13.254 10.379 2.6099999
13.25 10.38 2.592
13.264 10.374 2.5699999
13.246 10.38 2.556
13.265 10.373 2.533
13.251 10.377 2.5179999
13.275 10.368 2.494
13.262 10.372 2.4779999
13.241 10.378 2.4649999
13.244 10.377 2.4460001
13.222 10.383 2.4330001
13.181 10.396 2.424
13.15 10.406 2.414
13.118 10.415 2.4030001
13.237 10.369 2.7249999
13.258 10.362 2.7
13.244 10.366 2.6849999
13.235 10.368 2.6689999
13.267 10.358 2.642
13.245 10.364 2.6300001
13.244 10.364 2.6110001
13.254 10.36 2.5899999
13.259 10.358 2.5710001
13.264 10.355 2.5510001
13.25 10.359 2.536
13.26 10.355 2.5150001
13.258 10.356 2.497
13.239 10.361 2.483
13.248 10.358 2.4630001
13.216 10.367 2.4519999
13.185 10.377 2.441
13.162 10.384 2.428
13.121 10.396 2.4200001
13.245 10.349 2.74
13.239 10.351 2.723
13.257 10.344 2.7
13.248 10.346 2.684
13.252 10.345 2.664
13.252 10.344 2.645
13.252 10.343 2.6270001
13.257 10.341 2.6070001
13.258 10.34 2.5880001
13.263 10.338 2.569
13.258 10.339 2.5510001
13.259 10.338 2.533
13.247 10.341 2.517
13.251 10.34 2.4979999
13.233 10.344 2.484
13.214 10.35 2.47
13.184 10.359 2.4590001
13.17 10.363 2.444
13.152 10.368 2.4300001
13.234 10.336 2.78
13.239 10.333 2.76
13.238 10.333 2.7409999
13.243 10.331 2.721
13.245 10.33 2.7019999
13.248 10.328 2.6830001
13.251 10.326 2.6630001
13.247 10.327 2.6459999
13.256 10.324 2.625
13.248 10.326 2.609
13.252 10.324 2.589
13.253 10.323 2.5710001
13.253 10.322 2.552
13.25 10.323 2.5339999
13.249 10.322 2.516
13.236 10.326 2.5009999
13.218 10.331 2.487
13.168 10.346 2.4809999
13.146 10.353 2.4679999
13.123 10.36 2.4549999
13.245 10.314 2.776
13.247 10.313 2.757
13.233 10.316 2.7420001
13.233 10.316 2.723
13.264 10.305 2.6960001
13.251 10.309 2.681
13.26 10.305 2.6600001
13.242 10.311 2.6470001
13.251 10.307 2.6259999
13.247 10.308 2.608
13.27 10.3 2.5840001
13.252 10.305 2.5699999
13.245 10.306 2.553
13.239 10.308 2.536
13.23 10.31 2.52
13.226 10.311 2.503
13.191 10.321 2.493
13.163 10.33 2.4820001
13.122 10.342 2.473
13.246 10.296 2.793
13.255 10.292 2.7720001
13.232 10.299 2.76
13.246 10.294 2.737
13.246 10.293 2.7190001
13.25 10.291 2.6989999
13.255 10.289 2.6789999
13.269 10.284 2.6570001
13.255 10.288 2.642
13.255 10.287 2.6240001
13.251 10.288 2.6059999
13.247 10.289 2.589
13.24 10.29 2.572
13.243 10.289 2.553
13.23 10.292 2.5380001
13.221 10.295 2.5220001
13.189 10.304 2.5109999
13.158 10.313 2.5009999
13.126 10.323 2.49
13.239 10.28 2.813
13.232 10.282 2.796
13.245 10.277 2.7739999
13.245 10.276 2.7550001
13.241 10.277 2.7379999
13.249 10.274 2.717
13.249 10.273 2.6989999
13.259 10.269 2.677
13.268 10.266 2.6559999
13.25 10.271 2.6429999
13.25 10.27 2.6240001
13.241 10.272 2.608
13.248 10.27 2.5880001
13.228 10.275 2.575
13.214 10.279 2.5599999
13.206 10.281 2.543
13.193 10.285 2.5280001
13.147 10.298 2.5209999
13.12 10.306 2.5090001
13.109 10.309 2.493
13.205 10.273 2.8410001
13.25 10.259 2.809
13.245 10.26 2.7920001
13.236 10.262 2.776
13.245 10.258 2.7550001
13.249 10.256 2.7349999
13.253 10.254 2.7149999
13.244 10.257 2.6989999
13.244 10.256 2.6800001
13.245 10.255 2.6619999
13.254 10.252 2.641
13.25 10.253 2.6240001
13.248 10.252 2.6059999
13.224 10.26 2.5940001
13.223 10.259 2.575
13.209 10.263 2.5599999
13.183 10.27 2.5480001
13.165 10.276 2.5350001
13.128 10.286 2.5250001
13.231 10.248 2.8510001
13.249 10.242 2.8269999
13.24 10.244 2.8110001
13.245 10.242 2.7909999
13.248 10.24 2.7709999
13.24 10.242 2.7550001
13.253 10.237 2.733
13.244 10.24 2.717
13.253 10.236 2.6960001
13.253 10.235 2.677
13.258 10.233 2.658
13.254 10.234 2.6400001
13.241 10.237 2.625
13.25 10.234 2.6040001
13.232 10.239 2.5910001
13.213 10.244 2.5769999
13.182 10.253 2.566
13.155 10.261 2.5550001
13.118 10.272 2.546
13.212 10.236 2.8740001
13.24 10.227 2.848
13.24 10.226 2.829
13.24 10.226 2.8099999
13.248 10.223 2.789
13.241 10.224 2.773
13.248 10.221 2.7520001
13.253 10.219 2.7320001
13.253 10.219 2.714
13.244 10.221 2.698
13.253 10.217 2.677
13.258 10.215 2.6570001
13.24 10.22 2.6429999
13.229 10.223 2.628
13.222 10.225 2.6110001
13.217 10.225 2.5940001
13.194 10.232 2.5810001
13.168 10.239 2.569
13.122 10.253 2.563
13.171 10.232 2.904
13.229 10.213 2.868
13.244 10.208 2.845
13.235 10.21 2.829
13.252 10.204 2.806
13.257 10.202 2.786
13.243 10.206 2.7709999
13.243 10.205 2.753
13.252 10.202 2.7320001
13.239 10.205 2.717
13.266 10.196 2.691
13.253 10.2 2.6760001
13.253 10.199 2.6570001
13.231 10.205 2.645
13.221 10.208 2.6289999
13.212 10.21 2.6129999
13.194 10.215 2.599
13.139 10.231 2.595
13.135 10.232 2.5769999
13.122 10.235 2.562
13.185 10.209 2.918
13.236 10.193 2.8840001
13.244 10.19 2.8629999
13.23 10.194 2.849
13.23 10.193 2.8299999
13.243 10.189 2.8080001
13.252 10.185 2.7869999
13.247 10.186 2.7690001
13.229 10.191 2.756
13.257 10.182 2.73
13.257 10.181 2.711
13.261 10.179 2.691
13.245 10.184 2.677
13.227 10.189 2.664
13.217 10.191 2.648
13.211 10.192 2.631
13.18 10.201 2.6199999
13.162 10.206 2.6070001
13.125 10.217 2.598
13.114 10.22 2.582
13.152 10.202 2.9460001
13.218 10.181 2.9070001
13.246 10.172 2.8800001
13.244 10.172 2.8629999
13.247 10.17 2.8429999
13.239 10.172 2.8269999
13.242 10.17 2.8069999
13.233 10.172 2.7909999
13.242 10.169 2.77
13.247 10.167 2.75
13.252 10.165 2.73
13.261 10.162 2.7090001
13.247 10.165 2.694
13.238 10.167 2.678
13.235 10.168 2.661
13.211 10.174 2.6489999
13.189 10.181 2.6359999
13.161 10.188 2.625
13.12 10.2 2.6170001
13.108 10.203 2.6010001
13.152 10.184 2.964
13.232 10.159 2.921
13.225 10.16 2.904
13.225 10.16 2.8859999
13.234 10.156 2.8640001
13.242 10.153 2.8429999
13.237 10.154 2.826
13.256 10.148 2.802
13.237 10.153 2.789
13.247 10.15 2.7679999
13.256 10.146 2.747
13.265 10.143 2.7260001
13.244 10.149 2.7130001
13.243 10.148 2.6949999
13.224 10.153 2.681
13.215 10.156 2.665
13.179 10.166 2.6559999
13.142 10.176 2.648
13.114 10.184 2.6359999
13.117 10.183 2.6170001
13.228 10.142 2.9400001
13.234 10.14 2.9200001
13.234 10.139 2.901
13.238 10.137 2.881
13.248 10.134 2.859
13.251 10.132 2.8399999
13.237 10.136 2.825
13.246 10.133 2.8039999
13.246 10.132 2.786
13.242 10.133 2.7679999
13.262 10.126 2.744
13.247 10.13 2.73
13.243 10.131 2.7130001
13.214 10.139 2.7019999
13.21 10.139 2.684
13.183 10.147 2.6730001
13.155 10.155 2.6619999
13.132 10.161 2.6489999
13.132 10.16 2.631
13.139 10.158 2.6099999
13.145 10.155 2.5899999
13.234 10.123 2.9560001
13.23 10.124 2.9389999
13.248 10.118 2.915
13.229 10.123 2.902
13.246 10.117 2.878
13.242 10.118 2.8610001
13.242 10.117 2.842
13.237 10.118 2.825
13.251 10.113 2.802
13.255 10.111 2.7820001
13.251 10.112 2.7650001
13.233 10.117 2.7509999
13.225 10.119 2.7349999
13.216 10.121 2.7190001
13.214 10.121 2.701
13.187 10.128 2.6900001
13.16 10.136 2.6789999
13.123 10.146 2.6700001
13.14 10.14 2.6470001
13.222 10.109 2.9779999
13.246 10.101 2.9519999
13.234 10.104 2.937
13.251 10.098 2.9130001
13.229 10.104 2.901
13.237 10.101 2.8800001
13.246 10.098 2.858
13.224 10.104 2.846
13.25 10.095 2.8199999
13.246 10.096 2.803
13.246 10.096 2.7839999
13.232 10.099 2.77
13.234 10.098 2.75
13.232 10.098 2.7320001
13.209 10.104 2.72
13.182 10.111 2.7090001
13.145 10.122 2.7
13.113 10.131 2.6900001
13.114 10.13 2.671
13.225 10.09 2.9760001
13.225 10.089 2.957
13.224 10.089 2.9389999
13.228 10.087 2.9189999
13.224 10.088 2.901
13.224 10.087 2.8829999
13.245 10.08 2.858
13.246 10.079 2.839
13.258 10.075 2.8169999
13.236 10.08 2.8050001
13.236 10.08 2.786
13.227 10.082 2.77
13.222 10.083 2.753
13.199 10.089 2.7409999
13.184 10.093 2.7260001
13.154 10.101 2.7160001
13.108 10.114 2.71
13.109 10.113 2.691
13.225 10.072 2.994
13.225 10.071 2.9749999
13.238 10.066 2.9519999
13.233 10.067 2.9349999
13.241 10.064 2.914
13.241 10.063 2.895
13.232 10.066 2.8800001
13.236 10.064 2.8599999
13.255 10.058 2.836
13.255 10.057 2.8169999
13.241 10.061 2.803
13.232 10.062 2.786
13.225 10.064 2.77
13.217 10.066 2.753
13.177 10.077 2.7460001
13.149 10.084 2.7349999
13.098 10.099 2.73
13.072 10.106 2.7190001
13.23 10.052 2.9920001
13.215 10.056 2.977
13.238 10.048 2.951
13.224 10.052 2.937
13.248 10.044 2.911
13.241 10.046 2.895
13.25 10.043 2.8729999
13.241 10.045 2.858
13.255 10.04 2.835
13.25 10.041 2.8180001
13.232 10.045 2.8039999
13.227 10.046 2.7869999
13.213 10.049 2.773
13.186 10.057 2.7609999
13.163 10.063 2.7490001
13.121 10.074 2.7420001
13.047 10.095 2.743
13.231 10.034 2.99
13.234 10.032 2.971
13.237 10.031 2.951
13.232 10.032 2.934
13.237 10.03 2.914
13.225 10.032 2.898
13.246 10.026 2.8740001
13.241 10.026 2.8570001
13.231 10.028 2.8410001
13.217 10.032 2.826
13.217 10.031 2.8080001
13.222 10.029 2.7880001
13.181 10.041 2.7809999
13.144 10.051 2.7720001
13.121 10.057 2.76
13.239 10.013 2.987
13.234 10.014 2.97
13.233 10.014 2.9519999
13.242 10.011 2.9300001
13.227 10.014 2.9159999
13.236 10.011 2.8940001
13.236 10.011 2.8759999
13.236 10.01 2.8570001
13.236 10.009 2.839
13.241 10.008 2.819
13.213 10.015 2.8080001
13.189 10.021 2.796
13.149 10.032 2.789
13.116 10.04 2.779
13.032 10.064 2.7839999
13.225 9.9989996 2.99
13.236 9.9960003 2.9679999
13.231 9.9969997 2.951
13.241 9.993 2.9289999
13.241 9.9919996 2.911
13.246 9.9899998 2.891
13.236 9.993 2.875
13.227 9.9949999 2.859
13.236 9.9910002 2.8380001
13.217 9.9960003 2.825
13.177 10.007 2.8180001
13.144 10.016 2.8080001
13.111 10.025 2.799
13.238 9.9779997 2.9860001
13.233 9.9779997 2.9679999
13.242 9.9750004 2.947
13.246 9.9729996 2.927
13.241 9.974 2.9100001
13.241 9.974 2.891
13.232 9.9759998 2.8759999
13.222 9.9779997 2.8599999
13.213 9.9799995 2.8440001
13.199 9.9829998 2.829
13.144 9.9980001 2.826
13.121 10.004 2.8139999
13.233 9.9610004 2.9860001
13.242 9.9569998 2.9649999
13.223 9.9619999 2.9519999
13.237 9.9580002 2.9289999
13.246 9.9549999 2.908
13.232 9.9580002 2.8929999
13.213 9.9630003 2.8800001
13.204 9.9650002 2.8640001
13.181 9.9700003 2.852
13.149 9.9790001 2.8429999
13.125 9.9849997 2.8310001
13.065 10.001 2.829
13.238 9.941 2.984
13.244 9.9390001 2.964
13.237 9.9399996 2.947
13.246 9.9370003 2.9260001
13.233 9.9399996 2.911
13.227 9.941 2.8940001
13.213 9.9449997 2.8789999
13.181 9.9530001 2.8699999
13.151 9.9610004 2.8599999
13.121 9.9689999 2.8499999
13.105 9.9720001 2.836
13.229 9.9259996 2.9860001
13.228 9.9250002 2.967
13.228 9.9250002 2.9489999
13.243 9.9200001 2.9260001
13.218 9.9259996 2.914
13.209 9.9280005 2.8989999
13.177 9.9370003 2.8889999
13.154 9.9420004 2.8770001
13.116 9.9519997 2.869
13.096 9.9569998 2.8559999
13.238 9.9049997 2.9820001
13.242 9.9029999 2.9619999
13.229 9.9069996 2.948
13.228 9.9060001 2.9289999
13.214 9.9099998 2.915
13.177 9.9189997 2.9070001
13.145 9.927 2.898
13.112 9.9359999 2.8889999
13.091 9.941 2.8759999
13.224 9.8909998 2.9860001
13.225 9.8900003 2.967
13.228 9.8889999 2.947
13.21 9.8929996 2.934
13.173 9.9029999 2.9260001
13.14 9.9110003 2.9170001
13.126 9.9139996 2.902
13.087 9.9250002 2.895
13.229 9.8719997 2.983
13.229 9.8710003 2.9649999
13.21 9.8760004 2.9519999
13.174 9.8850002 2.944
13.146 9.8920002 2.934
13.113 9.901 2.924
13.083 9.908 2.914
13.216 9.8570004 2.987
13.22 9.8549995 2.967
13.192 9.8620005 2.957
13.132 9.8780003 2.9560001
13.113 9.8830004 2.9419999
13.088 9.8889999 2.931
13.202 9.8430004 2.99
13.179 9.8479996 2.9779999
13.142 9.8579998 2.971
13.104 9.8669996 2.9630001
13.082 9.8730001 2.951
13.142 9.8400002 2.9890001
13.114 9.8470001 2.9779999
13.081 9.8549995 2.9690001
13.084 9.8380003 2.9860001
13.056 9.6639996 2.9879999
14.297 10.827 0.041999999
14.296 10.827 0.016000001
14.275 10.816 0.068999998
14.269 10.823 0.043000001
14.3 10.771 0.017999999
14.24 10.827 0.096000001
14.248 10.812 0.07
14.272 10.771 0.045000002
14.292 10.737 0.02
14.209 10.831 0.123
14.234 10.788 0.097000003
14.249 10.763 0.071999997
14.276 10.716 0.046999998
14.272 10.721 0.021
14.183 10.829 0.176
14.19 10.816 0.15000001
14.204 10.79 0.124
14.22 10.762 0.098999999
14.242 10.725 0.074000001
14.248 10.713 0.048
14.25 10.707 0.023
14.157 10.826 0.20299999
14.159 10.82 0.177
14.185 10.776 0.15099999
14.21 10.734 0.126
14.218 10.718 0.101
14.222 10.709 0.075000003
14.221 10.708 0.048999999
14.226 10.698 0.024
14.125 10.829 0.23
14.141 10.802 0.204
14.157 10.773 0.178
14.179 10.737 0.153
14.191 10.716 0.127
14.196 10.705 0.102
14.187 10.716 0.075999998
14.194 10.703 0.050000001
14.188 10.71 0.024
14.096 10.83 0.257
14.11 10.806 0.23100001
14.122 10.784 0.205
14.15 10.737 0.18000001
14.18 10.688 0.155
14.17 10.701 0.12899999
14.167 10.704 0.103
14.163 10.707 0.077
14.162 10.706 0.050999999
14.162 10.705 0.026000001
14.073 10.821 0.28400001
14.092 10.788 0.25799999
14.12 10.742 0.233
14.131 10.721 0.207
14.137 10.71 0.18099999
14.141 10.7 0.156
14.14 10.7 0.13
14.137 10.703 0.104
14.136 10.702 0.078000002
14.133 10.705 0.052000001
14.134 10.7 0.027000001
14.041 10.828 0.338
14.038 10.831 0.31200001
14.073 10.773 0.28600001
14.083 10.754 0.25999999
14.106 10.716 0.234
14.103 10.718 0.208
14.113 10.7 0.182
14.104 10.712 0.15700001
14.106 10.707 0.131
14.104 10.706 0.105
14.101 10.71 0.079000004
14.097 10.713 0.052999999
14.099 10.708 0.027000001
14.004 10.84 0.36500001
14.024 10.805 0.33899999
14.04 10.777 0.31299999
14.059 10.746 0.287
14.085 10.702 0.26100001
14.082 10.705 0.235
14.081 10.704 0.20900001
14.083 10.699 0.184
14.068 10.719 0.15800001
14.075 10.706 0.132
14.078 10.7 0.106
14.071 10.708 0.079999998
14.07 10.707 0.054000001
14.07 10.706 0.028999999
14.002 10.791 0.366
14.02 10.762 0.34
14.039 10.73 0.31400001
14.049 10.711 0.28799999
14.05 10.708 0.26199999
14.051 10.703 0.237
14.048 10.707 0.211
14.049 10.702 0.185
14.046 10.705 0.15899999
14.045 10.704 0.133
14.042 10.707 0.107
14.049 10.694 0.081
14.05 10.69 0.056000002
13.999 10.748 0.36700001
14.008 10.732 0.34099999
14.032 10.693 0.315
14.021 10.707 0.28999999
14.022 10.703 0.264
14.021 10.702 0.23800001
14.023 10.697 0.212
14.022 10.696 0.186
14.027 10.687 0.16
14.016 10.702 0.134
14.018 10.695 0.108
13.993 10.705 0.317
13.99 10.708 0.29100001
13.996 10.696 0.26499999
14 10.687 0.23899999
13.988 10.703 0.213
13.982 10.711 0.18700001
13.987 10.702 0.161
13.98 10.71 0.13500001
13.962 10.698 0.23999999
13.953 10.71 0.214
13.955 10.705 0.18799999
13.95 10.711 0.162
13.929 10.7 0.215
13.92 10.711 0.189
13.915 10.715 0.13699999
13.933 10.685 0.112
13.413 11.457 1.4859999
13.411 11.452 1.403
13.408 11.417 1.54
13.415 11.404 1.511
13.416 11.4 1.484
13.405 11.414 1.457
13.4 11.419 1.4299999
13.394 11.427 1.403
13.402 11.412 1.374
13.393 11.389 1.54
13.406 11.367 1.511
13.417 11.349 1.4809999
13.414 11.35 1.454
13.402 11.366 1.428
13.406 11.358 1.4
13.402 11.362 1.373
13.389 11.345 1.539
13.407 11.316 1.5089999
13.402 11.321 1.482
13.409 11.308 1.4529999
13.399 11.321 1.427
13.408 11.305 1.398
13.391 11.328 1.372
13.39 11.292 1.5369999
13.412 11.257 1.506
13.403 11.268 1.48
13.406 11.261 1.452
13.402 11.265 1.425
13.403 11.262 1.397
13.397 11.268 1.37
13.392 11.273 1.3430001
13.398 11.231 1.534
13.405 11.219 1.505
13.4 11.224 1.478
13.4 11.221 1.451
13.398 11.222 1.423
13.396 11.223 1.396
13.385 11.236 1.37
13.325 11.413 2.98
13.406 11.17 1.531
13.398 11.179 1.5039999
13.396 11.18 1.477
13.394 11.181 1.45
13.394 11.178 1.4220001
13.408 11.154 1.393
13.364 11.219 1.3710001
13.313 11.382 2.9779999
13.322 11.365 2.947
13.314 11.374 2.9200001
13.311 11.378 2.8929999
13.336 11.337 2.8570001
13.398 11.132 1.53
13.402 11.122 1.502
13.397 11.128 1.475
13.391 11.135 1.448
13.401 11.117 1.42
13.391 11.131 1.3940001
13.355 11.182 1.3710001
13.323 11.317 2.9690001
13.322 11.316 2.941
13.316 11.323 2.914
13.324 11.308 2.8829999
13.32 11.312 2.8559999
13.321 11.309 2.8269999
13.328 11.295 2.7969999
13.329 11.291 2.7679999
13.396 11.087 1.528
13.4 11.079 1.5
13.398 11.08 1.473
13.393 11.085 1.446
13.396 11.078 1.419
13.394 11.078 1.392
13.344 11.151 1.3710001
13.323 11.178 1.318
13.328 11.168 1.29
13.337 11.151 1.262
13.309 11.289 2.9679999
13.313 11.281 2.938
13.312 11.28 2.9100001
13.303 11.291 2.8840001
13.316 11.27 2.852
13.309 11.277 2.826
13.317 11.263 2.7950001
13.321 11.254 2.7650001
13.322 11.251 2.737
13.312 11.263 2.711
13.323 11.243 2.6800001
13.373 11.075 1.557
13.402 11.029 1.525
13.4 11.03 1.498
13.389 11.044 1.473
13.39 11.041 1.4450001
13.391 11.037 1.418
13.396 11.027 1.39
13.324 11.132 1.372
13.325 11.128 1.344
13.51 10.821 0.94700003
13.527 10.793 0.91900003
13.549 10.759 0.89099997
13.306 11.247 2.9920001
13.315 11.231 2.961
13.312 11.233 2.9330001
13.311 11.232 2.905
13.313 11.226 2.8759999
13.315 11.222 2.8469999
13.311 11.225 2.8199999
13.316 11.215 2.79
13.307 11.226 2.7639999
13.312 11.217 2.7349999
13.3 11.232 2.71
13.307 11.218 2.6789999
13.31 11.213 2.6500001
13.319 11.197 2.6199999
13.311 11.206 2.5940001
13.397 10.99 1.524
13.389 10.999 1.498
13.4 10.98 1.469
13.39 10.992 1.443
13.387 10.993 1.4170001
13.388 10.991 1.3890001
13.319 11.09 1.3710001
13.487 10.81 0.97500002
13.506 10.78 0.94700003
13.527 10.746 0.91799998
13.542 10.722 0.89099997
13.563 10.689 0.86299998
13.294 11.215 2.99
13.299 11.206 2.96
13.309 11.189 2.928
13.302 11.196 2.902
13.299 11.199 2.875
13.306 11.186 2.8440001
13.302 11.189 2.8169999
13.31 11.175 2.7869999
13.312 11.17 2.7579999
13.3 11.185 2.733
13.313 11.163 2.701
13.301 11.178 2.6760001
13.303 11.173 2.6470001
13.313 11.156 2.6159999
13.31 11.158 2.589
13.302 11.168 2.563
13.315 11.146 2.5320001
13.315 11.144 2.5039999
13.319 11.136 2.4749999
13.359 11.001 1.5549999
13.395 10.944 1.522
13.386 10.956 1.497
13.39 10.947 1.469
13.387 10.948 1.442
13.39 10.942 1.415
13.382 10.951 1.3890001
13.336 11.017 1.367
13.39 10.936 1.3329999
13.4 10.918 1.3049999
13.392 10.928 1.279
13.39 10.929 1.252
13.389 10.927 1.225
13.393 10.919 1.198
13.389 10.922 1.171
13.395 10.912 1.1440001
13.393 10.913 1.117
13.394 10.909 1.09
13.389 10.914 1.063
13.398 10.898 1.035
13.441 10.833 1.005
13.477 10.778 0.97500002
13.503 10.737 0.94599998
13.515 10.717 0.91900003
13.532 10.69 0.89099997
