ply
format ascii 1.0
comment PCL generated
element vertex 1877
property float x
property float y
property float z
element camera 0
property float view_px
property float view_py
property float view_pz
property float x_axisx
property float x_axisy
property float x_axisz
property float y_axisx
property float y_axisy
property float y_axisz
property float z_axisx
property float z_axisy
property float z_axisz
property float focal
property float scalex
property float scaley
property float centerx
property float centery
property int viewportx
property int viewporty
property float k1
property float k2
end_header
3.957 3.1600001 0.055
3.964 3.1470001 0.046999998
3.9719999 3.1340001 0.039000001
3.9579999 3.1589999 0.029999999
3.9170001 3.2349999 0.41800001
3.9089999 3.2479999 0.40799999
3.9100001 3.247 0.40000001
3.9070001 3.2520001 0.391
3.9119999 3.244 0.384
3.9089999 3.25 0.375
3.9059999 3.2550001 0.366
3.9100001 3.2490001 0.35800001
3.9119999 3.2449999 0.34999999
3.911 3.2479999 0.34200001
3.9059999 3.257 0.333
3.9170001 3.2379999 0.32600001
3.905 3.2590001 0.31600001
3.9089999 3.2509999 0.308
3.905 3.2579999 0.29899999
3.905 3.2590001 0.29100001
3.9030001 3.263 0.28299999
3.914 3.2449999 0.27599999
3.914 3.243 0.26800001
3.914 3.2449999 0.259
3.9119999 3.2490001 0.25099999
3.9170001 3.24 0.243
3.9100001 3.2509999 0.234
3.905 3.26 0.22499999
3.9130001 3.247 0.21799999
3.9119999 3.2490001 0.20900001
3.9130001 3.247 0.20100001
3.908 3.256 0.193
3.9200001 3.2360001 0.185
3.915 3.2460001 0.177
3.9170001 3.2409999 0.169
3.9130001 3.2479999 0.16
3.9219999 3.233 0.153
3.9130001 3.2490001 0.14399999
3.9159999 3.243 0.13600001
3.9070001 3.26 0.127
3.9119999 3.2509999 0.119
3.915 3.2460001 0.111
3.9230001 3.233 0.103
3.9230001 3.233 0.094999999
3.9349999 3.2119999 0.086999997
3.9330001 3.2160001 0.079000004
3.9430001 3.1989999 0.071000002
3.9460001 3.194 0.063000001
3.951 3.1860001 0.054000001
3.964 3.164 0.046999998
3.974 3.1459999 0.039000001
3.98 3.138 0.029999999
3.9749999 3.145 0.022
3.9230001 3.2420001 0.40900001
3.921 3.244 0.40099999
3.927 3.2349999 0.39300001
3.925 3.2379999 0.38499999
3.921 3.2460001 0.37599999
3.9260001 3.2379999 0.368
3.9200001 3.2490001 0.359
3.9219999 3.2449999 0.35100001
3.918 3.2520001 0.34200001
3.9159999 3.256 0.333
3.9159999 3.2550001 0.32499999
3.9170001 3.2550001 0.317
3.9219999 3.2460001 0.30899999
3.914 3.26 0.30000001
3.9219999 3.2460001 0.29300001
3.918 3.253 0.28400001
3.921 3.2490001 0.27599999
3.918 3.2550001 0.26699999
3.9059999 3.2739999 0.25799999
3.9170001 3.2550001 0.25099999
3.915 3.2590001 0.242
3.915 3.2590001 0.234
3.9230001 3.2460001 0.227
3.911 3.267 0.21699999
3.928 3.2390001 0.20999999
3.9219999 3.2479999 0.20200001
3.924 3.2460001 0.19400001
3.9159999 3.2590001 0.184
3.9300001 3.2360001 0.178
3.9230001 3.2490001 0.169
3.9200001 3.253 0.16
3.931 3.234 0.153
3.9260001 3.243 0.14399999
3.9289999 3.2390001 0.13600001
3.924 3.247 0.127
3.924 3.247 0.119
3.9189999 3.256 0.111
3.9219999 3.2509999 0.103
3.9330001 3.233 0.094999999
3.9330001 3.233 0.086999997
3.948 3.207 0.079000004
3.9430001 3.2160001 0.071000002
3.951 3.2030001 0.063000001
3.9560001 3.194 0.054000001
3.9590001 3.1900001 0.046
3.967 3.177 0.037999999
3.9790001 3.155 0.029999999
3.99 3.138 0.022
3.9319999 3.2420001 0.39300001
3.9319999 3.243 0.38499999
3.9330001 3.2420001 0.377
3.931 3.2449999 0.368
3.928 3.25 0.359
3.9289999 3.2490001 0.35100001
3.937 3.2360001 0.34400001
3.928 3.2509999 0.33399999
3.9300001 3.247 0.32600001
3.9260001 3.2550001 0.317
3.924 3.2579999 0.30899999
3.925 3.2579999 0.30000001
3.9330001 3.2449999 0.29300001
3.9300001 3.2490001 0.285
3.938 3.237 0.27700001
3.931 3.2479999 0.26800001
3.915 3.276 0.25799999
3.9289999 3.253 0.25099999
3.9219999 3.2639999 0.242
3.9289999 3.2520001 0.235
3.937 3.24 0.227
3.9300001 3.2509999 0.21799999
3.928 3.2539999 0.20999999
3.9360001 3.2409999 0.20200001
3.934 3.2460001 0.19400001
3.938 3.2379999 0.186
3.9389999 3.237 0.178
3.9330001 3.247 0.169
3.9349999 3.2449999 0.161
3.9230001 3.2650001 0.152
3.9400001 3.2360001 0.145
3.9349999 3.2449999 0.13600001
3.938 3.24 0.12800001
3.9330001 3.2479999 0.119
3.9360001 3.244 0.111
3.9349999 3.2449999 0.103
3.9319999 3.2509999 0.094999999
3.9349999 3.2449999 0.086999997
3.9430001 3.2320001 0.079000004
3.9449999 3.2290001 0.07
3.9530001 3.2160001 0.063000001
3.961 3.2030001 0.055
3.961 3.2030001 0.046
3.971 3.1849999 0.037999999
3.9719999 3.1849999 0.029999999
3.9820001 3.168 0.022
3.9489999 3.2309999 0.38699999
3.947 3.2349999 0.37799999
3.9430001 3.2420001 0.36899999
3.934 3.257 0.359
3.9389999 3.2490001 0.35100001
3.9419999 3.244 0.34400001
3.9400001 3.2479999 0.33500001
3.9419999 3.244 0.32699999
3.9360001 3.2550001 0.31799999
3.941 3.2460001 0.31
3.9400001 3.2490001 0.30199999
3.9419999 3.2449999 0.294
3.9400001 3.2490001 0.285
3.9360001 3.257 0.27599999
3.938 3.2539999 0.26800001
3.9430001 3.244 0.26100001
3.9389999 3.2509999 0.252
3.9349999 3.2590001 0.243
3.947 3.2390001 0.236
3.9319999 3.2639999 0.226
3.9400001 3.2509999 0.219
3.9460001 3.2409999 0.211
3.9419999 3.247 0.20200001
3.944 3.244 0.19400001
3.948 3.2379999 0.186
3.944 3.244 0.178
3.9419999 3.2479999 0.169
3.9419999 3.2490001 0.161
3.9449999 3.244 0.153
3.9489999 3.237 0.145
3.948 3.24 0.13699999
3.9430001 3.247 0.12800001
3.9449999 3.2449999 0.12
3.9449999 3.244 0.112
3.9449999 3.2449999 0.103
3.948 3.24 0.094999999
3.944 3.247 0.086999997
3.938 3.2579999 0.078000002
3.9349999 3.2620001 0.07
3.9530001 3.233 0.061999999
3.961 3.22 0.054000001
3.9660001 3.211 0.046
3.974 3.198 0.037999999
3.984 3.181 0.029999999
3.9890001 3.1719999 0.022
3.9519999 3.2420001 0.36899999
3.951 3.2449999 0.361
3.951 3.2460001 0.352
3.954 3.2409999 0.345
3.95 3.2479999 0.336
3.9430001 3.2590001 0.32600001
3.9430001 3.26 0.31799999
3.948 3.2509999 0.31
3.9489999 3.2490001 0.30199999
3.947 3.2539999 0.29300001
3.951 3.247 0.28600001
3.95 3.25 0.27700001
3.948 3.2520001 0.26899999
3.9460001 3.257 0.25999999
3.9560001 3.24 0.25299999
3.9419999 3.263 0.243
3.954 3.243 0.236
3.9489999 3.2520001 0.227
3.951 3.2490001 0.219
3.95 3.2509999 0.211
3.9530001 3.2460001 0.20299999
3.9530001 3.2460001 0.19499999
3.951 3.25 0.186
3.954 3.244 0.178
3.9560001 3.2409999 0.17
3.9560001 3.2420001 0.162
3.9560001 3.2420001 0.153
3.9530001 3.2479999 0.145
3.9579999 3.24 0.13699999
3.9530001 3.247 0.12800001
3.9549999 3.244 0.12
3.9619999 3.2320001 0.112
3.9579999 3.24 0.104
3.9560001 3.243 0.094999999
3.9560001 3.243 0.086999997
3.9549999 3.2460001 0.079000004
3.9590001 3.2379999 0.071000002
3.95 3.2539999 0.061999999
3.96 3.237 0.054000001
3.9630001 3.233 0.046
3.9679999 3.224 0.037999999
3.9760001 3.211 0.029999999
3.9860001 3.194 0.022
3.9660001 3.237 0.36199999
3.964 3.24 0.35299999
3.9579999 3.2490001 0.34400001
3.9619999 3.244 0.336
3.9649999 3.2390001 0.329
3.9560001 3.2550001 0.31900001
3.9660001 3.2379999 0.31200001
3.951 3.2620001 0.30199999
3.9619999 3.2449999 0.29499999
3.9579999 3.2509999 0.28600001
3.957 3.253 0.27700001
3.9549999 3.2579999 0.26899999
3.957 3.253 0.26100001
3.9590001 3.2509999 0.25299999
3.957 3.2550001 0.244
3.9519999 3.263 0.235
3.9619999 3.2460001 0.228
3.957 3.2550001 0.219
3.96 3.2509999 0.211
3.9649999 3.2420001 0.204
3.961 3.2479999 0.19499999
3.96 3.2509999 0.186
3.9579999 3.2550001 0.178
3.957 3.257 0.17
3.974 3.2279999 0.163
3.964 3.2449999 0.154
3.9660001 3.2420001 0.145
3.9660001 3.2420001 0.13699999
3.97 3.2349999 0.12899999
3.9579999 3.256 0.12
3.9630001 3.2490001 0.112
3.971 3.2349999 0.104
3.964 3.2460001 0.096000001
3.967 3.2420001 0.086999997
3.967 3.2420001 0.079000004
3.9660001 3.243 0.071000002
3.9660001 3.244 0.061999999
3.9630001 3.25 0.054000001
3.97 3.237 0.046
3.9760001 3.2279999 0.037999999
3.9809999 3.22 0.029999999
3.994 3.198 0.022
3.9779999 3.233 0.34599999
3.974 3.2390001 0.33700001
3.9719999 3.243 0.329
3.98 3.2309999 0.32100001
3.9779999 3.234 0.31299999
3.971 3.2460001 0.303
3.9619999 3.2620001 0.294
3.9660001 3.2539999 0.28600001
3.9760001 3.2390001 0.27900001
3.974 3.2420001 0.27000001
3.967 3.253 0.26100001
3.9679999 3.2520001 0.25299999
3.9660001 3.256 0.245
3.9690001 3.2509999 0.237
3.967 3.2550001 0.228
3.9760001 3.2390001 0.221
3.967 3.2539999 0.211
3.97 3.25 0.20299999
3.973 3.2460001 0.19499999
3.974 3.243 0.18700001
3.97 3.2509999 0.17900001
3.97 3.2509999 0.17
3.971 3.2490001 0.162
3.9779999 3.2379999 0.154
3.9749999 3.2420001 0.146
3.973 3.247 0.13699999
3.97 3.2509999 0.12899999
3.9779999 3.2379999 0.121
3.98 3.237 0.113
3.9760001 3.2420001 0.104
3.98 3.237 0.096000001
3.9749999 3.2449999 0.088
3.971 3.2509999 0.079000004
3.977 3.243 0.071000002
3.973 3.2490001 0.063000001
3.9760001 3.2449999 0.054000001
3.974 3.247 0.046
3.973 3.2490001 0.037999999
3.9860001 3.2279999 0.029999999
3.9960001 3.211 0.022
3.994 3.223 0.33899999
3.993 3.2260001 0.331
3.9890001 3.2320001 0.322
3.98 3.247 0.31200001
3.9779999 3.25 0.30399999
3.9779999 3.2509999 0.29499999
3.9809999 3.2460001 0.287
3.987 3.2360001 0.28
3.98 3.2490001 0.27000001
3.9790001 3.2509999 0.26199999
3.983 3.243 0.25400001
3.9879999 3.2349999 0.24600001
3.9790001 3.2509999 0.237
3.984 3.243 0.229
3.984 3.243 0.221
3.977 3.2550001 0.212
3.97 3.267 0.20299999
3.9779999 3.2539999 0.19499999
3.9809999 3.2479999 0.18700001
3.98 3.2509999 0.17900001
3.987 3.24 0.171
3.984 3.2449999 0.163
3.983 3.2460001 0.154
3.9809999 3.25 0.146
3.987 3.2409999 0.138
3.9879999 3.24 0.13
3.983 3.247 0.121
3.9820001 3.2490001 0.113
3.9849999 3.244 0.104
3.9879999 3.24 0.096000001
3.9849999 3.2449999 0.088
3.9860001 3.244 0.079999998
3.9860001 3.244 0.071000002
3.9860001 3.243 0.063000001
3.987 3.2420001 0.055
3.993 3.233 0.046999998
3.9890001 3.2390001 0.037999999
3.984 3.247 0.029999999
3.9860001 3.2460001 0.021
3.994 3.24 0.322
3.99 3.2479999 0.31299999
3.9879999 3.2509999 0.30399999
3.9960001 3.2379999 0.29699999
3.9990001 3.233 0.289
3.9960001 3.2379999 0.28
3.99 3.2490001 0.271
3.99 3.2479999 0.26300001
3.99 3.2490001 0.25400001
3.9949999 3.2409999 0.24699999
3.994 3.243 0.23800001
3.9920001 3.247 0.229
3.994 3.243 0.221
3.9949999 3.2420001 0.213
3.9879999 3.2539999 0.204
3.9849999 3.2579999 0.19499999
3.9860001 3.2579999 0.18700001
3.9949999 3.2420001 0.18000001
3.997 3.24 0.17200001
3.993 3.2460001 0.163
3.9920001 3.2479999 0.154
4.0050001 3.227 0.147
3.993 3.2479999 0.138
4 3.2349999 0.13
3.997 3.24 0.122
3.997 3.24 0.113
3.9879999 3.2550001 0.104
4.0089998 3.2219999 0.097000003
3.997 3.2420001 0.088
3.9960001 3.243 0.079999998
4.0050001 3.2290001 0.071999997
4.0050001 3.23 0.064000003
3.9990001 3.24 0.055
4.006 3.2279999 0.046999998
3.997 3.2420001 0.037999999
4.0040002 3.2309999 0.029999999
3.9960001 3.2460001 0.022
4 3.247 0.31299999
4.0079999 3.233 0.30599999
3.9960001 3.2539999 0.296
4.0029998 3.244 0.28799999
4.006 3.2379999 0.28099999
4.006 3.2379999 0.27200001
4.007 3.237 0.264
4.0050001 3.24 0.255
4.0050001 3.2409999 0.24699999
3.9960001 3.256 0.23800001
3.9990001 3.2520001 0.229
3.9960001 3.257 0.221
3.997 3.256 0.213
4 3.25 0.205
3.9990001 3.2509999 0.19599999
3.9979999 3.2539999 0.18799999
4.0029998 3.2460001 0.18000001
3.9960001 3.257 0.171
4.0029998 3.2460001 0.163
4.0040002 3.244 0.155
4.0100002 3.2349999 0.147
4.0050001 3.244 0.138
4.0009999 3.25 0.13
4.0089998 3.237 0.122
4.007 3.2409999 0.114
4.0050001 3.244 0.105
4.0029998 3.2490001 0.097000003
4.0089998 3.2390001 0.089000002
4.0050001 3.2460001 0.079999998
4.0110002 3.2349999 0.071999997
4.0170002 3.2260001 0.064000003
4.006 3.244 0.055
4.0009999 3.2520001 0.046999998
4.0019999 3.2509999 0.037999999
3.9990001 3.256 0.029999999
4.0159998 3.2290001 0.022
4.0149999 3.2390001 0.30599999
4.0110002 3.2449999 0.29699999
4.013 3.2420001 0.289
4.0139999 3.2409999 0.28099999
4.0089998 3.2490001 0.27200001
4.0120001 3.244 0.264
4.0100002 3.2490001 0.255
4.0110002 3.2479999 0.24699999
4.0089998 3.25 0.23800001
4.0079999 3.253 0.23
4.0159998 3.24 0.222
4.0079999 3.2520001 0.213
4.0019999 3.263 0.204
4.0100002 3.25 0.197
4.0120001 3.2460001 0.189
4.0050001 3.2579999 0.18000001
4.0149999 3.243 0.17200001
4.013 3.2449999 0.164
4.013 3.247 0.155
4.0139999 3.244 0.147
4.0159998 3.2420001 0.139
4.0159998 3.2420001 0.13
4.0159998 3.2409999 0.122
4.0120001 3.2490001 0.114
4.0100002 3.2520001 0.105
4.0079999 3.2550001 0.097000003
4.0139999 3.247 0.089000002
4.0110002 3.2509999 0.079999998
4.0240002 3.2290001 0.071999997
4.0149999 3.2449999 0.064000003
4.0209999 3.2360001 0.056000002
4.0159998 3.244 0.046999998
4.0170002 3.243 0.039000001
4.0209999 3.2360001 0.030999999
4.0180001 3.2409999 0.022
4.0279999 3.233 0.29899999
4.0240002 3.2409999 0.28999999
4.0209999 3.2449999 0.28099999
4.0219998 3.2449999 0.273
4.0219998 3.244 0.264
4.0240002 3.2409999 0.25600001
4.0279999 3.2360001 0.248
4.0279999 3.2349999 0.23999999
4.026 3.2390001 0.23100001
4.0209999 3.247 0.222
4.0229998 3.244 0.214
4.0170002 3.2539999 0.205
4.0240002 3.2420001 0.198
4.0170002 3.2550001 0.18799999
4.0149999 3.2590001 0.18000001
4.02 3.2509999 0.17200001
4.0180001 3.2539999 0.164
4.0209999 3.2490001 0.155
4.02 3.2509999 0.147
4.0250001 3.243 0.139
4.0279999 3.2379999 0.131
4.0250001 3.2420001 0.122
4.0310001 3.233 0.114
4.027 3.2390001 0.106
4.0219998 3.2479999 0.097000003
4.0229998 3.2479999 0.089000002
4.0180001 3.256 0.079999998
4.0279999 3.2390001 0.071999997
4.0209999 3.2509999 0.064000003
4.0240002 3.247 0.056000002
4.0229998 3.2479999 0.046999998
4.026 3.244 0.039000001
4.0289998 3.2390001 0.030999999
4.026 3.243 0.022
4.0370002 3.2349999 0.28200001
4.0339999 3.24 0.273
4.027 3.253 0.264
4.0349998 3.24 0.257
4.0300002 3.2479999 0.248
4.0300002 3.247 0.23899999
4.0279999 3.2509999 0.23100001
4.0380001 3.2349999 0.223
4.026 3.2550001 0.214
4.0310001 3.247 0.206
4.0349998 3.2409999 0.198
4.027 3.2550001 0.189
4.0310001 3.2479999 0.18099999
4.0310001 3.247 0.17299999
4.0250001 3.257 0.164
4.0300002 3.25 0.156
4.033 3.2449999 0.148
4.0300002 3.25 0.139
4.0289998 3.253 0.131
4.0359998 3.2409999 0.123
4.0380001 3.2379999 0.115
4.0300002 3.25 0.106
4.04 3.2360001 0.097999997
4.04 3.2349999 0.090000004
4.0300002 3.253 0.081
4.0320001 3.2490001 0.071999997
4.0300002 3.2509999 0.064000003
4.033 3.2479999 0.056000002
4.0339999 3.2449999 0.046999998
4.0300002 3.2520001 0.039000001
4.039 3.2379999 0.030999999
4.0469999 3.2249999 0.023
4.04 3.2460001 0.26499999
4.039 3.2479999 0.257
4.0409999 3.2449999 0.248
4.04 3.247 0.23999999
4.0430002 3.243 0.23199999
4.0450001 3.24 0.22400001
4.0450001 3.2390001 0.215
4.0430002 3.243 0.207
4.0440001 3.2409999 0.198
4.0440001 3.243 0.19
4.0469999 3.2360001 0.182
4.0469999 3.237 0.17299999
4.0419998 3.2449999 0.16500001
4.0370002 3.253 0.156
4.0349998 3.2579999 0.147
4.046 3.24 0.14
4.0440001 3.243 0.131
4.0500002 3.234 0.123
4.0440001 3.243 0.115
4.0489998 3.2349999 0.107
4.046 3.2409999 0.097999997
4.0409999 3.2479999 0.089000002
4.052 3.2309999 0.082000002
4.0469999 3.24 0.072999999
4.0359998 3.257 0.064000003
4.046 3.243 0.056000002
4.0370002 3.256 0.046999998
4.0450001 3.244 0.039000001
4.046 3.244 0.030999999
4.0359998 3.26 0.022
4.0510001 3.2449999 0.257
4.0549998 3.2390001 0.249
4.0440001 3.256 0.23999999
4.0469999 3.2509999 0.23199999
4.0500002 3.247 0.22400001
4.046 3.2550001 0.215
4.0469999 3.2520001 0.206
4.0580001 3.2349999 0.199
4.0510001 3.2460001 0.19
4.0560002 3.2379999 0.182
4.0570002 3.237 0.17399999
4.052 3.2460001 0.16500001
4.059 3.2349999 0.15700001
4.0500002 3.25 0.148
4.0479999 3.253 0.14
4.0510001 3.2479999 0.131
4.0539999 3.243 0.123
4.0510001 3.2490001 0.115
4.0560002 3.2409999 0.107
4.0549998 3.2420001 0.097999997
4.0619998 3.2309999 0.090000004
4.0489998 3.253 0.081
4.0500002 3.2509999 0.072999999
4.0619998 3.2320001 0.064999998
4.0539999 3.2449999 0.056000002
4.0549998 3.244 0.048
4.0560002 3.243 0.039999999
4.0570002 3.24 0.030999999
4.0549998 3.244 0.023
4.0650001 3.2390001 0.241
4.0650001 3.2390001 0.233
4.0570002 3.2509999 0.22400001
4.0599999 3.247 0.21600001
4.0580001 3.2509999 0.207
4.0630002 3.2420001 0.199
4.053 3.2579999 0.19
4.0679998 3.2349999 0.183
4.0609999 3.247 0.17399999
4.0650001 3.24 0.16599999
4.059 3.25 0.15700001
4.059 3.25 0.148
4.0570002 3.253 0.14
4.0539999 3.2579999 0.131
4.0549998 3.257 0.123
4.0560002 3.256 0.115
4.0609999 3.247 0.107
4.0539999 3.26 0.097999997
4.0630002 3.2449999 0.090000004
4.059 3.2520001 0.081
4.0619998 3.247 0.072999999
4.0609999 3.2479999 0.064999998
4.0669999 3.2390001 0.057
4.0650001 3.243 0.048
4.0679998 3.2390001 0.039999999
4.073 3.23 0.032000002
4.0669999 3.24 0.023
4.0809999 3.2279999 0.234
4.0770001 3.234 0.22499999
4.0749998 3.2390001 0.21600001
4.073 3.2420001 0.208
4.0710001 3.2460001 0.199
4.0679998 3.25 0.191
4.0669999 3.2520001 0.182
4.0799999 3.23 0.175
4.073 3.243 0.16599999
4.0780001 3.2349999 0.15800001
4.0770001 3.2360001 0.149
4.0689998 3.2490001 0.14
4.0739999 3.2420001 0.132
4.0770001 3.237 0.124
4.0679998 3.253 0.115
4.0710001 3.2479999 0.107
4.0739999 3.243 0.098999999
4.0710001 3.247 0.090000004
4.072 3.247 0.082000002
4.0739999 3.243 0.074000001
4.0760002 3.24 0.064999998
4.0780001 3.2379999 0.057
4.0739999 3.2449999 0.048
4.073 3.2460001 0.039999999
4.0760002 3.2420001 0.032000002
4.072 3.2479999 0.023
4.079 3.2479999 0.22499999
4.0749998 3.2539999 0.21600001
4.0879998 3.234 0.20900001
4.0900002 3.23 0.20100001
4.0780001 3.25 0.191
4.0830002 3.2420001 0.183
4.0830002 3.2420001 0.175
4.0809999 3.2460001 0.16599999
4.0809999 3.2460001 0.15800001
4.073 3.2590001 0.149
4.0760002 3.2539999 0.14
4.0819998 3.2460001 0.132
4.0819998 3.244 0.124
4.0770001 3.253 0.115
4.0799999 3.2490001 0.107
4.0799999 3.2490001 0.098999999
4.079 3.2509999 0.090000004
4.0809999 3.247 0.082000002
4.098 3.221 0.074000001
4.0819998 3.247 0.064999998
4.086 3.24 0.057
4.085 3.2420001 0.048999999
4.0890002 3.2349999 0.039999999
4.079 3.2520001 0.032000002
4.0840001 3.244 0.023
4.0970001 3.2349999 0.20900001
4.098 3.233 0.20100001
4.0900002 3.2460001 0.192
4.0929999 3.2409999 0.183
4.0960002 3.237 0.175
4.0819998 3.2590001 0.16599999
4.0900002 3.2460001 0.15800001
4.098 3.234 0.15000001
4.092 3.2449999 0.141
4.0939999 3.2409999 0.133
4.0939999 3.2409999 0.125
4.0869999 3.253 0.116
4.0949998 3.24 0.108
4.0970001 3.237 0.098999999
4.0900002 3.2479999 0.090999998
4.086 3.256 0.082000002
4.085 3.256 0.074000001
4.0970001 3.2379999 0.066
4.0999999 3.234 0.057
4.099 3.2349999 0.048999999
4.0939999 3.244 0.039999999
4.0939999 3.243 0.032000002
4.092 3.247 0.024
4.1059999 3.2360001 0.20100001
4.1240001 3.2079999 0.19400001
4.1030002 3.2420001 0.184
4.1079998 3.234 0.176
4.1020002 3.243 0.167
4.1079998 3.234 0.15899999
4.1030002 3.243 0.15000001
4.1059999 3.2379999 0.142
4.1009998 3.247 0.133
4.1110001 3.23 0.125
4.1020002 3.2449999 0.116
4.1040001 3.2409999 0.108
4.0999999 3.2490001 0.098999999
4.0999999 3.2490001 0.090999998
4.0999999 3.2490001 0.082999997
4.098 3.2520001 0.074000001
4.1009998 3.2479999 0.066
4.1090002 3.2349999 0.057999998
4.099 3.2509999 0.048999999
4.1069999 3.2379999 0.041000001
4.1020002 3.247 0.032000002
4.1079998 3.237 0.024
4.1149998 3.2379999 0.184
4.1129999 3.2409999 0.176
4.1079998 3.2509999 0.167
4.1110001 3.2460001 0.15899999
4.1110001 3.2460001 0.15000001
4.1079998 3.25 0.142
4.1110001 3.2449999 0.133
4.1139998 3.2409999 0.125
4.1170001 3.237 0.117
4.1199999 3.2320001 0.109
4.1100001 3.2479999 0.1
4.112 3.2460001 0.090999998
4.112 3.2449999 0.082999997
4.1100001 3.2479999 0.074000001
4.1079998 3.2520001 0.066
4.1209998 3.2320001 0.057999998
4.118 3.2360001 0.048999999
4.1079998 3.253 0.041000001
4.1170001 3.2379999 0.033
4.1199999 3.234 0.024
4.1269999 3.2349999 0.176
4.1259999 3.237 0.168
4.1259999 3.2379999 0.15899999
4.1170001 3.2509999 0.15000001
4.1209998 3.2449999 0.142
4.1240001 3.2409999 0.134
4.1170001 3.253 0.125
4.1300001 3.233 0.117
4.1350002 3.224 0.109
4.1300001 3.233 0.1
4.119 3.2509999 0.090999998
4.1279998 3.2360001 0.082999997
4.1279998 3.237 0.075000003
4.125 3.2409999 0.066
4.1230001 3.244 0.057999998
4.1259999 3.2409999 0.050000001
4.1199999 3.25 0.041000001
4.125 3.2409999 0.033
4.1300001 3.234 0.024
4.1350002 3.2379999 0.16
4.1339998 3.2409999 0.15099999
4.1329999 3.2420001 0.14300001
4.131 3.2449999 0.134
4.1339998 3.2409999 0.126
4.1339998 3.2409999 0.117
4.1370001 3.237 0.101
4.132 3.2449999 0.092
4.1300001 3.2490001 0.082999997
4.1370001 3.237 0.075000003
4.1329999 3.244 0.067000002
4.1370001 3.2379999 0.057999998
4.1430001 3.2290001 0.050000001
4.132 3.2460001 0.041000001
4.1360002 3.2409999 0.033
4.1389999 3.2360001 0.025
4.1459999 3.237 0.14300001
4.1409998 3.2449999 0.134
4.1409998 3.2460001 0.117
4.1440001 3.2409999 0.101
4.1399999 3.2479999 0.075000003
4.1430001 3.2449999 0.067000002
4.1409998 3.2479999 0.057999998
4.145 3.2409999 0.050000001
4.1420002 3.2460001 0.033
4.1430001 3.2449999 0.025
3.059 4.0009999 2.9579999
3.1440001 3.9809999 2.9820001
3.1370001 3.98 2.948
3.073 3.9679999 2.9219999
3.168 3.951 2.98
3.1589999 3.948 2.9460001
3.1140001 3.9400001 2.918
3.086 3.934 2.8859999
3.174 3.9159999 2.9809999
3.164 3.914 2.947
3.158 3.9119999 2.9130001
3.131 3.9059999 2.881
3.072 3.8959999 2.8540001
3.1659999 3.8789999 2.9489999
3.1760001 3.8800001 2.9119999
3.1570001 3.8759999 2.8789999
3.1370001 3.8710001 2.8469999
3.0969999 3.8640001 2.8169999
3.006 3.8469999 2.7939999
3.164 3.8429999 2.951
3.168 3.8429999 2.915
3.1670001 3.842 2.8800001
3.168 3.842 2.8440001
3.1440001 3.8369999 2.812
3.1040001 3.829 2.7820001
3.0339999 3.816 2.756
3.168 3.8069999 2.9519999
3.1570001 3.8050001 2.918
3.168 3.806 2.881
3.175 3.806 2.845
3.155 3.802 2.812
3.131 3.7969999 2.78
3.1110001 3.793 2.7479999
3.0369999 3.779 2.7219999
3.158 3.77 2.9549999
3.1659999 3.7709999 2.918
3.165 3.77 2.8829999
3.161 3.7690001 2.848
3.1760001 3.7709999 2.8110001
3.1570001 3.767 2.7780001
3.138 3.7620001 2.7460001
3.1140001 3.757 2.714
3.0439999 3.744 2.687
3.1689999 3.737 2.9549999
3.1600001 3.7349999 2.921
3.161 3.734 2.885
3.1670001 3.734 2.849
3.1530001 3.7309999 2.816
3.178 3.7349999 2.777
3.1429999 3.7279999 2.747
3.1300001 3.7249999 2.7130001
3.118 3.7219999 2.6789999
3.0680001 3.7119999 2.6500001
3.1659999 3.6989999 2.9219999
3.171 3.6989999 2.8859999
3.1630001 3.697 2.8510001
3.165 3.697 2.816
3.155 3.694 2.7820001
3.151 3.6930001 2.747
3.1389999 3.6900001 2.7130001
3.1370001 3.6889999 2.678
3.119 3.6849999 2.645
3.0650001 3.674 2.6170001
3.1530001 3.661 2.8900001
3.164 3.6619999 2.8529999
3.158 3.6600001 2.8180001
3.1570001 3.6589999 2.783
3.151 3.658 2.7490001
3.1530001 3.6570001 2.7130001
3.1459999 3.655 2.6789999
3.1440001 3.654 2.6440001
3.1259999 3.6500001 2.6110001
3.0940001 3.6429999 2.5799999
3.0539999 3.635 2.549
3.1400001 3.622 2.858
3.1559999 3.6240001 2.8199999
3.168 3.6259999 2.783
3.1440001 3.6210001 2.7509999
3.1500001 3.6210001 2.7149999
3.145 3.6199999 2.6800001
3.155 3.6210001 2.6440001
3.141 3.6170001 2.6099999
3.1229999 3.6129999 2.5769999
3.0840001 3.605 2.5469999
3.0309999 3.5940001 2.5179999
3.1389999 3.586 2.8239999
3.1670001 3.5899999 2.7850001
3.155 3.5869999 2.7520001
3.1559999 3.5869999 2.7160001
3.1659999 3.5880001 2.6789999
3.1559999 3.585 2.645
3.142 3.582 2.612
3.138 3.5810001 2.5769999
3.125 3.5780001 2.543
3.0869999 3.5699999 2.513
3.029 3.5580001 2.484
3.1199999 3.546 2.793
3.1589999 3.553 2.753
3.1530001 3.5510001 2.7179999
3.138 3.5469999 2.6849999
3.1589999 3.55 2.6470001
3.135 3.5450001 2.6140001
3.161 3.549 2.576
3.141 3.5450001 2.543
3.128 3.5420001 2.5090001
3.089 3.5339999 2.4790001
3.0339999 3.5220001 2.45
3.1389999 3.5139999 2.757
3.161 3.5179999 2.7190001
3.1489999 3.5150001 2.6849999
3.141 3.5120001 2.6500001
3.1440001 3.5120001 2.615
3.152 3.513 2.5780001
3.148 3.5120001 2.5439999
3.1470001 3.5109999 2.5090001
3.1159999 3.5039999 2.477
3.102 3.5009999 2.4430001
3.049 3.49 2.414
2.1289999 3.2620001 0.059999999
3.125 3.4749999 2.7249999
3.164 3.4820001 2.6849999
3.1300001 3.4749999 2.654
3.145 3.477 2.6159999
3.1389999 3.4749999 2.582
3.1359999 3.474 2.5469999
3.151 3.4760001 2.51
3.151 3.4749999 2.474
3.1329999 3.471 2.441
3.1029999 3.4649999 2.4089999
3.0599999 3.4560001 2.3789999
2.2939999 3.263 0.27900001
2.207 3.2449999 0.243
2.221 3.247 0.206
2.2360001 3.2490001 0.17
2.2520001 3.2520001 0.133
2.2720001 3.2550001 0.097000003
2.2509999 3.25 0.061000001
2.256 3.25 0.024
3.142 3.441 2.654
3.1389999 3.4400001 2.619
3.131 3.438 2.5840001
3.152 3.441 2.546
3.138 3.438 2.513
3.1440001 3.438 2.477
3.151 3.4389999 2.441
3.128 3.434 2.408
3.0969999 3.427 2.3759999
3.069 3.421 2.3440001
3.027 3.4119999 2.3139999
2.428 3.256 0.45899999
2.4030001 3.25 0.42300001
2.415 3.2520001 0.38699999
2.4089999 3.25 0.35100001
2.447 3.257 0.31400001
2.4330001 3.253 0.27900001
2.4189999 3.25 0.243
2.427 3.2509999 0.206
2.424 3.2490001 0.17
2.404 3.2449999 0.134
2.3889999 3.2409999 0.097999997
2.346 3.2320001 0.061999999
3.029 3.3670001 0.028999999
3.1300001 3.4030001 2.6210001
3.1470001 3.405 2.5840001
3.1370001 3.4030001 2.55
3.1270001 3.4000001 2.516
3.1240001 3.3989999 2.4809999
3.141 3.401 2.4430001
3.1570001 3.404 2.4059999
3.1389999 3.4000001 2.3729999
3.105 3.392 2.342
3.092 3.3889999 2.3080001
3.03 3.3759999 2.279
2.661 3.27 0.70599997
2.599 3.257 0.67199999
2.5910001 3.2550001 0.63599998
2.619 3.26 0.60000002
2.6329999 3.2620001 0.56400001
2.6129999 3.257 0.528
2.632 3.26 0.49200001
2.6170001 3.257 0.45699999
2.6159999 3.256 0.421
2.5910001 3.25 0.38600001
2.5910001 3.2490001 0.34999999
2.5510001 3.2409999 0.31400001
2.4960001 3.2290001 0.27900001
2.4920001 3.2279999 0.243
2.4590001 3.22 0.207
2.4289999 3.214 0.171
2.404 3.2079999 0.13500001
2.3699999 3.2 0.098999999
3.04 3.3340001 0.064000003
3.128 3.3510001 0.029999999
3.0209999 3.352 2.9579999
3.118 3.3640001 2.589
3.1589999 3.3710001 2.549
3.135 3.3659999 2.516
3.131 3.3640001 2.4820001
3.1440001 3.3659999 2.4449999
3.135 3.3640001 2.4100001
3.1429999 3.365 2.3740001
3.1199999 3.359 2.342
3.1129999 3.3570001 2.3069999
3.099 3.3540001 2.273
3 3.3329999 2.2490001
3.0580001 3.3210001 1.081
2.8169999 3.27 0.91500002
2.763 3.2579999 0.88200003
2.75 3.2550001 0.847
2.7679999 3.2579999 0.81
2.796 3.2620001 0.77399999
2.8 3.263 0.73799998
2.8039999 3.263 0.70300001
2.7550001 3.2520001 0.66900003
2.7780001 3.256 0.63300002
2.757 3.2509999 0.59799999
2.757 3.25 0.56199998
2.7260001 3.244 0.52700001
2.694 3.2360001 0.49200001
2.6730001 3.2309999 0.45699999
2.6300001 3.2219999 0.42199999
2.6059999 3.217 0.38600001
2.5580001 3.2060001 0.35100001
2.543 3.2030001 0.315
2.5139999 3.1960001 0.28
2.4860001 3.1900001 0.244
2.438 3.1789999 0.208
2.4300001 3.177 0.17200001
2.3870001 3.168 0.13600001
3.0569999 3.302 0.1
3.1689999 3.3239999 0.066
3.1800001 3.326 0.030999999
3.1110001 3.3340001 2.9820001
3.1159999 3.335 2.9460001
3.1059999 3.332 2.9119999
3.0969999 3.329 2.878
3.0829999 3.326 2.8440001
3.0639999 3.3210001 2.8110001
3.0309999 3.3139999 2.78
3.0220001 3.3110001 2.7449999
3.027 3.312 2.7090001
3.0179999 3.309 2.675
3.0179999 3.309 2.6389999
3.0139999 3.3069999 2.6040001
3.1210001 3.3280001 2.5550001
3.1559999 3.3340001 2.5150001
3.145 3.332 2.4809999
3.1289999 3.3280001 2.448
3.1400001 3.329 2.411
3.1240001 3.325 2.378
3.138 3.3269999 2.3410001
3.1170001 3.322 2.3080001
3.1159999 3.322 2.273
3.0910001 3.316 2.24
3.016 3.3 2.2130001
3.0190001 3.3 2.177
3.017 3.299 2.142
3.0220001 3.299 2.1059999
3.0120001 3.296 2.072
2.993 3.2920001 2.0380001
3.0150001 3.296 2.0009999
2.9849999 3.289 1.9680001
3 3.2909999 1.931
3.0150001 3.2939999 1.895
3.0139999 3.293 1.859
3.0190001 3.293 1.824
3.01 3.29 1.789
3.03 3.2939999 1.752
3.023 3.2920001 1.717
3.016 3.29 1.683
3.0339999 3.293 1.646
3.033 3.2920001 1.6109999
3.026 3.29 1.576
3.0439999 3.2920001 1.54
2.9920001 3.2739999 1.12
3.082 3.2909999 1.081
3.007 3.276 1.049
2.9330001 3.26 1.017
2.9649999 3.266 0.98100001
2.9549999 3.2620001 0.94599998
2.934 3.257 0.912
2.937 3.257 0.87599999
2.9460001 3.2579999 0.84100002
2.925 3.253 0.80599999
2.924 3.2520001 0.77100003
2.902 3.247 0.736
2.859 3.2379999 0.70200002
2.846 3.234 0.667
2.809 3.2260001 0.63300002
2.777 3.2190001 0.59799999
2.7590001 3.2149999 0.56300002
2.701 3.2019999 0.528
2.6930001 3.2 0.493
2.645 3.1889999 0.458
2.6170001 3.1830001 0.42300001
2.6140001 3.1819999 0.38699999
2.5710001 3.1719999 0.352
2.5280001 3.1630001 0.31600001
2.5020001 3.1570001 0.28
2.4820001 3.152 0.245
2.4519999 3.145 0.20900001
2.4260001 3.1389999 0.17299999
3.082 3.2720001 0.13600001
3.1719999 3.29 0.101
3.1630001 3.2869999 0.066
3.1730001 3.289 0.030999999
3.22 3.3210001 2.9679999
3.2249999 3.3210001 2.9319999
3.1960001 3.3139999 2.901
3.191 3.313 2.8659999
3.1849999 3.3110001 2.8310001
3.1570001 3.3039999 2.8
3.158 3.3039999 2.7639999
3.1730001 3.306 2.727
3.1789999 3.3069999 2.691
3.175 3.3050001 2.6559999
3.1619999 3.302 2.622
3.1570001 3.3 2.5880001
3.1570001 3.3 2.552
3.168 3.3010001 2.516
3.1789999 3.303 2.4790001
3.1340001 3.293 2.4489999
3.158 3.2969999 2.411
3.141 3.293 2.378
3.125 3.289 2.3440001
3.132 3.29 2.3080001
3.1389999 3.29 2.2720001
3.1259999 3.2869999 2.2379999
3.1359999 3.2880001 2.2019999
3.132 3.2869999 2.1670001
3.135 3.2869999 2.131
3.131 3.2850001 2.0969999
3.1329999 3.2850001 2.0610001
3.1340001 3.2850001 2.026
3.1359999 3.2839999 1.9910001
3.132 3.283 1.956
3.115 3.279 1.9220001
3.1229999 3.28 1.886
3.1329999 3.2809999 1.85
3.1170001 3.277 1.816
3.128 3.279 1.78
3.138 3.28 1.744
3.122 3.276 1.711
3.1240001 3.276 1.675
3.125 3.2750001 1.64
3.1229999 3.2739999 1.605
3.1199999 3.273 1.5700001
3.109 3.27 1.536
3.135 3.2750001 1.499
3.1140001 3.27 1.466
3.1170001 3.2690001 1.4299999
3.1010001 3.2650001 1.396
3.1040001 3.2650001 1.3609999
3.1059999 3.2639999 1.326
3.109 3.2639999 1.291
3.0929999 3.26 1.257
3.0999999 3.2609999 1.221
3.118 3.2639999 1.1849999
3.161 3.2720001 1.148
3.2190001 3.2839999 1.11
3.1830001 3.2750001 1.077
3.1329999 3.2650001 1.044
3.145 3.266 1.0089999
3.115 3.2590001 0.97500002
3.063 3.2479999 0.94300002
3.0580001 3.2460001 0.90799999
3.082 3.2509999 0.87199998
3.076 3.2490001 0.83700001
3.0699999 3.247 0.80199999
3.0639999 3.2449999 0.76700002
3.0680001 3.2449999 0.73199999
3.0669999 3.244 0.69700003
3.0610001 3.2420001 0.662
3.0409999 3.237 0.62800002
3.069 3.243 0.59200001
3.0739999 3.243 0.55699998
3.0739999 3.2420001 0.52200001
3.0810001 3.243 0.48699999
3.0669999 3.2390001 0.45199999
3.0569999 3.237 0.417
3.066 3.2379999 0.382
3.056 3.2349999 0.347
3.056 3.2349999 0.31200001
3.0650001 3.2360001 0.27700001
3.0669999 3.2360001 0.242
3.0650001 3.234 0.207
3.1040001 3.2420001 0.17200001
3.175 3.256 0.13699999
3.1600001 3.2520001 0.102
3.1589999 3.2509999 0.067000002
3.1630001 3.2509999 0.032000002
3.244 3.289 2.9660001
3.224 3.2839999 2.934
3.2320001 3.2850001 2.8970001
3.221 3.2820001 2.8640001
3.2279999 3.283 2.8269999
3.2449999 3.286 2.79
3.2360001 3.283 2.7550001
3.221 3.28 2.7219999
3.2349999 3.2820001 2.6849999
3.2490001 3.2839999 2.648
3.2449999 3.2820001 2.6129999
3.2409999 3.2809999 2.579
3.247 3.2809999 2.543
3.243 3.28 2.5079999
3.2479999 3.28 2.4719999
3.24 3.2780001 2.438
3.2520001 3.28 2.401
3.2520001 3.279 2.3659999
3.25 3.2780001 2.3310001
3.25 3.277 2.296
3.2409999 3.2750001 2.2620001
3.253 3.277 2.2260001
3.2490001 3.2750001 2.191
3.2409999 3.273 2.1570001
3.2420001 3.2720001 2.122
3.2390001 3.2709999 2.0869999
3.2360001 3.27 2.052
3.2379999 3.2690001 2.017
3.234 3.2679999 1.983
3.2309999 3.267 1.948
3.2349999 3.267 1.913
3.2349999 3.266 1.878
3.224 3.263 1.844
3.2349999 3.2650001 1.808
3.237 3.2639999 1.773
3.2449999 3.2650001 1.737
3.2309999 3.2620001 1.7029999
3.2290001 3.2609999 1.668
3.2409999 3.263 1.633
3.244 3.2620001 1.597
3.2360001 3.2590001 1.563
3.2349999 3.2579999 1.528
3.2320001 3.257 1.494
3.22 3.2539999 1.46
3.2279999 3.2550001 1.424
3.2160001 3.2520001 1.39
3.2279999 3.2539999 1.354
3.2119999 3.25 1.321
3.2290001 3.253 1.285
3.2190001 3.25 1.251
3.1960001 3.244 1.217
3.2190001 3.2479999 1.181
3.247 3.253 1.145
3.273 3.2579999 1.108
3.277 3.2579999 1.073
3.3050001 3.263 1.0369999
3.313 3.2639999 1.002
3.326 3.267 0.96700001
3.306 3.2620001 0.93300003
3.3340001 3.267 0.898
3.332 3.266 0.86299998
3.2980001 3.2579999 0.82999998
3.233 3.244 0.79699999
3.2179999 3.24 0.76300001
3.2119999 3.2379999 0.72899997
3.2160001 3.2379999 0.69400001
3.2 3.234 0.65899998
3.204 3.2349999 0.62400001
3.2090001 3.2349999 0.58899999
3.198 3.2320001 0.55500001
3.1930001 3.23 0.51999998
3.2019999 3.2309999 0.48500001
3.2060001 3.2320001 0.44999999
3.2060001 3.2309999 0.41600001
3.191 3.227 0.38100001
3.2 3.2279999 0.34599999
3.2 3.2279999 0.31099999
3.2 3.227 0.27700001
3.2049999 3.227 0.242
3.2149999 3.2290001 0.207
3.21 3.227 0.17200001
3.2 3.224 0.13699999
3.2049999 3.2249999 0.103
3.2049999 3.224 0.068000004
3.2049999 3.223 0.033
3.243 3.253 2.9679999
3.217 3.247 2.937
3.2119999 3.2460001 2.902
3.2160001 3.2460001 2.8659999
3.211 3.244 2.8310001
3.2019999 3.2409999 2.7969999
3.2179999 3.244 2.76
3.2060001 3.2409999 2.7260001
3.2160001 3.2420001 2.6889999
3.2190001 3.2420001 2.654
3.2190001 3.2409999 2.618
3.2219999 3.2409999 2.5829999
3.2249999 3.2409999 2.5469999
3.221 3.24 2.5120001
3.2279999 3.2409999 2.4760001
3.2379999 3.2420001 2.4400001
3.2030001 3.234 2.4089999
3.234 3.24 2.3699999
3.223 3.237 2.336
3.2219999 3.2360001 2.3010001
3.2179999 3.234 2.266
3.2119999 3.2320001 2.2320001
3.221 3.234 2.1960001
3.223 3.234 2.1600001
3.2149999 3.2309999 2.1259999
3.217 3.2309999 2.0910001
3.2160001 3.23 2.056
3.2249999 3.2309999 2.02
3.2149999 3.2279999 1.9859999
3.2279999 3.23 1.95
3.257 3.2360001 1.9119999
3.2249999 3.2279999 1.88
3.224 3.2279999 1.845
3.223 3.227 1.8099999
3.2279999 3.227 1.775
3.233 3.227 1.739
3.2379999 3.2279999 1.704
3.2279999 3.2249999 1.67
3.223 3.223 1.635
3.2479999 3.2279999 1.598
3.2279999 3.223 1.5650001
3.2360001 3.224 1.53
3.23 3.2219999 1.495
3.233 3.2219999 1.46
3.2360001 3.2219999 1.425
3.2390001 3.2219999 1.39
3.2449999 3.2219999 1.355
3.2260001 3.217 1.321
3.256 3.223 1.284
3.2420001 3.2190001 1.25
3.2460001 3.2190001 1.215
3.237 3.217 1.181
3.267 3.2219999 1.145
3.2850001 3.2249999 1.109
3.3329999 3.2349999 1.072
3.3559999 3.2390001 1.036
3.3840001 3.244 1
3.4070001 3.2479999 0.96499997
3.434 3.253 0.92900002
3.447 3.2550001 0.89399999
3.461 3.257 0.85900003
3.4649999 3.257 0.82499999
3.483 3.2609999 0.79000002
3.477 3.2590001 0.75599998
3.4909999 3.2609999 0.72100002
3.49 3.26 0.68699998
3.4990001 3.2609999 0.65200001
3.513 3.263 0.61699998
3.5450001 3.2690001 0.58200002
3.244 3.2060001 0.55500001
3.2360001 3.204 0.51999998
3.2360001 3.2030001 0.48500001
3.2460001 3.204 0.45100001
3.24 3.2030001 0.41600001
3.2390001 3.2019999 0.38100001
3.237 3.201 0.347
3.2409999 3.201 0.31200001
3.2360001 3.1989999 0.27700001
3.253 3.2019999 0.242
3.2579999 3.2019999 0.208
3.2590001 3.2019999 0.17299999
3.2390001 3.197 0.138
3.2379999 3.1960001 0.103
3.2460001 3.197 0.068999998
3.2590001 3.1989999 0.034000002
3.2219999 3.2130001 2.973
3.2279999 3.214 2.937
3.2130001 3.21 2.904
3.2060001 3.2079999 2.869
3.2060001 3.207 2.8340001
3.221 3.21 2.796
3.211 3.207 2.7620001
3.214 3.207 2.7260001
3.2079999 3.2049999 2.6919999
3.214 3.2049999 2.6559999
3.2090001 3.204 2.6210001
3.2119999 3.204 2.586
3.2179999 3.204 2.55
3.2219999 3.204 2.5139999
3.22 3.2030001 2.4790001
3.2019999 3.1989999 2.4460001
3.211 3.2 2.4089999
3.223 3.2019999 2.3729999
3.2149999 3.2 2.3380001
3.2219999 3.2 2.303
3.2179999 3.1989999 2.2679999
3.2160001 3.198 2.233
3.2130001 3.1960001 2.198
3.2179999 3.197 2.1619999
3.224 3.197 2.1270001
3.223 3.1960001 2.092
3.227 3.197 2.056
3.224 3.1949999 2.0220001
3.2249999 3.1949999 1.9859999
3.214 3.1919999 1.952
3.2119999 3.191 1.9170001
3.227 3.1930001 1.881
3.23 3.1930001 1.846
3.227 3.1919999 1.811
3.233 3.1930001 1.776
3.2149999 3.188 1.742
3.2149999 3.187 1.707
3.233 3.191 1.671
3.2260001 3.188 1.636
3.2550001 3.194 1.599
3.2260001 3.187 1.566
3.2320001 3.187 1.531
3.2279999 3.1860001 1.4960001
3.2290001 3.1860001 1.461
3.2260001 3.184 1.427
3.2349999 3.1849999 1.391
3.237 3.1849999 1.3559999
3.2320001 3.1830001 1.322
3.244 3.184 1.286
3.2290001 3.181 1.252
3.2360001 3.181 1.217
3.2379999 3.181 1.182
3.289 3.191 1.1440001
3.3069999 3.194 1.109
3.3399999 3.201 1.073
3.3629999 3.2049999 1.0369999
3.405 3.2130001 1
3.424 3.2160001 0.96499997
3.47 3.2249999 0.92900002
3.5079999 3.233 0.89300001
3.517 3.234 0.85799998
3.5450001 3.2390001 0.82300001
3.582 3.2460001 0.787
3.6059999 3.2509999 0.75199997
3.605 3.25 0.71799999
3.6229999 3.253 0.68400002
3.6370001 3.2550001 0.64899999
3.6470001 3.257 0.61500001
3.6459999 3.256 0.58099997
3.665 3.2590001 0.546
3.6700001 3.26 0.51200002
3.684 3.2620001 0.47799999
3.6830001 3.2609999 0.44400001
3.6889999 3.2620001 0.41
3.72 3.2679999 0.37599999
3.724 3.2679999 0.34200001
3.247 3.1659999 0.31200001
3.2509999 3.1670001 0.278
3.2409999 3.164 0.243
3.2509999 3.165 0.208
3.2409999 3.1619999 0.17399999
3.256 3.165 0.139
3.25 3.1630001 0.104
3.2539999 3.1630001 0.068999998
3.2620001 3.164 0.035
3.244 3.1830001 2.9719999
3.201 3.1730001 2.9430001
3.198 3.1719999 2.9070001
3.201 3.1719999 2.872
3.2119999 3.174 2.835
3.2130001 3.1730001 2.799
3.188 3.1670001 2.767
3.184 3.1659999 2.7320001
3.2049999 3.1700001 2.694
3.2030001 3.168 2.6589999
3.2 3.1670001 2.6240001
3.2030001 3.1670001 2.5880001
3.2049999 3.1670001 2.553
3.198 3.165 2.5179999
3.2219999 3.1689999 2.48
3.214 3.1670001 2.4460001
3.24 3.171 2.4070001
3.2019999 3.1630001 2.3770001
3.2079999 3.1630001 2.3410001
3.2030001 3.1619999 2.306
3.2119999 3.1630001 2.27
3.223 3.164 2.234
3.22 3.1630001 2.1989999
3.201 3.158 2.1659999
3.211 3.1600001 2.1289999
3.2179999 3.161 2.0940001
3.2049999 3.1570001 2.0599999
3.2149999 3.1589999 2.0239999
3.214 3.158 1.989
3.224 3.1589999 1.9529999
3.2160001 3.1570001 1.918
3.2349999 3.1600001 1.882
3.2190001 3.1559999 1.848
3.2290001 3.158 1.812
3.2030001 3.1500001 1.779
3.2060001 3.1500001 1.744
3.204 3.1489999 1.709
3.24 3.1559999 1.671
3.223 3.152 1.638
3.221 3.151 1.603
3.2179999 3.1500001 1.568
3.2119999 3.148 1.534
3.22 3.1489999 1.498
3.234 3.151 1.462
3.2320001 3.1500001 1.428
3.2279999 3.148 1.393
3.22 3.1459999 1.359
3.227 3.1470001 1.323
3.2390001 3.1489999 1.288
3.22 3.1440001 1.2539999
3.2460001 3.1489999 1.217
3.2420001 3.1470001 1.183
3.2780001 3.154 1.146
3.309 3.1600001 1.11
3.3369999 3.1659999 1.074
3.345 3.1670001 1.039
3.4030001 3.178 1.001
3.4159999 3.1800001 0.96600002
3.4630001 3.1889999 0.93000001
3.5050001 3.198 0.89399999
3.533 3.2030001 0.85799998
3.5569999 3.2079999 0.82300001
3.599 3.2160001 0.78799999
3.642 3.224 0.75199997
3.661 3.2279999 0.71700001
3.6900001 3.233 0.68199998
3.7130001 3.2379999 0.648
3.7309999 3.2409999 0.61299998
3.75 3.244 0.579
3.75 3.243 0.54500002
3.7639999 3.2460001 0.51099998
3.773 3.247 0.477
3.7869999 3.2490001 0.44299999
3.7869999 3.2490001 0.40900001
3.8010001 3.2509999 0.375
3.8199999 3.2539999 0.34099999
3.8150001 3.253 0.308
3.8199999 3.253 0.27399999
3.842 3.257 0.23999999
3.8759999 3.2639999 0.206
3.8510001 3.2579999 0.17299999
3.243 3.128 0.14
3.243 3.1270001 0.105
3.2550001 3.1289999 0.07
3.2639999 3.1300001 0.035
3.2119999 3.142 2.9779999
3.2260001 3.1440001 2.941
3.2119999 3.1400001 2.9070001
3.2079999 3.1389999 2.872
3.2179999 3.1400001 2.836
3.223 3.1400001 2.799
3.224 3.1400001 2.7639999
3.2249999 3.1389999 2.7279999
3.207 3.135 2.6949999
3.2249999 3.138 2.658
3.194 3.131 2.6259999
3.2079999 3.132 2.589
3.201 3.1300001 2.5550001
3.1889999 3.1270001 2.5209999
3.2149999 3.132 2.4820001
3.197 3.1270001 2.4489999
3.2079999 3.1289999 2.4130001
3.2049999 3.128 2.378
3.2060001 3.1270001 2.3429999
3.214 3.128 2.306
3.201 3.125 2.273
3.21 3.1259999 2.237
3.2079999 3.125 2.2019999
3.2030001 3.1229999 2.1670001
3.2049999 3.1229999 2.132
3.2019999 3.122 2.0969999
3.2119999 3.1229999 2.0610001
3.2160001 3.1229999 2.0250001
3.2160001 3.1229999 1.99
3.214 3.1210001 1.955
3.207 3.119 1.921
3.2320001 3.1240001 1.883
3.2160001 3.1199999 1.85
3.2049999 3.1170001 1.816
3.2190001 3.119 1.779
3.223 3.119 1.744
3.22 3.118 1.709
3.2090001 3.115 1.675
3.2 3.112 1.641
3.221 3.1159999 1.604
3.2179999 3.115 1.5700001
3.2160001 3.1140001 1.535
3.244 3.119 1.498
3.2260001 3.115 1.464
3.2290001 3.115 1.429
3.2190001 3.112 1.395
3.2420001 3.1159999 1.358
3.217 3.1099999 1.325
3.2290001 3.112 1.289
3.233 3.112 1.2539999
3.2190001 3.108 1.22
3.234 3.1110001 1.184
3.256 3.115 1.148
3.2869999 3.1210001 1.112
3.339 3.131 1.075
3.3570001 3.135 1.039
3.3900001 3.141 1.003
3.418 3.1459999 0.96700001
3.46 3.155 0.93099999
3.493 3.161 0.89499998
3.526 3.1670001 0.86000001
3.549 3.1719999 0.82499999
3.582 3.178 0.78899997
3.619 3.1849999 0.75400001
3.6429999 3.1900001 0.71899998
3.6919999 3.2 0.68300003
3.7060001 3.2019999 0.64899999
3.7479999 3.21 0.61400002
3.786 3.2179999 0.579
3.8099999 3.2219999 0.54500002
3.8340001 3.227 0.51099998
3.8629999 3.2320001 0.47600001
3.891 3.2379999 0.442
3.8900001 3.237 0.40900001
3.8900001 3.2360001 0.375
3.9089999 3.2390001 0.34099999
3.934 3.244 0.30700001
3.934 3.243 0.27399999
3.9430001 3.244 0.23999999
3.9679999 3.2490001 0.207
3.9579999 3.2460001 0.17299999
3.9630001 3.247 0.14
3.9579999 3.2449999 0.106
3.96 3.2449999 0.072999999
3.9860001 3.25 0.039000001
3.181 3.098 2.9489999
3.1819999 3.098 2.9130001
3.177 3.096 2.878
3.191 3.099 2.8410001
3.187 3.0969999 2.806
3.198 3.099 2.7690001
3.198 3.098 2.734
3.207 3.099 2.697
3.194 3.096 2.6630001
3.184 3.0929999 2.6289999
3.187 3.0929999 2.5940001
3.2019999 3.096 2.556
3.198 3.0940001 2.5209999
3.198 3.0929999 2.4860001
3.178 3.0880001 2.4530001
3.2030001 3.0929999 2.415
3.1900001 3.089 2.381
3.197 3.0899999 2.345
3.204 3.0910001 2.309
3.1949999 3.089 2.2750001
3.197 3.0880001 2.2390001
3.21 3.0899999 2.2030001
3.204 3.0880001 2.168
3.207 3.0880001 2.1329999
3.197 3.086 2.099
3.1989999 3.085 2.063
3.2079999 3.0869999 2.027
3.2190001 3.0880001 1.9910001
3.211 3.086 1.957
3.211 3.085 1.9220001
3.2119999 3.085 1.887
3.2190001 3.086 1.851
3.22 3.085 1.816
3.2060001 3.0810001 1.7819999
3.2060001 3.0799999 1.747
3.23 3.0840001 1.71
3.2190001 3.0810001 1.676
3.23 3.0829999 1.64
3.217 3.0799999 1.6059999
3.2179999 3.079 1.571
3.2309999 3.0810001 1.535
3.2190001 3.0780001 1.501
3.2379999 3.0810001 1.464
3.237 3.0810001 1.4299999
3.224 3.0769999 1.396
3.2309999 3.0780001 1.36
3.234 3.0780001 1.325
3.257 3.082 1.289
3.2509999 3.0799999 1.2539999
3.244 3.0780001 1.22
3.256 3.0799999 1.184
3.2639999 3.0810001 1.149
3.2520001 3.0780001 1.115
3.2839999 3.0840001 1.0779999
3.326 3.092 1.0420001
3.3729999 3.102 1.005
3.4059999 3.108 0.96899998
3.4389999 3.115 0.93300003
3.48 3.1229999 0.89700001
3.5280001 3.1329999 0.861
3.5469999 3.1359999 0.82599998
3.575 3.142 0.79000002
3.602 3.1470001 0.755
3.6359999 3.154 0.72000003
3.6700001 3.1600001 0.685
3.7030001 3.1670001 0.64999998
3.737 3.1730001 0.61500001
3.7639999 3.1789999 0.58099997
3.7980001 3.1849999 0.546
3.8169999 3.1889999 0.51200002
3.855 3.1960001 0.477
3.8740001 3.2 0.44299999
3.9170001 3.2079999 0.40900001
3.951 3.2149999 0.375
3.9749999 3.22 0.34099999
4.0190001 3.2290001 0.30700001
4.0279999 3.23 0.27399999
4.052 3.234 0.23999999
4.0809999 3.24 0.207
4.0809999 3.2390001 0.17299999
4.1009998 3.243 0.14
4.0910001 3.24 0.107
4.0960002 3.2409999 0.074000001
4.1160002 3.244 0.039999999
2.977 3.0120001 2.658
3.063 3.029 2.6110001
3.0829999 3.033 2.573
3.1040001 3.0369999 2.5350001
3.102 3.036 2.4990001
3.118 3.039 2.4619999
3.105 3.0350001 2.428
3.1040001 3.0339999 2.3929999
3.1240001 3.0380001 2.355
3.0580001 3.023 2.3269999
3.049 3.02 2.293
3.2149999 3.0539999 2.1689999
3.2219999 3.0550001 2.1329999
3.2119999 3.052 2.099
3.204 3.05 2.0639999
3.2019999 3.049 2.029
3.2260001 3.053 1.992
3.2249999 3.052 1.957
3.227 3.052 1.9220001
3.2260001 3.0510001 1.887
3.2279999 3.0510001 1.851
3.2149999 3.0480001 1.817
3.2079999 3.0450001 1.783
3.2379999 3.0510001 1.745
3.2309999 3.049 1.711
3.233 3.049 1.676
3.2360001 3.049 1.641
3.21 3.0420001 1.608
3.223 3.0450001 1.572
3.2149999 3.0420001 1.5369999
3.2119999 3.0409999 1.502
3.224 3.043 1.467
3.2179999 3.0409999 1.432
3.2179999 3.04 1.397
3.198 3.0350001 1.363
3.214 3.0380001 1.3279999
3.2409999 3.043 1.291
3.2249999 3.039 1.257
3.214 3.036 1.223
3.2119999 3.0350001 1.188
3.214 3.0350001 1.153
3.2079999 3.033 1.118
3.2160001 3.0339999 1.0829999
3.2019999 3.03 1.049
3.23 3.0350001 1.012
3.2190001 3.0320001 0.97799999
3.23 3.0339999 0.94300002
3.404 3.0710001 0.90100002
3.4779999 3.0869999 0.86299998
3.5339999 3.098 0.82700002
3.563 3.1040001 0.792
3.605 3.112 0.75599998
3.6329999 3.118 0.72100002
3.6559999 3.122 0.68599999
3.7149999 3.135 0.65100002
3.714 3.1340001 0.61699998
3.7520001 3.141 0.58200002
3.7950001 3.1500001 0.54699999
3.819 3.155 0.51300001
3.858 3.1619999 0.47799999
3.872 3.165 0.44400001
3.905 3.171 0.41
3.9530001 3.181 0.37599999
3.9630001 3.1819999 0.34200001
3.997 3.1889999 0.308
4.0359998 3.197 0.27399999
4.0640001 3.2019999 0.241
4.0879998 3.207 0.207
4.1269999 3.2149999 0.17399999
3.0009999 2.9820001 2.6919999
3.0739999 2.997 2.6470001
3.0940001 3.0009999 2.609
3.1059999 3.003 2.572
3.0899999 2.9990001 2.5380001
3.0999999 3 2.5009999
3.0999999 3 2.4660001
3.0840001 2.9960001 2.4319999
3.085 2.9949999 2.3970001
3.073 2.9920001 2.362
3.6429999 3.085 0.68800002
3.6630001 3.0880001 0.653
3.707 3.0969999 0.61799997
3.7539999 3.1070001 0.583
3.773 3.1110001 0.54799998
3.7969999 3.115 0.514
3.8399999 3.1240001 0.479
3.8640001 3.1289999 0.44499999
3.8929999 3.1340001 0.41100001
3.9360001 3.1429999 0.377
3.96 3.148 0.34299999
3.9990001 3.1559999 0.30899999
4.0229998 3.1600001 0.27500001
4.052 3.1659999 0.242
4.0949998 3.175 0.208
4.1100001 3.178 0.175
2.993 2.9449999 2.73
3.062 2.9590001 2.6860001
3.073 2.961 2.6489999
3.1029999 2.967 2.609
3.0929999 2.9630001 2.575
3.0829999 2.96 2.5409999
3.0929999 2.9619999 2.5039999
3.1040001 2.964 2.467
3.069 2.9549999 2.4360001
3.075 2.9560001 2.3989999
3.7920001 3.0780001 0.51499999
3.819 3.0840001 0.47999999
3.826 3.085 0.447
3.852 3.0899999 0.412
3.9289999 3.1059999 0.37799999
3.9630001 3.1129999 0.34400001
3.9820001 3.1170001 0.31
4.0159998 3.1240001 0.27599999
4.0450001 3.1300001 0.242
4.0830002 3.1370001 0.20900001
4.1030002 3.141 0.176
4.132 3.1470001 0.142
3.0150001 2.914 2.7650001
3.0739999 2.9260001 2.7219999
3.0940001 2.9289999 2.6830001
3.1010001 2.9300001 2.6470001
3.0969999 2.9289999 2.612
3.0869999 2.9260001 2.5769999
3.0780001 2.9230001 2.543
3.0899999 2.925 2.506
3.082 2.9230001 2.471
3.0510001 2.915 2.4389999
3.9289999 3.0710001 0.31099999
3.974 3.0810001 0.27700001
4.0029998 3.086 0.243
4.0570002 3.0969999 0.20999999
4.0999999 3.1059999 0.176
4.1339998 3.1129999 0.14300001
2.9809999 2.8710001 2.8429999
3.0280001 2.881 2.8010001
3.0669999 2.8889999 2.76
3.0780001 2.8900001 2.723
3.102 2.895 2.684
3.082 2.8900001 2.651
3.075 2.888 2.6159999
3.092 2.891 2.5780001
3.0869999 2.8889999 2.543
3.0650001 2.8829999 2.5109999
3.039 2.8770001 2.4779999
4.0840001 3.069 0.20999999
4.072 3.0650001 0.14399999
4.0970001 3.0699999 0.11
4.145 3.0799999 0.077
2.9319999 2.8239999 2.888
3.04 2.848 2.8369999
3.069 2.8540001 2.7969999
3.075 2.8540001 2.7609999
3.0780001 2.8540001 2.7249999
3.086 2.855 2.688
3.086 2.855 2.652
3.073 2.8510001 2.618
3.063 2.848 2.5840001
3.0710001 2.849 2.5469999
3.0369999 2.8410001 2.516
2.9579999 2.793 2.9219999
3.0480001 2.813 2.8740001
3.0769999 2.819 2.8340001
3.073 2.8169999 2.799
3.069 2.816 2.763
3.0580001 2.813 2.7290001
3.095 2.8199999 2.688
3.0710001 2.8139999 2.6559999
3.0799999 2.816 2.619
3.053 2.809 2.5869999
3.0450001 2.806 2.552
3.0469999 2.777 2.9119999
3.0710001 2.7820001 2.872
3.069 2.78 2.8010001
3.0840001 2.783 2.763
3.072 2.78 2.7290001
3.082 2.7809999 2.6919999
3.066 2.777 2.658
3.0320001 2.7679999 2.6270001
3.0639999 2.744 2.875
3.062 2.743 2.839
3.0680001 2.744 2.803
3.0669999 2.743 2.767
3.082 2.7460001 2.7290001
3.0569999 2.7390001 2.697
3.0480001 2.7360001 2.6619999
3.0639999 2.707 2.8410001
3.0769999 2.71 2.803
3.062 2.7049999 2.77
3.072 2.707 2.733
3.0409999 2.6989999 2.701
3.049 2.6659999 2.773
3.0369999 2.6630001 2.7390001
3.1429999 3.881 2.823
3.1570001 3.842 2.8559999
3.1229999 3.8510001 2.826
3.138 3.845 2.789
3.181 3.8010001 2.888
3.1619999 3.806 2.855
3.1700001 3.802 2.819
3.141 3.809 2.7880001
