ply
format ascii 1.0
comment PCL generated
element vertex 1052
property float x
property float y
property float z
element camera 1
property float view_px
property float view_py
property float view_pz
property float x_axisx
property float x_axisy
property float x_axisz
property float y_axisx
property float y_axisy
property float y_axisz
property float z_axisx
property float z_axisy
property float z_axisz
property float focal
property float scalex
property float scaley
property float centerx
property float centery
property int viewportx
property int viewporty
property float k1
property float k2
end_header
-6.7402859 3.6729999 0.028190477
-6.6402225 3.6593616 0.038694449
-6.5768676 3.666369 0.028894736
-6.4849997 3.6964998 0.057
-5.8123336 3.6846666 0.064666674
-5.7485857 3.6744671 0.051346671
-5.6471477 3.6622078 0.052742571
-6.8429999 3.7590001 0.086000003
-6.7507319 3.7395773 0.052557696
-6.6474171 3.7176666 0.083250001
-6.5398011 3.7147117 0.048977777
-6.48103 3.7558692 0.049434353
-5.8226891 3.7517583 0.075862065
-5.7631803 3.761565 0.031820517
-5.6353736 3.7750788 0.061784312
-6.7414365 3.8460252 0.0493077
-6.5056663 3.8700004 0.052333336
-6.4736638 3.851295 0.050147392
-5.8174615 3.8150003 0.081923082
-5.7601247 3.808188 0.057031248
-5.6578751 3.8062499 0.069750004
-6.7470803 3.9588904 0.047843751
-6.6470561 3.9591715 0.055457141
-6.5545931 3.9510374 0.044000007
-6.4712186 3.9182391 0.052239135
-7.3611412 4.0518775 0.060285728
-6.9035006 4.0558338 0.059333336
-6.877562 4.0394912 0.045981821
-6.7316809 4.0494909 0.053339627
-6.681334 4.0535555 0.053111114
-6.5999999 4.027 0.0049999999
-7.4737778 4.1083336 0.064888887
-6.8546796 4.1379628 0.048188686
-6.7492781 4.1326666 0.05072223
-6.5359998 3.694 0.106
-6.4829998 3.6949999 0.122
-5.8443098 3.6912861 0.15688097
-5.7495584 3.6784296 0.15209678
-5.6662102 3.677629 0.13529032
-6.8239999 3.78 0.154
-6.7430005 3.7610807 0.14870271
-6.6531086 3.7352436 0.14981082
-6.5443468 3.7195306 0.14793876
-6.484386 3.7535377 0.14900003
-5.9134374 3.7509372 0.18593751
-5.8645716 3.7351069 0.14508927
-5.7176003 3.7787998 0.16940001
-5.6535144 3.7534432 0.15140319
-6.74931 3.8498096 0.15111905
-6.52 3.836 0.139
-6.4760308 3.8486471 0.15032351
-5.9134283 3.8215716 0.18528573
-5.8512244 3.8214288 0.15185715
-5.75108 3.8128417 0.15323684
-5.6795387 3.8086152 0.14269231
-7.4496675 3.9639416 0.15284061
-7.346015 3.9488695 0.1464203
-7.2753072 3.9591925 0.17292309
-6.7439499 3.9533594 0.15051281
-6.6536598 3.9506595 0.14956819
-6.5494509 3.939549 0.14949019
-6.4702635 3.9207549 0.15124562
-7.4525003 4.0788002 0.16760001
-7.3427453 4.0730424 0.14461702
-7.2741323 4.036973 0.16252632
-6.905333 4.0480003 0.12866667
-6.8729787 4.0340219 0.1498
-6.7344484 4.0480857 0.15222417
-6.6945558 4.0795555 0.14300001
-7.4538436 4.1110625 0.16168749
-7.3844995 4.1052504 0.178
-6.8519993 4.1424589 0.15283607
-6.7471442 4.1371894 0.1525111
-5.928 3.655 0.29499999
-5.8395009 3.6923244 0.24847499
-5.7645097 3.6870179 0.23781817
-6.7391253 3.7620246 0.24685004
-6.6559734 3.73927 0.25010812
-6.5527897 3.7253957 0.24858139
-6.4794521 3.7549651 0.24883334
-6.0019999 3.763 0.26300001
-5.943882 3.7349577 0.25398934
-5.8595295 3.7066767 0.26023528
-5.7406735 3.7471275 0.25411826
-5.6953998 3.7593 0.21250001
-6.7421832 3.8486366 0.25181818
-6.5180001 3.839 0.29300001
-6.4730687 3.852519 0.24954806
-6.006 3.822 0.294
-5.9481339 3.8365107 0.25331107
-5.8461223 3.831073 0.25817069
-5.7583327 3.8163331 0.24822228
-5.698 3.812 0.223
-7.5035 3.9905 0.21799999
-7.4383178 3.973273 0.24447727
-7.3529177 3.9480336 0.25113335
-7.2481294 3.9401405 0.24728213
-7.1853328 3.9550834 0.28425002
-6.7376432 3.9540243 0.25285712
-6.6532912 3.952244 0.24741463
-6.5475607 3.9431043 0.24420834
-6.469439 3.9215612 0.24877197
-7.4417043 4.0452037 0.2518889
-7.3494368 4.0854692 0.25656247
-7.2482409 4.0599408 0.24600002
-7.1873002 4.0444999 0.27869999
-6.8632369 4.0259209 0.24792106
-6.7335529 4.0483613 0.25206897
-6.6928749 4.0772495 0.245
-7.4278107 4.1094756 0.2327143
-7.3847504 4.11235 0.2667
-6.8502598 4.1468997 0.24761999
-6.7457085 4.1386704 0.25301278
-5.91675 3.6919999 0.33574998
-5.8479314 3.6798139 0.34447461
-5.7989998 3.6930001 0.30399999
-6.7375612 3.762464 0.35119516
-6.6450281 3.742286 0.34931424
-6.5497899 3.7295005 0.35231578
-6.4794731 3.7537644 0.35024723
-6.0427833 3.7513483 0.35660872
-5.9548721 3.7190366 0.34930912
-5.8408861 3.7336612 0.35576612
-5.7860341 3.756103 0.31486204
-7.152 3.895 0.36000001
-6.7419763 3.8482857 0.35052383
-6.5123339 3.8756666 0.36033338
-6.4734097 3.8491812 0.34890476
-6.0405884 3.8390293 0.35602945
-5.9521561 3.8511562 0.34940627
-5.8433762 3.8285086 0.35675415
-5.7898889 3.8168886 0.31644449
-7.4118891 3.9774446 0.31955555
-7.3459191 3.9633384 0.34606454
-7.2523222 3.9304185 0.34849998
-7.1549172 3.9294341 0.35140005
-7.0986667 3.9406669 0.39333332
-6.7299285 3.9501655 0.34814289
-6.657146 3.9554632 0.35019508
-6.5506968 3.9456611 0.34675008
-6.4713736 3.9254746 0.34877962
-7.402 4.007 0.31400001
-7.3560843 4.0602369 0.34518638
-7.2494349 4.0725393 0.35202566
-7.1594796 4.0470004 0.35419998
-7.085 4.0250001 0.39199999
-6.8482223 4.0260563 0.34127781
-6.737278 4.0475926 0.35079628
-6.6855001 4.0782499 0.32524997
-7.3377271 4.1062727 0.35118183
-6.8476405 4.1507435 0.35292313
-6.74545 4.1362953 0.34942308
-5.8653331 3.687444 0.40611109
-6.7380934 3.7674375 0.4452813
-6.6499257 3.7456825 0.45173168
-6.5468154 3.7308161 0.44831583
-6.4834576 3.7561452 0.44944581
-6.1300645 3.7649994 0.46803227
-6.05337 3.7404833 0.44708067
-5.9416537 3.7401972 0.45789105
-5.8758183 3.7533104 0.42094538
-7.1280003 3.8986669 0.43400002
-7.0786676 3.8928332 0.47433335
-6.7394862 3.8510001 0.45110813
-6.4769917 3.8496454 0.44946873
-6.1316428 3.8533931 0.46253577
-6.0559416 3.867228 0.4456571
-5.9423218 3.8475766 0.45879668
-5.8800001 3.8229997 0.43090624
-7.321044 3.9718261 0.42647827
-7.2533398 3.946646 0.44923076
-7.1537461 3.9162037 0.44944069
-7.0694828 3.9242256 0.4541935
-6.7253685 3.9509208 0.44949999
-6.6579342 3.9612892 0.45113337
-6.5477138 3.9511347 0.45480767
-6.4716878 3.9276419 0.44985068
-7.317389 4.0425553 0.41588888
-7.2558198 4.065115 0.45316392
-7.1538582 4.0605359 0.44857138
-7.0599999 4.0369334 0.45526668
-6.9970002 4.02 0.486
-6.880125 4.0578747 0.44412497
-6.7393794 4.0431552 0.44829312
-7.2535 4.1174998 0.4425
-6.9039998 4.1149998 0.40799999
-6.8458362 4.1517544 0.44422448
-6.7498178 4.1409745 0.44954541
-6.7354512 3.7713869 0.55003232
-6.6449189 3.750973 0.54894614
-6.5505385 3.734154 0.55089742
-6.4821286 3.7625849 0.54605722
-6.2177 3.7842999 0.579
-6.1515083 3.7596781 0.55001694
-6.0422106 3.7512367 0.55832881
-5.973835 3.7653883 0.52997965
-7.1149998 3.895 0.52999997
-7.0446081 3.8906429 0.54892862
-6.9886003 3.8827999 0.58219999
-6.7389526 3.8476193 0.55133331
-6.5079999 3.898 0.54799998
-6.474864 3.84866 0.54809707
-6.2245626 3.8602502 0.56824994
-6.1572285 3.8760006 0.54808575
-6.0344687 3.8634493 0.56181633
-5.9721851 3.8363554 0.53698313
-7.1532068 3.9304602 0.55176198
-7.0707393 3.9092174 0.5513044
-6.9753332 3.9183335 0.57299995
-6.7258644 3.9449325 0.54529536
-6.656415 3.9660237 0.54919523
-6.5485086 3.9535084 0.55209088
-6.4726853 3.9280925 0.55066663
-6.0444999 3.9054999 0.59249997
-5.9855003 3.9015002 0.52999997
-7.0469999 4.0417275 0.54195452
-6.9782724 4.0321822 0.55290914
-6.8897147 4.0678573 0.54328573
-6.7334886 4.0493674 0.55306119
-6.843462 4.1582565 0.55474359
-6.7494383 4.1422653 0.54918742
-6.7335353 3.7773571 0.64725
-6.6497426 3.7541142 0.64771432
-6.5497174 3.7377446 0.64838463
-6.4793849 3.7631927 0.65519232
-6.3368001 3.7868001 0.6638
-6.2480621 3.7794375 0.65137488
-6.1448641 3.7642713 0.65488136
-6.0683336 3.771883 0.63207859
-7.0308337 3.8944163 0.63733339
-6.963593 3.8828516 0.6544444
-6.8860002 3.8635001 0.66100001
-6.7381663 3.8515832 0.65063894
-6.4755001 3.851898 0.64747715
-6.3330002 3.8455002 0.66374999
-6.2541051 3.8776314 0.62878942
-6.1407008 3.886601 0.65527499
-6.0602474 3.8453925 0.64533693
-7.1389508 3.9487004 0.64335001
-7.07197 3.9174247 0.65760601
-6.9231119 3.9247775 0.63799995
-6.8691111 3.9248891 0.67544448
-6.7296138 3.9450004 0.64587098
-6.6458097 3.9665947 0.6488809
-6.5474052 3.9582887 0.64994228
-6.4753413 3.9360676 0.65181828
-6.3121662 3.9111667 0.67433333
-6.2415714 3.9097712 0.66342854
-6.1588001 3.9053998 0.65900004
-6.0809999 3.9059999 0.66100001
-7.0551839 4.0500298 0.6571213
-6.9590502 4.0347996 0.64665002
-6.887857 4.0690002 0.64014286
-6.6999998 4.0450001 0.60100001
-6.7382922 3.7824993 0.74658334
-6.649024 3.76161 0.74956101
-6.5471945 3.7428887 0.75030559
-6.4811316 3.7686574 0.74792111
-6.3284373 3.7911875 0.76106244
-6.2467947 3.7815385 0.75441021
-6.1692305 3.780103 0.73833323
-7.0054002 3.8944001 0.736
-6.9495931 3.8833706 0.75062954
-6.8707776 3.8758888 0.75833333
-6.7424235 3.8525116 0.75175565
-6.471055 3.8455176 0.74367869
-6.3604617 3.8374619 0.74092311
-6.2317505 3.8942499 0.74825001
-6.1467857 3.8519166 0.74756992
-6.099 3.878 0.70099998
-7.0547934 3.9378867 0.74926412
-6.9854999 3.9005001 0.78999996
-6.8436999 3.9480004 0.7277
-6.7534213 3.951895 0.74100006
-6.6468487 3.9702127 0.75012118
-6.5417089 3.9616461 0.74664587
-6.4675012 3.9354253 0.75287509
-6.3423219 3.9254844 0.75599998
-6.250236 3.9165459 0.75074553
-6.173316 3.9057894 0.7434209
-7.0473795 4.0580997 0.75164008
-6.968133 4.0525336 0.74053335
-6.8864999 4.0469999 0.71649998
-6.7361431 4.0510001 0.71778578
-6.6587 4.0589004 0.76016676
-6.7316828 3.7845001 0.85359091
-6.6497784 3.7653885 0.84980547
-6.5508885 3.7485554 0.85061109
-6.480947 3.7689996 0.85215801
-6.3444009 3.7928002 0.84046662
-6.2626114 3.7906389 0.83727771
-6.1989999 3.796 0.80500001
-6.9412947 3.8906465 0.84035289
-6.8507824 3.8656087 0.85669571
-6.749382 3.8397353 0.84735292
-6.4647923 3.8214486 0.84844822
-6.3637695 3.8036921 0.85738462
-6.2349763 3.8487434 0.85454655
-6.1934443 3.8472223 0.80911118
-7.0236473 3.9419413 0.82158816
-6.974555 3.9408519 0.86444443
-6.7246156 3.9803078 0.84184623
-6.6455154 3.9728186 0.84796971
-6.542912 3.9641469 0.85020584
-6.4575953 3.9433105 0.84297627
-6.3472443 3.9346671 0.85095555
-6.2526727 3.9175997 0.84503627
-6.9674048 4.056108 0.85029733
-6.7308002 3.7835197 0.95235997
-6.6503243 3.770025 0.94844991
-6.5432329 3.7529299 0.95281398
-6.4853539 3.7724121 0.94885302
-6.3240004 3.797667 0.92566669
-6.9183998 3.8922002 0.92740005
-6.8515 3.8789232 0.95015389
-6.7598171 3.8370302 0.95184857
-6.4492507 3.8156786 0.95292854
-6.3353233 3.8418024 0.96038043
-6.2838101 3.8584056 0.92110807
-6.9266663 3.9414577 0.93445837
-6.8853998 3.9588997 0.98299998
-6.7265568 3.9884825 0.94818521
-6.6583128 3.9747186 0.95393747
-6.5583496 3.9640248 0.94615
-6.4541669 3.9545951 0.94935721
-6.3468938 3.9340527 0.95487517
-6.2852306 3.9181538 0.92299998
-7.055625 4.0687499 0.90674996
-6.9338007 4.0307002 0.91820002
-6.851459 4.0199194 0.96127033
-6.7639503 4.0088501 0.96174997
-6.7268796 3.7843599 1.0420799
-6.644455 3.7742171 1.0487392
-6.5407033 3.7581251 1.0562969
-6.4866333 3.7733333 1.0476002
-6.8272676 3.8837335 1.0456002
-6.7542419 3.8453631 1.0540909
-6.443429 3.8354297 1.0618731
-6.3725114 3.8612003 1.0297333
-6.8405004 3.9435389 1.0420001
-6.7538829 3.9817061 1.0594705
-6.6448669 3.9840882 1.0475777
-6.5499768 3.9759521 1.0534762
-6.4425211 3.9540975 1.0568873
-6.3760004 3.9249678 1.0312258
-6.8205729 4.0188093 1.0324286
-6.7641568 4.0124741 1.0554999
-6.670917 4.0186667 1.0697501
-6.5359998 4 1.084
-6.4763999 4.0111003 1.0613
-6.7331586 3.7910004 1.1468948
-6.6468701 3.780674 1.1502173
-6.539989 3.7662768 1.1508673
-6.4905186 3.7759261 1.1507406
-6.7522826 3.8493853 1.1464359
-6.5227499 3.8087499 1.1600001
-6.4739041 3.8493836 1.1525211
-6.7586889 3.9572222 1.1559557
-6.6443586 3.9896147 1.1491283
-6.5494208 3.9805441 1.1482983
-6.4620352 3.9442101 1.1477441
-6.7413788 4.0144868 1.1491082
-6.678688 4.006125 1.1411248
-6.7249293 3.7917144 1.2548573
-6.6455002 3.7849312 1.2465683
-6.5410614 3.7695065 1.2486421
-6.488483 3.7801721 1.2587931
-6.8470001 3.825 1.226
-6.7435741 3.8476806 1.2496383
-6.6139998 3.8025 1.2550001
-6.5148745 3.8121247 1.249
-6.4796948 3.851337 1.2500437
-6.7425666 3.9576516 1.2532607
-6.6441483 3.9872956 1.2458889
-6.5487204 3.9793732 1.2444186
-6.4705291 3.9451914 1.2459548
-6.7470303 4.053803 1.2485604
-6.680511 4.0395846 1.2485853
-6.5126667 4.0026665 1.2763333
-6.7329621 4.1253333 1.2745926
-6.6825004 4.1219287 1.2832143
-6.7243533 3.7941182 1.3437648
-6.6404276 3.786453 1.3520238
-6.5400333 3.7741888 1.3505652
-6.4914002 3.77915 1.3495499
-6.7459497 3.8474634 1.3504634
-6.6986666 3.8026667 1.3656667
-6.5113006 3.8260999 1.3559998
-6.4835415 3.8516459 1.3481877
-6.7331018 3.9558201 1.3480769
-6.63941 3.9930456 1.3389546
-6.5453391 3.9850399 1.3499398
-6.4702272 3.9464304 1.3506558
-6.7308831 4.0422091 1.3410232
-6.667654 4.0203075 1.3462309
-6.5816665 4.0006666 1.368
-6.7418084 4.1552057 1.3410146
-6.676373 4.1542797 1.3469468
-6.7310257 4.2342248 1.36745
-6.6787376 4.2310529 1.3757106
-6.724 3.79375 1.4349999
-6.6430721 3.7915366 1.4459513
-6.5394549 3.7780249 1.4491392
-6.4956498 3.7780004 1.44935
-6.7455854 3.8413582 1.4503393
-6.6575007 3.8028336 1.48
-6.5191879 3.8308749 1.4512501
-6.4867043 3.8505058 1.4513739
-6.7366042 3.9470789 1.4482632
-6.6412501 3.9956248 1.4346251
-6.5398841 3.9859066 1.4492557
-6.4714742 3.9478383 1.4490285
-6.7214494 4.0153103 1.4491378
-6.6578927 4.0068569 1.4545715
-6.5826364 4.0030909 1.4385456
-6.4959998 4.0029998 1.497
-6.7262726 4.1809998 1.4172728
-6.6815996 4.1795001 1.4107
-6.7359796 4.2558436 1.4419607
-6.6708741 4.2584805 1.4416708
-6.7230539 4.3419456 1.4533784
-6.6691084 4.3408003 1.4676727
-6.7203331 4.4106669 1.4860001
-6.6847501 4.40275 1.4842501
-6.6364789 3.7938399 1.55164
-6.541759 3.781373 1.5478001
-6.4937501 3.7829998 1.5414375
-6.7386961 3.8371706 1.5512035
-6.6649499 3.8076999 1.5566
-6.5292592 3.8191111 1.5520371
-6.4846563 3.8537762 1.546329
-6.7372499 3.9522998 1.5508749
-6.6350002 3.993 1.5145
-6.5376554 3.9885001 1.5462186
-6.4718308 3.9517791 1.548463
-6.7190838 4.0175004 1.5445001
-6.6535206 4.0092402 1.5447598
-6.573144 4.0042858 1.5564287
-6.494 4.0019999 1.52
-6.7210002 4.2966666 1.5103334
-6.6863337 4.29 1.5093334
-6.7283082 4.3616152 1.5318078
-6.6670003 4.3580179 1.5358502
-6.7228665 4.4489779 1.5553555
-6.6611729 4.4463458 1.5600619
-6.7097774 4.5214448 1.5822222
-6.6745 4.5126877 1.57775
-6.6195555 3.7961113 1.6425555
-6.5366092 3.7838438 1.6505938
-6.4941816 3.7840002 1.6444547
-6.7372093 3.8416932 1.648145
-6.6501856 3.8096974 1.6533954
-6.5384674 3.821089 1.6544445
-6.4860129 3.8537788 1.6454809
-6.7377439 3.9442048 1.6535641
-6.6440001 3.9920001 1.652
-6.5288014 3.988667 1.6506666
-6.4759526 3.9527497 1.6500001
-6.7207499 4.0201783 1.6546426
-6.6482387 4.0138335 1.6452141
-6.556035 4.0064821 1.6543105
-6.4744005 4.0064006 1.6494
-7.7989998 4.2810001 1.602
-7.8237433 4.3471961 1.6438534
-7.7922726 4.342546 1.6567274
-6.7171435 4.4703336 1.6254286
-6.6653867 4.4670224 1.6274318
-6.7173605 4.5457411 1.65238
-6.6579466 4.5484638 1.6491166
-6.7089 4.6165004 1.6782
-6.6586156 4.6300774 1.6828464
-6.6170001 3.799 1.72
-6.5289822 3.7881968 1.748554
-6.4889998 3.7893999 1.7352002
-6.7373481 3.8453341 1.7493969
-6.6501913 3.8143187 1.7482553
-6.541213 3.8178024 1.7522954
-6.487453 3.8532557 1.7484305
-6.7372394 3.9484999 1.7468258
-6.5183344 3.97825 1.7588334
-6.4736962 3.9550462 1.749157
-6.724278 4.0239716 1.7546668
-6.6502552 4.0175643 1.7487946
-6.557054 4.0077114 1.7506843
-6.4759994 4.0022001 1.7336
-7.8467894 4.2635751 1.7530499
-7.8221841 4.349772 1.7510872
-7.7965002 4.3418331 1.7393334
-7.8580418 4.427783 1.7585
-7.7989998 4.421 1.777
-6.7073336 4.5770001 1.7296666
-6.662735 4.5759411 1.7214707
-6.7142339 4.6571331 1.7422001
-6.6480861 4.6522284 1.7468573
-6.7140002 4.7178001 1.7636
-6.6496668 4.7336664 1.7741108
-6.5289774 3.7895112 1.8466445
-6.4938889 3.7894444 1.853
-6.7388101 3.8478732 1.849032
-6.6515284 3.8171511 1.8495283
-6.541038 3.8196754 1.8500122
-6.4855614 3.8551991 1.8512623
-6.7396512 3.9479353 1.8464783
-6.5102229 3.9626665 1.8561112
-6.4745903 3.9517653 1.8480649
-6.9272223 4.0913334 1.8570001
-6.8415918 4.0896363 1.8778182
-6.7390013 4.0506196 1.8612961
-6.653162 4.0352001 1.8533998
-6.5460544 4.0193453 1.8578365
-6.4761248 4.0122499 1.8629999
-7.4208336 4.1940002 1.8648334
-7.3463049 4.1894722 1.8680558
-7.2559037 4.1758466 1.8729231
-7.1484227 4.1527996 1.8722003
-7.0493779 4.1346555 1.8713446
-6.9622803 4.1170459 1.8765583
-6.8767338 4.1080003 1.8782666
-7.9448018 4.2750144 1.8470788
-7.8468008 4.2677097 1.851023
-7.7484112 4.2757797 1.8664119
-7.6497254 4.2583761 1.8682753
-7.549067 4.2374425 1.8684919
-7.4527979 4.2168303 1.8704746
-7.3622379 4.2077146 1.8708575
-7.9486141 4.3482485 1.8489543
-7.8217711 4.3527856 1.8464299
-7.7821822 4.3304553 1.8576365
-7.921104 4.4145269 1.8466315
-7.8467064 4.4295688 1.833902
-7.7954998 4.4440002 1.8139999
-6.660778 4.6846113 1.8156667
-6.7410002 4.7519999 1.801
-6.6407747 4.757462 1.8405163
-6.6457257 4.8386536 1.8631686
-6.5999999 4.8969998 1.898
-6.6669998 4.901 1.886
-6.5318122 3.7923744 1.9492188
-6.4850001 3.7940001 1.9523333
-6.7371421 3.84866 1.9510201
-6.6454606 3.8189197 1.9495797
-6.5391154 3.8209491 1.9525194
-6.4880123 3.8563766 1.9482858
-6.739934 3.9460888 1.9508444
-6.5137777 3.9676666 1.9525555
-6.4731936 3.9531264 1.9495544
-6.9400001 4.0939999 1.921
-6.8427138 4.0830002 1.912143
-6.7307091 4.0427909 1.9430211
-6.6484532 4.0303397 1.951038
-6.5497632 4.0145264 1.9496577
-6.47825 4.0097504 1.9473333
-7.4324999 4.1989999 1.9095
-7.3486357 4.1886368 1.9083637
-7.2480001 4.1756926 1.9075384
-7.1543336 4.1516113 1.9091666
-7.049417 4.1340833 1.9093751
-6.9491539 4.1123071 1.9123847
-6.8636665 4.1086669 1.9086666
-7.9406543 4.2770858 1.9486791
-7.850656 4.2686849 1.9495887
-7.7506995 4.2841005 1.9058999
-7.6398883 4.2521114 1.9046667
-7.5465999 4.2422996 1.9047002
-7.4599419 4.2205291 1.9068824
-7.3559999 4.2060003 1.9133333
-7.9501534 4.3516483 1.9471763
-7.829299 4.3599739 1.9478698
-7.779572 4.3411431 1.9641429
-7.9202337 4.4104671 1.9537666
-7.8860722 4.4114289 1.9498572
-6.7010002 4.7930002 1.903
-6.6638336 4.7845001 1.9135001
-6.6408339 4.859333 1.9336923
-6.599 4.8429999 1.905
-6.7030005 4.9100003 1.939
-6.6338668 4.9432592 1.9560864
-6.5974998 4.9360003 1.9665
-6.640801 5.0104003 1.9844
-6.7233343 3.7923334 2.0893333
-6.6472764 3.7874444 2.0843887
-6.5333185 3.794682 2.0462277
-6.4970002 3.7909999 2.029
-6.7399335 3.8467536 2.0530324
-6.6476369 3.8184037 2.0412555
-6.5351448 3.821907 2.0503092
-6.488389 3.8602779 2.0508194
-6.7452388 3.9518263 2.0483913
-6.5075002 3.964875 2.059
-6.4751539 3.9546666 2.0459998
-6.7319279 4.0410171 2.05775
-6.6478763 4.0403423 2.0549586
-6.5574503 4.0175099 2.0521173
-6.4803686 4.0105786 2.0512631
-7.9392352 4.2793202 2.0501802
-7.8524938 4.2714558 2.0482531
-7.9543014 4.349278 2.045989
-7.8241587 4.3548574 2.0461426
-7.7963333 4.3481669 2.0408335
-7.928237 4.4113951 2.0461581
-7.8678522 4.4079261 2.0517778
-6.6356659 4.9662499 2.0289791
-6.5971999 4.9778004 2.0128
-6.7030001 5.027 2.089
-6.6321282 5.0470681 2.0481877
-6.5946159 5.0521922 2.0597694
-6.6481667 3.6926668 2.1941667
-6.7447238 3.7553339 2.1543913
-6.6375351 3.7450502 2.154125
-6.5582356 3.7795882 2.1521766
-6.7570424 3.8497949 2.1466324
-6.6086931 3.8098459 2.1475387
-6.5310235 3.8251028 2.1465113
-6.4880466 3.8574097 2.1493933
-6.7430487 3.9514999 2.152262
-6.5090003 3.9352002 2.1590002
-6.4777713 3.9484949 2.147917
-6.7396607 4.057662 2.1491783
-6.632462 4.0773458 2.1204612
-6.5586543 4.0443377 2.150382
-6.4836802 4.0162001 2.1553998
-6.726265 4.1385469 2.1601696
-6.6459002 4.1399283 2.1635716
-6.5828919 4.1261077 2.171536
-7.9414392 4.2822032 2.1533389
-7.8539658 4.2734714 2.1489773
-8.007 4.303 2.1659999
-7.9547958 4.3478813 2.1472366
-7.8172097 4.3426523 2.1522779
-7.7916002 4.3583999 2.141
-7.9313588 4.4154863 2.147923
-7.8559685 4.4081616 2.1491935
-6.6359997 5.0699687 2.1168747
-6.5961666 5.0890002 2.1173334
-7.6924553 5.1672049 2.1430454
-6.6396241 5.1511874 2.1443963
-6.5894036 5.1525779 2.1469808
-6.8060002 3.688 2.2479999
-6.7472644 3.6631389 2.2595417
-6.6451678 3.6568244 2.2573743
-6.8179998 3.7259998 2.2199998
-6.767725 3.7440789 2.2473924
-6.6224737 3.7357571 2.2424326
-6.5798578 3.7635005 2.2525003
-6.7565422 3.8461246 2.2465832
-6.6064291 3.8132858 2.2474287
-6.5340004 3.8270009 2.2493913
-6.488564 3.8598695 2.2486811
-6.7347183 3.9509563 2.2502174
-6.507833 3.9420002 2.2628334
-6.4783783 3.9481332 2.2479894
-6.7350216 4.055234 2.2507443
-6.6147499 4.0402503 2.2414999
-6.5599465 4.0506392 2.2479994
-6.4798713 4.009903 2.2457094
-6.7302876 4.1534395 2.2463336
-6.6422791 4.1862779 2.2188888
-6.5679889 4.1520085 2.2503426
-7.9372129 4.2837877 2.2501731
-7.8543139 4.2761011 2.2479215
-6.71872 4.2341399 2.26194
-6.6519823 4.2379456 2.2592542
-6.5792952 4.2327843 2.2724903
-8.0220003 4.3109999 2.2880001
-7.9557862 4.3452883 2.2499256
-7.8187461 4.3504457 2.2488678
-7.7948747 4.3570004 2.2376249
-7.9318237 4.4174447 2.2477779
-7.8571844 4.4098949 2.2537367
-7.7954998 4.4025002 2.2909999
-7.822257 5.1758852 2.2522287
-7.7463279 5.1552978 2.2501976
-7.6889739 5.1721258 2.2513752
-7.8176732 5.2429152 2.2495177
-6.8045001 3.5609999 2.38325
-6.7509837 3.5717702 2.3649669
-6.655632 3.5703778 2.3613575
-6.8083334 3.6470001 2.3740001
-6.7683029 3.6380908 2.3358185
-6.6335335 3.6423733 2.3450682
-6.5970001 3.6500001 2.362
-6.7726908 3.7512615 2.3499045
-6.6185427 3.7396529 2.3479724
-6.597167 3.7415004 2.3225002
-6.7429743 3.8572166 2.3418925
-6.6297779 3.8274999 2.3578889
-6.5263386 3.834784 2.3492839
-6.4895511 3.8570178 2.3473926
-6.7389569 3.9508913 2.3505218
-6.5082002 3.9329998 2.3682001
-6.4769287 3.9501226 2.3466458
-6.7243104 4.051578 2.3481779
-6.6277781 4.0470004 2.3626666
-6.5556502 4.0397668 2.344667
-6.4744616 4.0095773 2.3509617
-6.7248945 4.1505718 2.3503392
-6.6959996 4.1700001 2.3225
-6.5634151 4.1543169 2.3477731
-7.9325595 4.2863803 2.3466198
-7.8518295 4.2800908 2.3528833
-6.7191615 4.2529511 2.3463709
-6.6476521 4.2794785 2.3211737
-6.5591769 4.2516389 2.3512964
-7.9557605 4.3459382 2.3504584
-7.8195705 4.3477974 2.3492131
-7.7961249 4.3590002 2.3470001
-6.7141662 4.33112 2.3649526
-6.6511841 4.3363333 2.3621998
-6.5689044 4.3280392 2.3687115
-7.928369 4.4167628 2.3471842
-7.8608871 4.4135919 2.3482499
-7.8192062 5.1803446 2.3495171
-7.7433085 5.1566453 2.3509042
-7.6899657 5.177896 2.347517
-7.8188529 5.2452455 2.3505805
-7.737483 5.2787929 2.3426898
-7.686779 5.2524581 2.3505087
-6.8058 3.4876001 2.4864001
-6.748723 3.4789784 2.4739573
-6.6675453 3.4775267 2.470309
-6.8055191 3.53812 2.4584799
-6.7673535 3.538023 2.4372392
-6.6495075 3.5463128 2.4453356
-6.8021441 3.6322856 2.4537141
-6.7891932 3.6473873 2.444742
-6.6338491 3.6476383 2.4489996
-6.7502103 3.7372103 2.4376316
-6.6366582 3.728756 2.4332194
-6.7361484 3.8621175 2.4504998
-6.6541781 3.8442447 2.4480889
-6.5289011 3.8414929 2.4524932
-6.4891467 3.8594995 2.4510417
-6.7427597 3.9482181 2.4487388
-6.5096254 3.936125 2.4315
-6.4783106 3.9520674 2.4492624
-6.7249999 4.035872 2.4541285
-6.6474762 4.0404744 2.4530249
-6.5509558 4.0303869 2.4549088
-6.4725461 4.0130606 2.444303
-6.7138119 4.1672816 2.4354689
-6.6482491 4.1521249 2.4523752
-6.5693116 4.1719999 2.430022
-7.9302092 4.2893019 2.444279
-7.8507485 4.2835555 2.4509363
-6.7141833 4.2473817 2.4496911
-6.684 4.2557497 2.4457502
-6.5559158 4.2519445 2.449944
-7.9546785 4.3460541 2.449419
-7.8257184 4.343256 2.4507921
-7.7995 4.3929996 2.441
-6.7129474 4.3464389 2.4478951
-6.6643596 4.3758001 2.4256399
-6.5523171 4.3523979 2.4475837
-7.9285684 4.4182506 2.4532728
-7.8557448 4.4148836 2.44786
-6.7103086 4.4180002 2.4605
-6.6599727 4.4342747 2.4653561
-6.566021 4.4256535 2.4714999
-7.8166947 5.1821394 2.4521668
-7.74225 5.1613836 2.4485767
-7.688056 5.1820555 2.435889
-7.818861 5.2493305 2.4509749
-7.7262669 5.2755003 2.4471338
-7.6879187 5.2480283 2.449712
-7.8096671 5.3083334 2.4886668
-7.760179 5.3088217 2.4496431
-7.6989999 5.3024998 2.45
-6.5999999 5.3990002 2.401
-6.6262965 5.4643703 2.4261479
-6.5775414 5.4662433 2.4288383
-6.6210022 5.5453062 2.4514029
-6.5697145 5.546536 2.4517026
-6.6114998 5.6138749 2.4859998
-6.8153338 3.3906667 2.5933332
-6.7411814 3.3867729 2.5871365
-6.6728954 3.3857369 2.5776844
-6.8124232 3.4539621 2.5554421
-6.7546697 3.4333522 2.5406821
-6.6639562 3.4487789 2.5496771
-6.8062239 3.5418384 2.5561934
-6.7934494 3.5571499 2.5482752
-6.6461163 3.5464184 2.549036
-6.8070002 3.618 2.5109999
-6.765563 3.6425319 2.5422809
-6.6469994 3.6335325 2.5386772
-6.7010002 3.7079999 2.5610001
-6.6675 3.72 2.5254998
-6.7330265 3.8662906 2.5439475
-6.6500497 3.846925 2.5519998
-6.5375166 3.8385715 2.5501101
-6.4900198 3.8595924 2.5505557
-6.74189 3.9506891 2.5468442
-6.5071249 3.9407499 2.5495
-6.4767585 3.9529388 2.5482016
-6.7249279 4.0395365 2.5556092
-6.6492543 4.047298 2.5489998
-6.5438995 4.0335002 2.5502398
-6.4740596 4.0176177 2.551264
-6.6700001 4.1880002 2.5710001
-7.9310269 4.2927289 2.5449462
-7.8488784 4.2847018 2.5440526
-7.79 4.2946672 2.5550001
-6.7076826 4.2610912 2.5360909
-6.670711 4.253315 2.5467629
-6.565917 4.2689824 2.534441
-7.9522443 4.3428569 2.5490613
-7.8240194 4.3485012 2.5501783
-7.7854996 4.3649998 2.54075
-6.7083058 4.3511229 2.5439997
-6.6958227 4.3627057 2.5578239
-6.5473728 4.3491426 2.5495431
-7.930068 4.4224777 2.5528405
-7.8603263 4.4192042 2.5514491
-6.7063007 4.4455848 2.544698
-6.6706057 4.4746661 2.5391042
-6.5473742 4.4510393 2.5475781
-6.7076254 4.5263748 2.5741248
-6.6584001 4.533124 2.5691075
-6.5582395 4.520957 2.5714786
-7.8197198 5.1819687 2.5502501
-7.7405767 5.1652389 2.5481529
-7.6953335 5.1854162 2.5415001
-7.819859 5.2533298 2.5491412
-7.7123003 5.2506499 2.5519001
-7.6895208 5.2542539 2.5469015
-7.753859 5.3094993 2.5506999
-7.6908998 5.3039999 2.5550001
-6.6191864 5.5676246 2.519125
-6.5751152 5.5707698 2.5208848
-6.7349997 3.2939997 2.6940002
-6.6820002 3.29 2.6893334
-6.8201118 3.3588541 2.6644192
-6.7497249 3.3453238 2.6456373
-6.6749549 3.3530552 2.6529531
-6.8164845 3.4437745 2.6499028
-6.7977495 3.470125 2.6391251
-6.6614389 3.4465618 2.6517808
-6.8065338 3.5249336 2.6384671
-6.7708449 3.552 2.6507754
-6.658 3.5394676 2.6421428
-6.7424288 3.616286 2.6230001
-6.677 3.61325 2.6262498
-6.7409449 3.8721662 2.6455002
-6.6514497 3.8518579 2.6506937
-6.5306573 3.8419998 2.6504436
-6.488821 3.8682055 2.646384
-6.7434444 3.9537218 2.6500838
-6.5084543 3.9550908 2.6437271
-6.4815373 3.9509358 2.6496007
-6.7229781 4.0474319 2.6492271
-6.6548343 4.0536108 2.6467223
-6.5553436 4.0411458 2.6481993
-6.4736733 4.0245194 2.6515384
-7.9293151 4.294631 2.6486845
-7.8558464 4.2871952 2.6443262
-6.7020001 4.296 2.6010001
-6.5840001 4.2969999 2.602
-7.9509902 4.3442693 2.6488464
-7.8299699 4.3423285 2.6490002
-7.7883334 4.3598332 2.6611669
-6.7078824 4.3540001 2.6258826
-6.6689816 4.3565965 2.6463654
-6.555017 4.3676844 2.6361222
-7.9316039 4.4251046 2.6490207
-7.8614311 4.4246478 2.648314
-6.7046671 4.4516292 2.6396298
-6.6926303 4.4479351 2.655391
-6.5400538 4.447845 2.6517098
-6.7047281 4.5340004 2.6547272
-6.6765351 4.5582685 2.6410606
-6.5388522 4.5480781 2.6462698
-6.5 4.5804996 2.6669998
-6.6606731 4.6267405 2.6670172
-6.5561171 4.6190929 2.6749535
-7.8185334 5.1834345 2.6466334
-7.7434044 5.1720486 2.6466103
-7.6927152 5.1787143 2.6468573
-7.8215423 5.2489634 2.6515558
-7.7141008 5.2493496 2.6455498
-7.6914458 5.2573552 2.6445558
-7.8101249 5.3060002 2.64625
-7.7546806 5.3115721 2.6490896
-7.6943336 5.3053336 2.6590002
-6.6890001 3.197 2.799
-6.822906 3.2698872 2.7584715
-6.7480516 3.2542219 2.7545762
-6.6826067 3.2634208 2.7567899
-6.8296709 3.3490412 2.74963
-6.7377143 3.3211427 2.7240002
-6.6741676 3.3497682 2.7491393
-6.8157763 3.4402852 2.7453268
-6.7578974 3.4711034 2.7668622
-6.6678581 3.4457283 2.7454674
-6.7479553 3.5220459 2.7237728
-6.6822 3.5198002 2.7240667
-6.7397842 3.8747036 2.7484596
-6.6537313 3.8571539 2.7497311
-6.536891 3.848912 2.7468529
-6.4925642 3.8672044 2.7511027
-6.7436562 3.9471424 2.7531142
-6.5108662 3.9419334 2.7514005
-6.4812922 3.9556839 2.7482584
-6.724762 4.0476422 2.7479284
-6.6525712 4.0570712 2.7494287
-6.5522823 4.0501246 2.7489686
-6.4736991 4.0212989 2.7453399
-7.9189234 4.2936926 2.7452312
-7.8640647 4.2914186 2.748903
-7.9509988 4.3404307 2.7500181
-7.8308229 4.3406453 2.7487261
-7.7881999 4.3737998 2.7588
-6.6731672 4.3899999 2.7188337
-7.9342437 4.4264693 2.7472243
-7.8625007 4.4260221 2.7508049
-6.7084999 4.4775 2.7445002
-6.6699147 4.4571724 2.7442851
-6.5496821 4.4634767 2.7378094
-6.7053332 4.5351667 2.724
-6.689044 4.5513821 2.7535
-6.5286975 4.5482359 2.7507832
-6.723 4.66225 2.7389998
-6.6691275 4.6574502 2.7392962
-6.5325766 4.6508641 2.7479749
-6.4970002 4.697 2.79
-6.7045002 4.7309999 2.789
-6.6556892 4.7236891 2.7704003
-6.5506754 4.7200499 2.7757499
-7.8159733 5.1839733 2.7476218
-7.740654 5.1722507 2.7516665
-7.6975002 5.1852503 2.74475
-7.8237867 5.2499876 2.7492378
-7.7105174 5.244277 2.7492068
-7.6943674 5.2543001 2.744
-7.8126369 5.3065457 2.7584546
-7.7535992 5.313508 2.7490771
-7.6953335 5.3056669 2.7450004
-6.8320789 3.1705885 2.8672943
-6.7402887 3.1646702 2.8614118
-6.6908627 3.1707237 2.8635519
-6.9219999 3.2639999 2.829
-6.8381534 3.2460463 2.8448119
-6.7327008 3.2220335 2.8318667
-6.683959 3.2480435 2.8455164
-6.8320003 3.3451171 2.8445837
-6.7460008 3.3746314 2.8774741
-6.6785593 3.3470213 2.8467736
-6.8150001 3.4125001 2.8253751
-6.7522397 3.4305196 2.83548
-6.6787624 3.4218574 2.8182862
-6.7330723 3.8751209 2.8505361
-6.6449547 3.8599329 2.8491778
-6.5339751 3.8534374 2.8485806
-6.491961 3.8673077 2.8444617
-6.7435536 3.948915 2.8537869
-6.5103741 3.9380627 2.8466876
-6.476356 3.9541452 2.8522105
-6.7313151 4.047255 2.8540983
-6.6535559 4.0632219 2.8493111
-6.5505233 4.0536194 2.8499525
-6.4720531 4.0303063 2.8538671
-6.6586666 4.1156669 2.8916669
-7.9187784 4.2903333 2.8405557
-7.8715482 4.2897086 2.8487098
-7.9514513 4.3399711 2.8510964
-7.834825 4.3371921 2.8506317
-7.77 4.3699999 2.8
-7.9353218 4.4264235 2.8476775
-7.8595519 4.4283948 2.8486578
-6.6512003 4.4804001 2.8210001
-6.7249999 4.5120001 2.8180001
-6.6631713 4.5538955 2.845737
-6.5419211 4.5623021 2.8363016
-6.680346 4.6483459 2.8484037
-6.5210886 4.6492162 2.8496666
-6.4970002 4.697 2.8840001
-6.7372503 4.7589998 2.835
-6.6644917 4.7528348 2.8422089
-6.5310478 4.7540007 2.8469243
-6.4963336 4.7511115 2.8551111
-6.7344999 4.8080001 2.8710001
-6.6461759 4.8272648 2.8731174
-6.5509524 4.822372 2.8801157
-6.4990001 4.8109999 2.8729999
-7.8159995 5.1885505 2.8464003
-7.737792 5.176096 2.844835
-7.6973338 5.1923332 2.8270001
-7.8254657 5.2495704 2.8499761
-7.7091818 5.2453861 2.8577278
-7.6952267 5.254591 2.8456364
-7.813333 5.3099165 2.8435836
-7.7499814 5.3186107 2.8522217
-7.697 5.316 2.8570001
-6.8384867 3.0818384 2.9751356
-6.7413578 3.0752466 2.9676299
-6.6877999 3.0852001 2.9720001
-6.8508062 3.1397429 2.9465046
-6.7271714 3.1380405 2.94397
-6.6890235 3.1587501 2.9461753
-6.8466945 3.2462397 2.9477735
-6.7169738 3.252718 2.9624107
-6.6869135 3.2529829 2.9381375
-6.8248496 3.3306999 2.9268003
-6.7481246 3.3326874 2.9477811
-6.6864996 3.3264997 2.9188333
-6.7326975 3.8798182 2.9436965
-6.6467438 3.8627448 2.9503624
-6.5352192 3.8545101 2.946399
-6.4897661 3.8724 2.9498663
-6.8093328 3.9760001 2.9862225
-6.7641807 3.9481816 2.9487274
-6.5050001 3.901 2.924
-6.4403973 3.9458075 2.950882
-6.3931999 3.9754002 2.9784
-6.8061996 4.0388002 2.9946001
-6.7593942 4.0630369 2.9523704
-6.6482778 4.0683608 2.9504445
-6.5418267 4.0589232 2.9504235
-6.4462996 4.0353441 2.946516
-6.3942499 4.0258751 2.9800003
-6.7365999 4.1051998 2.9656
-6.6506004 4.1181998 2.9072001
-7.9183998 4.2828002 2.9591999
-7.872941 4.2947054 2.9478819
-7.951098 4.3397985 2.9483862
-7.8333526 4.3461938 2.952841
-7.7925 4.3535004 2.924
-7.9371448 4.4280624 2.949646
-7.851645 4.4316444 2.9482207
-7.8000002 4.4060001 2.984
-6.6533999 4.5851998 2.9280002
-6.5834999 4.5815001 2.9184999
-6.6590886 4.6555786 2.9427545
-6.5398045 4.6605735 2.9399996
-6.4970002 4.6810002 2.9200001
-6.6697564 4.7445407 2.9499464
-6.5131812 4.7435427 2.9510481
-6.4956002 4.7649341 2.9434001
-6.6501126 4.8621702 2.9393969
-6.532774 4.8550429 2.9389248
-6.4943485 4.8453264 2.9629998
-6.6424217 4.9210787 2.9706841
-6.5515223 4.9219999 2.9780865
-6.4902 4.9078002 2.9808004
-7.8152318 5.1906161 2.9506156
-7.7439995 5.1799307 2.945569
-7.6946669 5.1846666 2.9413335
-7.8262482 5.2486482 2.9478405
-7.7142448 5.2516413 2.9487362
-7.6971984 5.2620006 2.93695
-7.8157773 5.3127227 2.9636664
-7.7525449 5.320765 2.9528818
-7.691 5.3175001 2.9380002
0 0 0 1 0 0 0 1 0 0 0 1 0 0 0 0 0 1052 1 0 0
