ply
format ascii 1.0
comment PCL generated
element vertex 1700
property float x
property float y
property float z
element camera 0
property float view_px
property float view_py
property float view_pz
property float x_axisx
property float x_axisy
property float x_axisz
property float y_axisx
property float y_axisy
property float y_axisz
property float z_axisx
property float z_axisy
property float z_axisz
property float focal
property float scalex
property float scaley
property float centerx
property float centery
property int viewportx
property int viewporty
property float k1
property float k2
end_header
-6.6269999 5.033 0.71799999
-6.6160002 5.0430002 0.69499999
-6.6100001 5.0469999 0.67199999
-6.6170001 5.039 0.65100002
-6.618 5.0370002 0.63
-6.6110001 5.0430002 0.60699999
-6.6090002 5.0440001 0.58499998
-6.6009998 5.0500002 0.56300002
-6.6240001 5.026 0.54299998
-6.6170001 5.0320001 0.52100003
-6.6139998 5.0339999 0.49900001
-6.6110001 5.0359998 0.477
-6.6110001 5.0349998 0.45500001
-6.6069999 5.0370002 0.433
-6.6149998 5.0279999 0.412
-6.6009998 5.0409999 0.389
-6.605 5.0359998 0.368
-6.605 5.0349998 0.34599999
-6.6090002 5.0300002 0.32499999
-6.612 5.0250001 0.303
-6.612 5.0240002 0.28099999
-6.6090002 5.026 0.25999999
-6.598 5.0349998 0.237
-6.598 5.0339999 0.21600001
-6.6129999 5.0190001 0.19499999
-6.6059999 5.0240002 0.17299999
-6.6090002 5.02 0.15099999
-6.6059999 5.0219998 0.12899999
-6.6020002 5.0250001 0.107
-6.6020002 5.0229998 0.086000003
-6.6020002 5.0219998 0.064000003
-6.605 5.0180001 0.041999999
-6.6059999 5.0159998 0.021
-6.6059999 5.1030002 2.1459999
-6.5949998 5.112 2.1210001
-6.6079998 5.098 2.102
-6.6199999 5.085 2.0829999
-6.6240001 5.079 2.062
-6.6269999 5.0760002 2.0409999
-6.651 5.0500002 2.0250001
-6.6609998 5.04 2.0050001
-7.474 4.2210002 1.899
-7.4619999 4.2319999 1.872
-7.4619999 4.2309999 1.848
-6.7340002 4.9060001 0.90899998
-6.5879998 5.0500002 0.86799997
-6.618 5.0190001 0.85000002
-6.6030002 5.033 0.82700002
-6.6020002 5.0320001 0.80500001
-6.6020002 5.0320001 0.78299999
-6.5949998 5.0359998 0.75999999
-6.6030002 5.0279999 0.73900002
-6.6199999 5.0089998 0.72000003
-6.6100001 5.0180001 0.69700003
-6.605 5.0219998 0.67400002
-6.605 5.02 0.653
-6.6059999 5.0190001 0.63099998
-6.599 5.0240002 0.60799998
-6.6030002 5.0190001 0.58700001
-6.6100001 5.0110002 0.56599998
-6.599 5.02 0.54299998
-6.605 5.0139999 0.52200001
-6.6110001 5.006 0.50099999
-6.605 5.0100002 0.479
-6.612 5.0029998 0.45699999
-6.6160002 4.9980001 0.43599999
-6.6110001 5.0009999 0.414
-6.6030002 5.0079999 0.391
-6.5999999 5.0100002 0.36899999
-6.6110001 4.9980001 0.34799999
-6.6040001 5.0040002 0.32600001
-6.612 4.9949999 0.30500001
-6.6110001 4.994 0.28299999
-6.6160002 4.9889998 0.26199999
-6.6100001 4.993 0.23999999
-6.612 4.9899998 0.21799999
-6.6090002 4.9910002 0.19599999
-6.6090002 4.9899998 0.17399999
-6.6110001 4.987 0.153
-6.6139998 4.9829998 0.131
-6.6040001 4.9910002 0.109
-6.6090002 4.9850001 0.086999997
-6.6149998 4.9780002 0.066
-6.612 4.9809999 0.044
-6.612 4.9790001 0.022
-6.6100001 5.066 2.108
-6.6059999 5.0689998 2.085
-6.6100001 5.0640001 2.063
-6.612 5.0599999 2.0420001
-6.6360002 5.0359998 2.0250001
-6.632 5.039 2.0020001
-6.664 5.006 1.988
-6.6659999 5.0019999 1.966
-7.4510002 4.21 1.899
-7.4320002 4.2280002 1.87
-7.4390001 4.2189999 1.848
-6.5609999 5.046 0.86799997
-6.5949998 5.0120001 0.85000002
-6.586 5.0190001 0.82700002
-6.5780001 5.0250001 0.80400002
-6.5780001 5.0250001 0.78299999
-6.573 5.0289998 0.75999999
-6.5770001 5.0229998 0.73900002
-6.6220002 4.9770002 0.722
-6.625 4.973 0.70099998
-6.6149998 4.9819999 0.67799997
-6.6139998 4.9819999 0.65600002
-6.6020002 4.9920001 0.63300002
-6.6220002 4.9710002 0.61299998
-6.6100001 4.9819999 0.58999997
-6.6069999 4.9840002 0.56800002
-6.6110001 4.9770002 0.54699999
-6.6079998 4.9790001 0.52499998
-6.6220002 4.9640002 0.50400001
-6.6069999 4.9780002 0.48100001
-6.619 4.9650002 0.46000001
-6.6199999 4.9619999 0.43799999
-6.6139998 4.967 0.41600001
-6.6199999 4.961 0.39500001
-6.6269999 4.9520001 0.37400001
-6.619 4.9590001 0.35100001
-6.605 4.9720001 0.32800001
-6.6259999 4.9499998 0.308
-6.625 4.9499998 0.28600001
-6.625 4.948 0.264
-6.6139998 4.9580002 0.242
-6.612 4.9590001 0.22
-6.618 4.9520001 0.198
-6.625 4.9429998 0.177
-6.6230001 4.9439998 0.155
-6.619 4.947 0.133
-6.6160002 4.9489999 0.111
-6.619 4.9450002 0.089000002
-6.6149998 4.947 0.067000002
-6.6290002 4.9320002 0.046
-6.6360002 4.9239998 0.025
-6.6149998 5.0289998 2.092
-6.6020002 5.0409999 2.066
-6.6079998 5.0349998 2.0450001
-6.6170001 5.0240002 2.0250001
-6.625 5.0149999 2.0050001
-6.625 5.0139999 1.983
-6.6440001 4.993 1.966
-6.6729999 4.9629998 1.951
-7.4120002 4.2160001 1.895
-7.4099998 4.217 1.87
-7.4200001 4.2059999 1.848
-6.5560002 5.02 0.87
-6.5640001 5.0120001 0.84899998
-6.5640001 5.0100002 0.82700002
-6.5560002 5.0170002 0.80400002
-6.5549998 5.0170002 0.78299999
-6.552 5.0190001 0.76099998
-6.5560002 5.013 0.73900002
-6.6170001 4.9510002 0.72500002
-6.6220002 4.9460001 0.70300001
-6.6259999 4.9400001 0.68199998
-6.6500001 4.914 0.662
-6.6290002 4.9349999 0.63800001
-6.632 4.9299998 0.61699998
-6.6199999 4.941 0.59399998
-6.6100001 4.9499998 0.57099998
-7.4130001 4.1230001 0.244
-7.428 4.1059999 0.221
-7.4200001 4.1129999 0.197
-7.427 4.105 0.17299999
-7.427 4.1040001 0.15000001
-7.427 4.1030002 0.126
-7.4190001 4.1079998 0.102
-7.4299998 4.0970001 0.078000002
-7.4330001 4.092 0.054000001
-7.4429998 4.0799999 0.030999999
-7.4359999 4.086 0.0070000002
-6.6230001 4.9889998 2.0539999
-6.6170001 4.993 2.03
-6.6160002 4.993 2.0079999
-6.6160002 4.9910002 1.9859999
-6.638 4.9689999 1.969
-6.632 4.974 1.9450001
-6.658 4.947 1.929
-6.6659999 4.9369998 1.909
-7.3800001 4.2140002 1.892
-7.3829999 4.21 1.869
-7.3899999 4.2020001 1.846
-6.5609999 4.9840002 0.87300003
-6.5580001 4.987 0.85100001
-6.5560002 4.9879999 0.829
-6.5689998 4.973 0.80900002
-6.5560002 4.9850001 0.78600001
-6.559 4.9809999 0.764
-6.553 4.9850001 0.74199998
-6.5710001 4.967 0.722
-7.3049998 4.2290001 0.78299999
-7.2909999 4.2410002 0.75800002
-7.3060002 4.2249999 0.736
-7.3579998 4.171 0.71700001
-7.3899999 4.1160002 0.292
-7.3969998 4.1069999 0.26899999
-7.3860002 4.1170001 0.244
-7.3829999 4.119 0.221
-7.3959999 4.1040001 0.197
-7.3959999 4.1030002 0.17399999
-7.4070001 4.0910001 0.15000001
-7.4000001 4.0970001 0.126
-7.4029999 4.092 0.102
-7.402 4.0910001 0.079000004
-7.395 4.0970001 0.055
-7.4089999 4.0809999 0.030999999
-7.4120002 4.0770001 0.0070000002
-6.6139998 4.9660001 2.0350001
-6.6269999 4.9510002 2.016
-6.618 4.9590001 1.9910001
-6.6269999 4.948 1.971
-6.638 4.9359999 1.951
-6.6389999 4.934 1.929
-6.6589999 4.9130001 1.9119999
-6.6750002 4.895 1.893
-7.3569999 4.204 1.892
-7.3499999 4.21 1.8660001
-7.3779998 4.1799998 1.848
-6.5669999 4.948 0.87699997
-6.5710001 4.9429998 0.85600001
-6.5619998 4.9510002 0.833
-6.566 4.9460001 0.81099999
-6.573 4.9369998 0.79000002
-6.5580001 4.9510002 0.76700002
-6.5749998 4.9330001 0.74699998
-6.5830002 4.9239998 0.72600001
-7.2810001 4.2189999 0.78299999
-7.2670002 4.2309999 0.75800002
-7.2750001 4.2220001 0.73500001
-7.3260002 4.1700001 0.71700001
-7.3800001 4.0929999 0.317
-7.3740001 4.098 0.29300001
-7.3720002 4.098 0.26899999
-7.369 4.0999999 0.245
-7.3720002 4.0960002 0.222
-7.362 4.105 0.198
-7.3759999 4.0900002 0.17399999
-7.3779998 4.086 0.15099999
-7.3720002 4.0910001 0.127
-7.375 4.086 0.103
-7.375 4.085 0.079000004
-7.3860002 4.073 0.056000002
-7.3790002 4.0780001 0.032000002
-7.3850002 4.0710001 0.0080000004
-6.6760001 4.9250002 2.993
-6.697 4.9029999 2.977
-6.6230001 4.9219999 1.997
-6.6170001 4.927 1.973
-6.6170001 4.9260001 1.951
-6.618 4.9239998 1.929
-6.6269999 4.914 1.909
-6.6560001 4.8839998 1.893
-6.677 4.8610001 1.876
-6.6789999 4.8579998 1.854
-7.329 4.1989999 1.89
-7.3260002 4.1999998 1.865
-7.3449998 4.1799998 1.845
-6.559 4.9250002 0.87900001
-6.566 4.9169998 0.85799998
-6.6129999 4.868 0.84200001
-6.566 4.914 0.81400001
-6.5710001 4.908 0.79299998
-6.5689998 4.9089999 0.77100003
-6.598 4.8779998 0.75199997
-7.2470002 4.2210002 0.80500001
-7.2410002 4.2259998 0.78100002
-7.2399998 4.2259998 0.75800002
-7.244 4.2199998 0.73400003
-7.2950001 4.1669998 0.71600002
-7.3299999 4.1129999 0.36399999
-7.3540001 4.0869999 0.34200001
-7.3470001 4.0929999 0.317
-7.3410001 4.0970001 0.29300001
-7.3449998 4.092 0.27000001
-7.3379998 4.098 0.24600001
-7.3449998 4.0900002 0.222
-7.3390002 4.0939999 0.198
-7.3410001 4.0910001 0.175
-7.3449998 4.086 0.15099999
-7.3340001 4.0949998 0.127
-7.355 4.073 0.104
-7.348 4.079 0.079999998
-7.3579998 4.0669999 0.056000002
-7.3530002 4.0710001 0.032000002
-7.401 4.0209999 0.0099999998
-6.6300001 4.9390001 2.9820001
-6.6469998 4.9219999 2.9649999
-6.664 4.9029999 2.9489999
-6.6750002 4.8899999 2.9300001
-6.625 4.8870001 1.9579999
-6.625 4.8860002 1.9349999
-6.625 4.8839998 1.913
-6.6409998 4.8670001 1.8940001
-6.6329999 4.8740001 1.87
-6.6570001 4.849 1.853
-6.6789999 4.8260002 1.836
-6.6750002 4.8280001 1.813
-7.2969999 4.1989999 1.9119999
-7.2979999 4.1960001 1.888
-7.2969999 4.1950002 1.864
-7.3189998 4.1729999 1.844
-6.5739999 4.8779998 0.884
-6.572 4.8800001 0.86199999
-6.7129998 4.7350001 0.85799998
-6.8610001 4.5840001 0.85399997
-7.0749998 4.3660002 0.85799998
-7.2340002 4.2030001 0.85399997
-7.2199998 4.217 0.829
-7.2140002 4.2220001 0.80400002
-7.2259998 4.2080002 0.78200001
-7.2129998 4.2199998 0.75700003
-7.217 4.2140002 0.73400003
-7.2740002 4.1550002 0.71700001
-7.3249998 4.085 0.389
-7.3239999 4.085 0.366
-7.3239999 4.0830002 0.34200001
-7.3140001 4.0929999 0.317
-7.3140001 4.0910001 0.294
-7.3239999 4.079 0.271
-7.3119998 4.0900002 0.24600001
-7.3119998 4.0890002 0.222
-7.3099999 4.0890002 0.199
-7.3169999 4.0809999 0.175
-7.3140001 4.0830002 0.15099999
-7.3249998 4.0710001 0.12800001
-7.3239999 4.0700002 0.104
-7.3270001 4.066 0.081
-7.342 4.0489998 0.057
-7.388 4.0009999 0.035
-7.4060001 3.9809999 0.012
-6.6009998 4.9369998 2.9779999
-6.625 4.9120002 2.964
-6.6339998 4.901 2.944
-6.6570001 4.8769999 2.9300001
-6.6700001 4.862 2.911
-6.6750002 4.8569999 2.8900001
-6.6300001 4.8499999 1.941
-6.6269999 4.8509998 1.918
-6.6339998 4.8429999 1.897
-6.6269999 4.848 1.873
-6.6329999 4.842 1.852
-6.6440001 4.829 1.8329999
-6.6760001 4.796 1.818
-6.6900001 4.7810001 1.798
-7.2709999 4.191 1.91
-7.2620001 4.198 1.885
-7.2639999 4.1950002 1.8609999
-6.5749998 4.8460002 0.88700002
-6.579 4.8410001 0.866
-6.6960001 4.7210002 0.85900003
-6.842 4.5710001 0.85500002
-7.0560002 4.3520002 0.85900003
-7.2129998 4.191 0.85399997
-7.204 4.1989999 0.82999998
-7.1929998 4.2090001 0.80500001
-7.1869998 4.2140002 0.78100002
-7.1789999 4.2210002 0.75599998
-7.1880002 4.211 0.73400003
-7.2519999 4.1440001 0.71700001
-7.2930002 4.086 0.43700001
-7.2800002 4.0970001 0.412
-7.2820001 4.0939999 0.389
-7.2789998 4.0960002 0.36500001
-7.2930002 4.0799999 0.34200001
-7.2930002 4.079 0.31799999
-7.289 4.0809999 0.294
-7.2909999 4.0780001 0.271
-7.2820001 4.086 0.24600001
-7.2930002 4.0739999 0.223
-7.3000002 4.0650001 0.2
-7.296 4.0679998 0.176
-7.2859998 4.0770001 0.152
-7.289 4.072 0.12800001
-7.3150001 4.0450001 0.106
-7.3460002 4.0110002 0.082999997
-7.369 3.987 0.059999999
-7.388 3.9660001 0.037
-6.585 4.9219999 2.9790001
-6.599 4.9070001 2.961
-6.618 4.8860002 2.9449999
-6.6279998 4.8740001 2.9260001
-6.645 4.8559999 2.9089999
-6.652 4.848 2.888
-6.6680002 4.8299999 2.8710001
-6.6830001 4.8140001 2.8529999
-6.6290002 4.816 1.901
-6.6360002 4.8070002 1.88
-6.6269999 4.8150001 1.8559999
-6.6370001 4.803 1.836
-6.6370001 4.802 1.813
-6.6669998 4.7709999 1.798
-6.677 4.7589998 1.778
-6.744 4.691 1.77
-7.2509999 4.1750002 1.863
-6.552 4.8379998 0.88700002
-6.5799999 4.8080001 0.86900002
-6.6669998 4.7179999 0.85799998
-6.822 4.559 0.85500002
-7.04 4.335 0.86000001
-7.1799998 4.1900001 0.85399997
-7.1589999 4.21 0.82800001
-7.1719999 4.1960001 0.80599999
-7.1680002 4.1989999 0.78200001
-7.1539998 4.211 0.75700003
-7.165 4.1989999 0.73400003
-7.2610002 4.086 0.46000001
-7.2589998 4.086 0.43599999
-7.2579999 4.086 0.41299999
-7.2680001 4.0739999 0.38999999
-7.2620001 4.0799999 0.366
-7.2649999 4.0749998 0.34200001
-7.2690001 4.0700002 0.31900001
-7.2649999 4.072 0.29499999
-7.256 4.0799999 0.271
-7.2519999 4.0830002 0.24699999
-7.2649999 4.0679998 0.22400001
-7.2579999 4.0739999 0.2
-7.2690001 4.0619998 0.176
-7.2620001 4.0679998 0.152
-7.2930002 4.0339999 0.13
-7.3260002 3.9990001 0.108
-7.349 3.9749999 0.085000001
-7.3579998 3.964 0.061000001
-6.539 4.9390001 2.9920001
-6.559 4.9169998 2.9760001
-6.5689998 4.9050002 2.957
-6.586 4.8870001 2.9400001
-6.5999999 4.8720002 2.9219999
-6.6129999 4.8579998 2.904
-6.6360002 4.8330002 2.8889999
-6.6430001 4.8249998 2.868
-6.6490002 4.8169999 2.8469999
-6.6700001 4.7950001 2.832
-6.6820002 4.7810001 2.813
-6.6329999 4.7789998 1.8839999
-6.6269999 4.7839999 1.8609999
-6.6259999 4.783 1.8380001
-6.632 4.776 1.817
-6.6389999 4.7680001 1.796
-6.6500001 4.756 1.776
-6.6739998 4.73 1.7589999
-6.7020001 4.6999998 1.743
-6.5819998 4.7750001 0.87199998
-6.6339998 4.7199998 0.85699999
-6.7989998 4.5500002 0.85500002
-7.02 4.322 0.86000001
-7.1490002 4.1890001 0.85299999
-7.1329999 4.2030001 0.82700002
-7.1339998 4.2010002 0.80400002
-7.1259999 4.2080002 0.77999997
-7.1339998 4.1989999 0.75700003
-7.1300001 4.2020001 0.73299998
-7.1939998 4.1339998 0.71700001
-7.2340002 4.0819998 0.50800002
-7.2470002 4.0669999 0.48500001
-7.237 4.0760002 0.461
-7.2270002 4.085 0.43599999
-7.2309999 4.0799999 0.41299999
-7.2379999 4.0710001 0.38999999
-7.2420001 4.0650001 0.366
-7.2350001 4.072 0.34200001
-7.2350001 4.0700002 0.31900001
-7.2350001 4.0689998 0.29499999
-7.23 4.072 0.271
-7.2350001 4.066 0.248
-7.2350001 4.0650001 0.22400001
-7.2480001 4.0500002 0.20100001
-7.2550001 4.0419998 0.178
-7.2690001 4.026 0.155
-7.309 3.984 0.133
-7.336 3.954 0.11
-6.5229998 4.9239998 2.993
-6.533 4.9120002 2.973
-6.5500002 4.8940001 2.957
-6.5599999 4.882 2.937
-6.5799999 4.8600001 2.9219999
-6.5929999 4.8460002 2.9030001
-6.5999999 4.8379998 2.8829999
-6.6269999 4.809 2.869
-6.6360002 4.7979999 2.849
-6.6529999 4.7800002 2.832
-6.6700001 4.7620001 2.8150001
-6.6760001 4.7540002 2.7939999
-6.7049999 4.724 2.7809999
-6.632 4.7459998 1.844
-6.631 4.7449999 1.821
-6.6329999 4.7420001 1.799
-6.6469998 4.7259998 1.78
-6.6490002 4.723 1.758
-6.658 4.7129998 1.737
-6.6880002 4.6820002 1.721
-6.6950002 4.6729999 1.7
-6.573 4.7519999 0.87400001
-6.6279998 4.6939998 0.85900003
-6.8000002 4.5170002 0.85799998
-7.0139999 4.2950001 0.86199999
-7.118 4.1869998 0.852
-7.1170001 4.1869998 0.82800001
-7.099 4.2030001 0.80299997
-7.1030002 4.198 0.77999997
-7.0939999 4.2069998 0.755
-7.105 4.1939998 0.73299998
-7.1350002 4.1609998 0.713
-7.2010002 4.0830002 0.53100002
-7.2090001 4.073 0.50800002
-7.2059999 4.0749998 0.484
-7.2030001 4.0770001 0.46000001
-7.2069998 4.072 0.43700001
-7.2129998 4.0650001 0.414
-7.2140002 4.0619998 0.38999999
-7.2140002 4.0599999 0.36700001
-7.2179999 4.0549998 0.34299999
-7.2080002 4.0650001 0.31900001
-7.211 4.0599999 0.29499999
-7.2080002 4.0619998 0.27200001
-7.2150002 4.053 0.248
-7.2220001 4.0450001 0.22499999
-7.25 4.0139999 0.20299999
-7.2589998 4.0029998 0.18000001
-7.3080001 3.9519999 0.15800001
-7.3200002 3.938 0.13500001
-6.507 4.9070001 2.971
-6.52 4.8920002 2.9530001
-6.5339999 4.8769999 2.9349999
-6.5539999 4.855 2.9189999
-6.5679998 4.8400002 2.901
-6.5799999 4.8260002 2.882
-6.5869999 4.8179998 2.862
-6.6040001 4.7989998 2.845
-6.6230001 4.7779999 2.8280001
-6.6430001 4.756 2.812
-6.6459999 4.7519999 2.79
-6.6669998 4.73 2.7739999
-6.6810002 4.7140002 2.756
-6.6869998 4.7059999 2.7349999
-6.6290002 4.7160001 1.825
-6.6389999 4.704 1.8049999
-6.6389999 4.7020001 1.783
-6.6430001 4.697 1.761
-6.6490002 4.6900001 1.74
-6.6659999 4.671 1.721
-6.6659999 4.6700001 1.698
-6.7020001 4.632 1.684
-6.7090001 4.6230001 1.663
-6.585 4.7069998 0.87800002
-6.5949998 4.6960001 0.85799998
-6.7839999 4.4990001 0.86000001
-6.9899998 4.2859998 0.86299998
-7.0929999 4.178 0.852
-7.0809999 4.1900001 0.82700002
-7.0739999 4.1950002 0.80299997
-7.079 4.1880002 0.77999997
-7.0689998 4.197 0.75599998
-7.0900002 4.1750002 0.73500001
-7.1729999 4.079 0.57800001
-7.1849999 4.066 0.55599999
-7.178 4.072 0.53200001
-7.178 4.0710001 0.50800002
-7.178 4.0689998 0.484
-7.1680002 4.0780001 0.46000001
-7.1799998 4.0640001 0.43700001
-7.1789999 4.0640001 0.414
-7.1830001 4.059 0.38999999
-7.1859999 4.0539999 0.36700001
-7.1719999 4.0669999 0.34200001
-7.1939998 4.0440001 0.31999999
-7.1719999 4.0640001 0.29499999
-7.184 4.0500002 0.27200001
-7.2020001 4.0310001 0.25
-7.2220001 4.0089998 0.227
-7.244 3.984 0.205
-7.2690001 3.957 0.182
-6.493 4.8889999 2.9719999
-6.5009999 4.8800001 2.9519999
-6.5110002 4.868 2.9330001
-6.5240002 4.8530002 2.915
-6.5339999 4.842 2.8959999
-6.5539999 4.8200002 2.8800001
-6.5739999 4.7989998 2.8640001
-6.5869999 4.7839999 2.845
-6.5939999 4.776 2.825
-6.5999999 4.7680001 2.8039999
-6.6160002 4.75 2.786
-6.6329999 4.7319999 2.7690001
-6.6570001 4.7059999 2.7539999
-6.6630001 4.698 2.733
-6.6789999 4.6810002 2.7149999
-6.6919999 4.6669998 2.6960001
-6.6599998 4.6479998 1.7920001
-6.6389999 4.6690001 1.765
-6.6440001 4.6620002 1.743
-6.6479998 4.6570001 1.722
-6.6560001 4.6469998 1.701
-6.6690001 4.6329999 1.681
-6.7010002 4.599 1.665
-6.7080002 4.5900002 1.6440001
-6.5900002 4.6700001 0.88200003
-6.5939999 4.665 0.86000001
-6.7540002 4.4980001 0.85900003
-6.927 4.3179998 0.85799998
-7.0630002 4.1750002 0.85100001
-7.0469999 4.191 0.82599998
-7.0580001 4.178 0.80400002
-7.0539999 4.1810002 0.77999997
-7.0510001 4.1820002 0.75599998
-7.0570002 4.1760001 0.73400003
-7.158 4.0619998 0.60299999
-7.1490002 4.0700002 0.579
-7.1529999 4.0640001 0.55500001
-7.1459999 4.0700002 0.53100002
-7.1500001 4.0650001 0.50800002
-7.1609998 4.052 0.48500001
-7.1539998 4.0580001 0.461
-7.151 4.0599999 0.43700001
-7.1479998 4.0619998 0.414
-7.151 4.0570002 0.38999999
-7.165 4.0409999 0.368
-7.1620002 4.0430002 0.34400001
-7.1589999 4.0450001 0.31999999
-7.1690001 4.033 0.29699999
-7.1880002 4.0120001 0.27399999
-7.2010002 3.997 0.252
-7.243 3.9530001 0.23
-7.2509999 3.9430001 0.207
-6.507 4.8439999 2.984
-6.5100002 4.8390002 2.9619999
-6.5 4.848 2.9360001
-6.5079999 4.8379998 2.9159999
-6.5219998 4.823 2.898
-6.5320001 4.8109999 2.878
-6.5510001 4.79 2.862
-6.5539999 4.7859998 2.8399999
-6.5679998 4.7709999 2.822
-6.5910001 4.7459998 2.8069999
-6.5910001 4.744 2.7839999
-6.6139998 4.7199998 2.7690001
-6.6339998 4.698 2.7520001
-6.6440001 4.6859999 2.733
-6.6570001 4.6719999 2.714
-6.6669998 4.6599998 2.694
-6.6929998 4.631 2.6800001
-6.6939998 4.6300001 2.6559999
-7.1110001 4.1500001 1.903
-6.7189999 4.553 1.788
-6.652 4.6209998 1.75
-6.6469998 4.6259999 1.726
-6.6350002 4.6360002 1.701
-6.6560001 4.6139998 1.683
-6.6680002 4.5999999 1.663
-6.6830001 4.5840001 1.643
-6.7010002 4.5640001 1.624
-6.7199998 4.5419998 1.6059999
-6.5999999 4.6279998 0.88700002
-6.6020002 4.625 0.86400002
-6.7449999 4.4749999 0.86000001
-6.927 4.2839999 0.861
-7.0310001 4.1739998 0.85100001
-7.0349998 4.1690001 0.82800001
-7.0219998 4.1810002 0.80299997
-7.0289998 4.1719999 0.77999997
-7.0190001 4.1810002 0.75599998
-7.02 4.1789999 0.73199999
-7.118 4.072 0.64899999
-7.1170001 4.0710001 0.625
-7.1279998 4.059 0.60299999
-7.125 4.0609999 0.579
-7.125 4.059 0.55500001
-7.1240001 4.059 0.53200001
-7.1209998 4.0609999 0.50800002
-7.1230001 4.0570002 0.48500001
-7.1300001 4.0489998 0.46200001
-7.1220002 4.0560002 0.43700001
-7.1269999 4.0489998 0.414
-7.1269999 4.0479999 0.391
-7.1350002 4.039 0.368
-7.1209998 4.052 0.34299999
-7.1459999 4.0240002 0.32100001
-7.1719999 3.9960001 0.29899999
-7.1939998 3.971 0.27700001
-7.2179999 3.9449999 0.25400001
-6.5100002 4.8099999 2.9920001
-6.5159998 4.802 2.971
-6.5120001 4.8049998 2.947
-6.5050001 4.8109999 2.921
-6.5139999 4.8000002 2.902
-6.5100002 4.8039999 2.8770001
-6.526 4.7849998 2.8599999
-6.5320001 4.777 2.839
-6.5380001 4.7690001 2.8180001
-6.5689998 4.7360001 2.806
-6.5650001 4.7389998 2.7809999
-6.5939999 4.7080002 2.7679999
-6.5939999 4.7069998 2.7449999
-6.6170001 4.6810002 2.73
-6.6300001 4.6669998 2.711
-6.6500001 4.645 2.6949999
-6.6570001 4.6370001 2.674
-6.6729999 4.619 2.6559999
-6.684 4.6059999 2.6359999
-6.691 4.5970001 2.615
-7.0809999 4.1479998 1.901
-7.0840001 4.1440001 1.878
-7.086 4.1399999 1.854
-6.652 4.5890002 1.732
-6.645 4.5949998 1.707
-6.6459999 4.5910001 1.6849999
-6.6479998 4.5879998 1.663
-6.664 4.5710001 1.643
-6.6799998 4.553 1.624
-6.6989999 4.5320001 1.6059999
-6.7210002 4.5079999 1.587
-6.6030002 4.592 0.88999999
-6.586 4.6090002 0.86500001
-6.7249999 4.4629998 0.861
-6.8990002 4.2800002 0.86000001
-7.0079999 4.165 0.85100001
-6.9910002 4.1810002 0.82499999
-6.9899998 4.1810002 0.80199999
-6.9850001 4.1849999 0.778
-6.9899998 4.1789999 0.755
-7.0089998 4.158 0.73400003
-7.1069999 4.052 0.67400002
-7.098 4.059 0.64999998
-7.1009998 4.0549998 0.62599999
-7.1009998 4.0539999 0.60299999
-7.1020002 4.052 0.579
-7.1020002 4.0500002 0.55599999
-7.099 4.052 0.53200001
-7.099 4.0500002 0.50800002
-7.1059999 4.0419998 0.486
-7.0999999 4.0469999 0.461
-7.1069999 4.0380001 0.43799999
-7.0929999 4.0510001 0.414
-7.1040001 4.039 0.391
-7.1209998 4.0190001 0.36899999
-7.1350002 4.0029998 0.34599999
-7.1560001 3.9790001 0.324
-7.1739998 3.96 0.301
-7.198 3.9330001 0.27900001
-6.5190001 4.7670002 2.9790001
-6.5029998 4.7820001 2.95
-6.5159998 4.7670002 2.9319999
-6.52 4.7620001 2.9100001
-6.526 4.7540002 2.8900001
-6.513 4.7659998 2.862
-6.5190001 4.7589998 2.8410001
-6.5219998 4.7540002 2.819
-6.5359998 4.7389998 2.8010001
-6.5489998 4.724 2.7820001
-6.5619998 4.7090001 2.7639999
-6.5679998 4.7020001 2.743
-6.5910001 4.677 2.727
-6.6009998 4.665 2.7079999
-6.6170001 4.6469998 2.6900001
-6.6440001 4.618 2.6760001
-6.6370001 4.6240001 2.6500001
-6.6529999 4.6059999 2.632
-6.6820002 4.5739999 2.619
-6.6929998 4.5609999 2.599
-6.704 4.5489998 2.579
-6.7340002 4.5170002 2.5650001
-7.0570002 4.1389999 1.9
-7.053 4.1420002 1.875
-7.0510001 4.1430001 1.851
-6.6479998 4.559 1.6900001
-6.6370001 4.5679998 1.665
-6.6479998 4.5560002 1.6440001
-6.6560001 4.546 1.623
-6.664 4.5359998 1.602
-6.6729999 4.526 1.582
-6.7049999 4.4920001 1.5650001
-6.723 4.4720001 1.546
-6.5999999 4.5619998 0.87
-6.6789999 4.4780002 0.85799998
-6.8530002 4.2950001 0.85699999
-6.974 4.1669998 0.84899998
-6.9829998 4.1570001 0.82700002
-6.961 4.178 0.801
-6.9679999 4.1690001 0.77899998
-6.9640002 4.1719999 0.755
-6.9699998 4.165 0.73299998
-7.0669999 4.0619998 0.72000003
-7.0869999 4.04 0.69800001
-7.0679998 4.059 0.67299998
-7.0830002 4.0409999 0.65100002
-7.0700002 4.0539999 0.62599999
-7.0669999 4.0549998 0.602
-7.0809999 4.039 0.57999998
-7.079 4.04 0.55599999
-7.072 4.046 0.53200001
-7.0819998 4.0339999 0.509
-7.079 4.0359998 0.486
-7.079 4.0349998 0.46200001
-7.0689998 4.0440001 0.43799999
-7.073 4.039 0.41499999
-7.085 4.0250001 0.39199999
-7.1230001 3.983 0.37099999
-7.1259999 3.9790001 0.34799999
-7.1599998 3.9419999 0.32600001
-6.5110002 4.744 2.983
-6.5180001 4.7360001 2.9630001
-6.5079999 4.7449999 2.9360001
-6.5180001 4.7329998 2.9159999
-6.5110002 4.7389998 2.891
-6.5209999 4.7280002 2.8710001
-6.5240002 4.723 2.849
-6.527 4.7179999 2.8269999
-6.5170002 4.7280002 2.8
-6.5229998 4.7199998 2.78
-6.5489998 4.6919999 2.766
-6.546 4.6929998 2.7409999
-6.5619998 4.6760001 2.724
-6.585 4.6500001 2.7090001
-6.5910001 4.6420002 2.688
-6.6040001 4.6279998 2.6689999
-6.6279998 4.6020002 2.6530001
-6.6339998 4.5939999 2.632
-6.6440001 4.5819998 2.612
-6.6690001 4.5549998 2.5969999
-6.6820002 4.54 2.5780001
-6.698 4.5219998 2.5599999
-6.6999998 4.5190001 2.5369999
-7.0229998 4.1409998 1.897
-7.027 4.1350002 1.874
-7.0300002 4.1300001 1.851
-6.6620002 4.5100002 1.675
-6.658 4.513 1.651
-6.6539998 4.5149999 1.628
-6.6550002 4.5139999 1.605
-6.6669998 4.5 1.585
-6.6719999 4.493 1.563
-6.691 4.4720001 1.544
-6.7189999 4.4419999 1.527
-6.5970001 4.533 0.87300003
-6.678 4.4460001 0.861
-6.8390002 4.276 0.85900003
-6.948 4.1609998 0.84899998
-6.9330001 4.1750002 0.824
-6.941 4.165 0.80199999
-6.9310002 4.1750002 0.77700001
-6.927 4.178 0.75400001
-6.927 4.1760001 0.73100001
-7.0489998 4.0469999 0.72100002
-7.0430002 4.052 0.69599998
-7.052 4.0409999 0.67400002
-7.0300002 4.0619998 0.648
-7.046 4.0450001 0.62599999
-7.039 4.0500002 0.602
-7.0609999 4.027 0.58099997
-7.0440001 4.0430002 0.55599999
-7.0440001 4.0409999 0.53200001
-7.0339999 4.0510001 0.50800002
-7.0380001 4.0450001 0.48500001
-7.0419998 4.04 0.461
-7.0560002 4.0240002 0.43900001
-7.0739999 4.0029998 0.417
-7.099 3.9749999 0.39500001
-7.112 3.96 0.37200001
-7.1370001 3.9330001 0.35100001
-6.5240002 4.697 2.9719999
-6.5139999 4.7059999 2.9449999
-6.5139999 4.7049999 2.9219999
-6.5170002 4.6999998 2.9000001
-6.5209999 4.6960001 2.878
-6.52 4.6950002 2.8540001
-6.5240002 4.6900001 2.8329999
-6.533 4.678 2.813
-6.5219998 4.6890001 2.786
-6.5229998 4.6859999 2.763
-6.526 4.6820002 2.7409999
-6.539 4.6669998 2.7219999
-6.5560002 4.6479998 2.7049999
-6.5619998 4.6409998 2.684
-6.5949998 4.605 2.6719999
-6.598 4.6009998 2.6500001
-6.6110001 4.586 2.631
-6.6240001 4.5710001 2.612
-6.6360002 4.5570002 2.5929999
-6.6490002 4.5419998 2.5739999
-6.665 4.5240002 2.556
-6.678 4.5089998 2.536
-6.7020001 4.4829998 2.5209999
-6.7179999 4.4650002 2.5020001
-7 4.131 1.897
-7.0009999 4.1279998 1.873
-7.0149999 4.112 1.853
-6.6620002 4.4749999 1.6339999
-6.6550002 4.4809999 1.609
-6.6599998 4.4749999 1.5880001
-6.665 4.4679999 1.566
-6.6659999 4.4650002 1.543
-6.6919999 4.4369998 1.526
-6.711 4.4159999 1.507
-6.7199998 4.4050002 1.4859999
-6.6079998 4.4889998 0.87699997
-6.6479998 4.4460001 0.86000001
-6.8179998 4.2649999 0.85900003
-6.921 4.1560001 0.84899998
-6.9109998 4.164 0.824
-6.9099998 4.164 0.801
-6.9070001 4.1659999 0.778
-6.908 4.1630001 0.75400001
-6.9180002 4.152 0.73199999
-7.02 4.0430002 0.72000003
-7.0089998 4.0539999 0.69599998
-7.0110002 4.0500002 0.67199999
-7.0149999 4.0450001 0.64899999
-7.0300002 4.027 0.62699997
-7.0219998 4.0339999 0.60299999
-7.0089998 4.0469999 0.57800001
-7.0159998 4.0380001 0.55599999
-7.0170002 4.0359998 0.53200001
-7.0100002 4.0419998 0.50800002
-7.0209999 4.0289998 0.486
-7.0510001 3.9960001 0.46399999
-7.0580001 3.9879999 0.44100001
-7.0910001 3.95 0.41999999
-7.1079998 3.9319999 0.398
-6.5599999 4.6269999 2.9690001
-6.5279999 4.658 2.934
-6.5209999 4.664 2.908
-6.5209999 4.6630001 2.885
-6.5279999 4.6550002 2.8640001
-6.5240002 4.6570001 2.839
-6.5229998 4.658 2.816
-6.5300002 4.6479998 2.7950001
-6.5339999 4.6440001 2.773
-6.533 4.6430001 2.75
-6.5289998 4.645 2.7260001
-6.526 4.6479998 2.701
-6.5489998 4.6220002 2.6860001
-6.5689998 4.5999999 2.6689999
-6.5679998 4.5999999 2.6459999
-6.5809999 4.585 2.6270001
-6.5970001 4.566 2.6099999
-6.6100001 4.5510001 2.5910001
-6.6230001 4.5370002 2.5710001
-6.6420002 4.5149999 2.5539999
-6.6550002 4.5009999 2.5350001
-6.6620002 4.4920001 2.5139999
-6.6880002 4.4640002 2.4990001
-6.6960001 4.454 2.4779999
-6.7049999 4.4429998 2.4579999
-6.7179999 4.428 2.438
-6.9829998 4.1149998 1.897
-6.9619999 4.1350002 1.869
-6.9879999 4.1069999 1.851
-6.6620002 4.441 1.615
-6.6599998 4.4419999 1.592
-6.6599998 4.4400001 1.569
-6.664 4.4349999 1.5470001
-6.6690001 4.4289999 1.525
-6.684 4.4109998 1.505
-6.6939998 4.4000001 1.485
-6.724 4.3660002 1.4680001
-6.7309999 4.3579998 1.446
-6.6209998 4.4429998 0.88200003
-6.6209998 4.4419999 0.86000001
-6.8099999 4.2410002 0.861
-6.881 4.165 0.847
-6.8790002 4.1659999 0.82300001
-6.8730001 4.171 0.80000001
-6.8730001 4.1690001 0.77600002
-6.8769999 4.1630001 0.75400001
-6.8940001 4.145 0.73199999
-6.9829998 4.0489998 0.71899998
-6.9770002 4.0539999 0.69499999
-6.9840002 4.0450001 0.67199999
-6.9840002 4.0440001 0.64899999
-6.9980001 4.027 0.62699997
-6.9780002 4.0469999 0.60100001
-6.9829998 4.0409999 0.57800001
-6.9829998 4.04 0.55500001
-6.9899998 4.0310001 0.53200001
-6.987 4.033 0.50800002
-6.9970002 4.02 0.486
-7.0219998 3.993 0.46399999
-7.053 3.9579999 0.44299999
-6.9039998 4.1149998 0.40799999
-6.8779998 4.1409998 0.38299999
-6.8720002 4.1459999 0.36000001
-6.868 4.1490002 0.336
-6.8720002 4.1440001 0.31299999
-6.8670001 4.1469998 0.28999999
-6.8779998 4.1350002 0.26800001
-6.8759999 4.1360002 0.244
-6.868 4.1430001 0.221
-6.882 4.1259999 0.198
-6.8800001 4.1279998 0.175
-6.8709998 4.1350002 0.15099999
-6.869 4.1360002 0.12800001
-6.8720002 4.132 0.105
-6.8629999 4.1409998 0.082000002
-6.8639998 4.138 0.059
-6.8629999 4.1370001 0.035999998
-6.8759999 4.1220002 0.013
-6.5180001 4.6360002 2.914
-6.5310001 4.6209998 2.895
-6.5419998 4.6079998 2.8759999
-6.5289998 4.6209998 2.8469999
-6.5279999 4.6199999 2.8239999
-6.5209999 4.6259999 2.799
-6.5310001 4.6149998 2.779
-6.527 4.6170001 2.7539999
-6.527 4.6160002 2.7309999
-6.5300002 4.612 2.7090001
-6.54 4.5999999 2.6889999
-6.5430002 4.5960002 2.6670001
-6.546 4.592 2.645
-6.5580001 4.5760002 2.6259999
-6.5710001 4.5619998 2.6070001
-6.5939999 4.5359998 2.5910001
-6.6030002 4.526 2.5710001
-6.6110001 4.5159998 2.5510001
-6.632 4.4920001 2.5339999
-6.638 4.4850001 2.513
-6.664 4.4559999 2.4979999
-6.6700001 4.448 2.4760001
-6.6900001 4.4260001 2.4590001
-6.704 4.4099998 2.4400001
-6.7090001 4.4039998 2.418
-6.9559999 4.1100001 1.896
-6.954 4.1110001 1.872
-6.9710002 4.092 1.852
-6.6659999 4.402 1.575
-6.6659999 4.401 1.552
-6.6609998 4.4039998 1.528
-6.6680002 4.3959999 1.506
-6.6789999 4.3829999 1.4859999
-6.6950002 4.3649998 1.466
-6.7160001 4.342 1.447
-6.7340002 4.322 1.428
-6.632 4.3990002 0.88700002
-6.631 4.3990002 0.86400002
-6.803 4.2150002 0.86299998
-6.8600001 4.1529999 0.847
-6.8559999 4.1560001 0.824
-6.8579998 4.1529999 0.801
-6.8540001 4.1560001 0.77700001
-6.848 4.1609998 0.75300002
-6.8600001 4.1469998 0.73100001
-6.8379998 4.1680002 0.70599997
-6.8379998 4.1680002 0.68300003
-6.842 4.1620002 0.66000003
-6.8299999 4.1739998 0.63599998
-6.8410001 4.1599998 0.61400002
-6.8340001 4.1659999 0.58999997
-6.8470001 4.152 0.56800002
-6.8379998 4.1589999 0.54400003
-6.8270001 4.1700001 0.51999998
-6.836 4.1589999 0.498
-6.8309999 4.1630001 0.47400001
-6.8280001 4.165 0.45100001
-6.8280001 4.164 0.428
-6.8299999 4.1599998 0.405
-6.8309999 4.1589999 0.382
-6.835 4.152 0.359
-6.829 4.158 0.336
-6.829 4.1560001 0.31299999
-6.8249998 4.1589999 0.289
-6.822 4.1609998 0.266
-6.835 4.145 0.244
-6.822 4.158 0.22
-6.8239999 4.1550002 0.197
-6.822 4.1560001 0.17399999
-6.8179998 4.158 0.15099999
-6.8249998 4.1500001 0.12800001
-6.8309999 4.1409998 0.105
-6.8280001 4.1440001 0.082000002
-6.8280001 4.1430001 0.059
-6.8210001 4.1490002 0.035999998
-6.8239999 4.1440001 0.013
-6.52 4.5999999 2.8740001
-6.5279999 4.5900002 2.8540001
-6.5219998 4.5949998 2.829
-6.5349998 4.579 2.8099999
-6.5380001 4.5749998 2.7880001
-6.5209999 4.592 2.7590001
-6.5240002 4.5869999 2.737
-6.5370002 4.572 2.7179999
-6.5339999 4.5749998 2.6930001
-6.54 4.5669999 2.6719999
-6.5289998 4.5760002 2.6459999
-6.5380001 4.5650001 2.6259999
-6.5479999 4.553 2.6059999
-6.5580001 4.5419998 2.586
-6.5770001 4.52 2.569
-6.5869999 4.5089998 2.549
-6.5949998 4.4980001 2.5280001
-6.6199999 4.4710002 2.513
-6.6339998 4.454 2.494
-6.651 4.4359999 2.4760001
-6.6529999 4.4320002 2.454
-6.6760001 4.4070001 2.437
-6.6849999 4.395 2.4170001
-6.6999998 4.3790002 2.398
-6.7059999 4.3709998 2.3759999
-6.7199998 4.355 2.3570001
-6.9400001 4.0939999 1.921
-6.9219999 4.112 1.893
-6.9190001 4.1139998 1.868
-6.941 4.0900002 1.85
-6.6589999 4.375 1.5549999
-6.6690001 4.3629999 1.534
-6.6669998 4.3639998 1.51
-6.6630001 4.3670001 1.487
-6.671 4.3569999 1.465
-6.6830001 4.3429999 1.4450001
-6.7049999 4.3179998 1.426
-6.7309999 4.2880001 1.408
-6.743 4.2750001 1.387
-6.6230001 4.375 0.889
-6.6209998 4.3769999 0.866
-6.7779999 4.2080002 0.86299998
-6.8340001 4.1469998 0.847
-6.8319998 4.1479998 0.824
-6.836 4.1430001 0.801
-6.829 4.1479998 0.77700001
-6.8249998 4.152 0.75300002
-6.8260002 4.1479998 0.73100001
-6.8070002 4.1680002 0.70499998
-6.8000002 4.1739998 0.68099999
-6.8039999 4.1680002 0.65899998
-6.8010001 4.1700001 0.63499999
-6.802 4.1680002 0.61199999
-6.8060002 4.1630001 0.58999997
-6.803 4.165 0.56599998
-6.8000002 4.1669998 0.54299998
-6.8070002 4.158 0.52100003
-6.8000002 4.164 0.49700001
-6.8000002 4.1620002 0.47400001
-6.7979999 4.1630001 0.45100001
-6.7950001 4.165 0.42699999
-6.7940001 4.165 0.40400001
-6.7979999 4.1599998 0.382
-6.8049998 4.151 0.359
-6.802 4.1529999 0.336
-6.802 4.151 0.31299999
-6.7979999 4.1539998 0.28999999
-6.789 4.1630001 0.266
-6.7979999 4.151 0.244
-6.8049998 4.1430001 0.221
-6.809 4.138 0.198
-6.7909999 4.1550002 0.17399999
-6.7979999 4.1459999 0.15099999
-6.802 4.1420002 0.12899999
-6.7979999 4.1440001 0.105
-6.7940001 4.1469998 0.082000002
-6.7940001 4.1459999 0.059
-6.7940001 4.1440001 0.035999998
-6.8000002 4.1360002 0.013
-6.5320001 4.5500002 2.816
-6.539 4.5419998 2.7950001
-6.5320001 4.5479999 2.7690001
-6.5349998 4.5440001 2.747
-6.5409999 4.5359998 2.7260001
-6.5370002 4.5380001 2.701
-6.5370002 4.5370002 2.678
-6.54 4.533 2.6559999
-6.533 4.539 2.6300001
-6.5349998 4.5349998 2.608
-6.5380001 4.5310001 2.586
-6.5510001 4.5159998 2.5669999
-6.5570002 4.5079999 2.5450001
-6.579 4.4829998 2.529
-6.592 4.4679999 2.51
-6.6020002 4.4569998 2.49
-6.6209998 4.4349999 2.473
-6.6300001 4.4239998 2.4519999
-6.6459999 4.4060001 2.434
-6.6630001 4.3870001 2.4159999
-6.6719999 4.3759999 2.395
-6.698 4.3470001 2.3800001
-6.6999998 4.3429999 2.3570001
-6.7309999 4.309 2.342
-6.7360001 4.303 2.3210001
-6.881 4.1230001 1.9119999
-6.8940001 4.1079998 1.891
-6.8979998 4.1020002 1.868
-6.9050002 4.0939999 1.846
-6.6719999 4.3260002 1.516
-6.6690001 4.3270001 1.492
-6.6669998 4.329 1.469
-6.6789999 4.3140001 1.448
-6.691 4.3010001 1.428
-6.7020001 4.2870002 1.4069999
-6.7119999 4.276 1.386
-6.7480001 4.2350001 1.369
-6.6430001 4.322 0.89399999
-6.638 4.3249998 0.87099999
-6.7470002 4.2080002 0.86199999
-6.8039999 4.1459999 0.84600002
-6.802 4.1469998 0.82300001
-6.789 4.1589999 0.79799998
-6.8010001 4.1459999 0.77700001
-6.7989998 4.1459999 0.75300002
-6.8099999 4.1329999 0.73100001
-6.7729998 4.171 0.704
-6.7729998 4.1690001 0.68099999
-6.7880001 4.152 0.66000003
-6.7839999 4.1539998 0.63599998
-6.7750001 4.164 0.61199999
-6.7779999 4.158 0.58999997
-6.7719998 4.164 0.56599998
-6.776 4.158 0.54299998
-6.7690001 4.164 0.51999998
-6.776 4.1550002 0.49700001
-6.7670002 4.164 0.47400001
-6.77 4.1589999 0.45100001
-6.7740002 4.1539998 0.428
-6.7740002 4.1529999 0.405
-6.7680001 4.158 0.382
-6.7740002 4.1500001 0.359
-6.7680001 4.1550002 0.336
-6.7719998 4.1500001 0.31299999
-6.7779999 4.1420002 0.28999999
-6.7680001 4.151 0.26699999
-6.7709999 4.1459999 0.244
-6.7750001 4.1420002 0.221
-6.7690001 4.1469998 0.198
-6.7610002 4.1539998 0.17399999
-6.7620001 4.152 0.15099999
-6.7709999 4.1399999 0.12899999
-6.7540002 4.158 0.105
-6.7649999 4.145 0.082999997
-6.7670002 4.1409998 0.059999999
-6.757 4.151 0.035999998
-6.756 4.1500001 0.013
-6.546 4.5009999 2.8039999
-6.54 4.507 2.779
-6.5409999 4.5040002 2.756
-6.5339999 4.5110002 2.73
-6.5469999 4.4949999 2.711
-6.5339999 4.5079999 2.6830001
-6.5229998 4.5180001 2.6559999
-6.5430002 4.4959998 2.6400001
-6.539 4.4990001 2.615
-6.5450001 4.4910002 2.5940001
-6.5310001 4.5040002 2.566
-6.5539999 4.4790001 2.5510001
-6.5469999 4.4850001 2.5250001
-6.5599999 4.4699998 2.506
-6.5819998 4.4450002 2.49
-6.5879998 4.4380002 2.4679999
-6.5999999 4.4229999 2.4489999
-6.6199999 4.401 2.4319999
-6.6279998 4.3909998 2.411
-6.6479998 4.368 2.3940001
-6.664 4.3499999 2.375
-6.677 4.335 2.3559999
-6.6919999 4.3169999 2.3369999
-6.7119999 4.296 2.319
-6.723 4.2820001 2.299
-6.737 4.2659998 2.28
-6.8899999 4.079 1.919
-6.8699999 4.099 1.891
-6.8660002 4.1020002 1.8660001
-6.6680002 4.296 1.4960001
-6.6729999 4.289 1.474
-6.6669998 4.2940001 1.45
-6.6810002 4.2779999 1.4299999
-6.6820002 4.2750001 1.4069999
-6.697 4.2579999 1.387
-6.711 4.2420001 1.3660001
-6.743 4.2059999 1.349
-6.7420001 4.2059999 1.326
-6.8930001 4.0219998 0.954
-6.9000001 4.0139999 0.93199998
-6.6430001 4.2870002 0.875
-6.7360001 4.1859999 0.86400002
-6.789 4.1269999 0.84799999
-6.7680001 4.1479998 0.82200003
-6.7740002 4.1409998 0.79900002
-6.7690001 4.145 0.77600002
-6.7750001 4.1370001 0.75300002
-6.776 4.1350002 0.73000002
-6.7490001 4.1630001 0.704
-6.7529998 4.1570001 0.68199998
-6.7509999 4.158 0.65899998
-6.7470002 4.1609998 0.63499999
-6.7470002 4.1599998 0.61199999
-6.7480001 4.1570001 0.58899999
-6.7420001 4.1630001 0.56599998
-6.7490001 4.1529999 0.54299998
-6.7399998 4.1620002 0.51999998
-6.7470002 4.1529999 0.49700001
-6.75 4.1479998 0.47400001
-6.744 4.1539998 0.45100001
-6.75 4.1459999 0.428
-6.75 4.145 0.405
-6.7509999 4.1420002 0.38299999
-6.7449999 4.1479998 0.359
-6.7449999 4.1459999 0.336
-6.737 4.1529999 0.31299999
-6.737 4.152 0.28999999
-6.737 4.1500001 0.26699999
-6.7420001 4.145 0.244
-6.737 4.1479998 0.221
-6.7309999 4.1529999 0.198
-6.744 4.138 0.175
-6.75 4.1300001 0.153
-6.7470002 4.1329999 0.12899999
-6.7459998 4.132 0.106
-6.756 4.1199999 0.083999999
-6.7459998 4.1290002 0.059999999
-6.743 4.131 0.037
-6.7360001 4.138 0.014
-6.5469999 4.4660001 2.7639999
-6.5440001 4.467 2.74
-6.5469999 4.4629998 2.7179999
-6.54 4.4689999 2.6919999
-6.5430002 4.4640002 2.6700001
-6.5320001 4.474 2.6429999
-6.5450001 4.4590001 2.6240001
-6.5479999 4.454 2.6010001
-6.5440001 4.4569998 2.5769999
-6.5430002 4.4569998 2.5539999
-6.5430002 4.4559999 2.53
-6.5450001 4.4520001 2.5079999
-6.5580001 4.4369998 2.4890001
-6.5570002 4.4359999 2.4649999
-6.5700002 4.4219999 2.4460001
-6.5960002 4.3920002 2.431
-6.612 4.3740001 2.4119999
-6.625 4.3590002 2.3929999
-6.6440001 4.3369999 2.375
-6.6570001 4.323 2.3559999
-6.6620002 4.3150001 2.3340001
-6.684 4.29 2.3169999
-6.697 4.276 2.2969999
-6.7059999 4.2649999 2.276
-6.73 4.237 2.26
-6.7249999 4.2420001 2.2349999
-6.8530002 4.085 1.915
-6.8400002 4.0970001 1.888
-6.8379998 4.098 1.864
-6.678 4.2480001 1.457
-6.6680002 4.257 1.432
-6.6700001 4.2540002 1.409
-6.6799998 4.2420001 1.388
-6.6880002 4.2319999 1.3660001
-6.71 4.2069998 1.347
-6.7290001 4.1849999 1.3279999
-6.737 4.1750002 1.306
-6.855 4.0300002 0.99900001
-6.855 4.0289998 0.97600001
-6.862 4.0209999 0.95300001
-6.868 4.013 0.93099999
-6.6389999 4.2579999 0.87699997
-6.7140002 4.1750002 0.86400002
-6.7540002 4.131 0.84600002
-6.7449999 4.1399999 0.82200003
-6.7470002 4.1360002 0.79900002
-6.7399998 4.1420002 0.77499998
-6.7410002 4.1399999 0.75199997
-6.7589998 4.1199999 0.73100001
-6.7290001 4.151 0.70499998
-6.7360001 4.1409998 0.68300003
-6.73 4.1459999 0.65899998
-6.7309999 4.1440001 0.63599998
-6.737 4.1360002 0.61400002
-6.7309999 4.1420002 0.58999997
-6.7319999 4.1389999 0.56699997
-6.7379999 4.132 0.54500002
-6.7360001 4.1329999 0.52200001
-6.7389998 4.1269999 0.49900001
-6.7329998 4.1329999 0.47499999
-6.7189999 4.1459999 0.45100001
-6.7199998 4.1440001 0.428
-6.7360001 4.1259999 0.40700001
-6.7340002 4.1259999 0.38299999
-6.7309999 4.1290002 0.36000001
-6.7309999 4.1279998 0.33700001
-6.7309999 4.1259999 0.31400001
-6.7280002 4.1279998 0.29100001
-6.7350001 4.119 0.26899999
-6.7340002 4.119 0.24600001
-6.7350001 4.1170001 0.223
-6.7270002 4.1240001 0.199
-6.724 4.1259999 0.176
-6.7340002 4.1139998 0.154
-6.7270002 4.1199999 0.13
-6.73 4.1149998 0.107
-6.7319999 4.112 0.083999999
-6.7259998 4.1170001 0.061000001
-6.73 4.112 0.037999999
-6.723 4.118 0.015
-6.5430002 4.4330001 2.723
-6.5430002 4.4320002 2.7
-6.5430002 4.4310002 2.6760001
-6.546 4.427 2.654
-6.5450001 4.4260001 2.6300001
-6.5409999 4.4289999 2.6059999
-6.5440001 4.4239998 2.5829999
-6.5500002 4.4159999 2.562
-6.553 4.4120002 2.54
-6.546 4.4190001 2.5139999
-6.5479999 4.415 2.4920001
-6.552 4.4099998 2.4690001
-6.5500002 4.4099998 2.4460001
-6.559 4.3990002 2.425
-6.5689998 4.3870001 2.405
-6.5949998 4.3579998 2.3900001
-6.6110001 4.3400002 2.3710001
-6.6230001 4.3249998 2.352
-6.632 4.3140001 2.3310001
-6.651 4.2919998 2.313
-6.6630001 4.2779999 2.293
-6.6859999 4.2529998 2.276
-6.7080002 4.2270002 2.2590001
-6.717 4.2160001 2.2379999
-6.7350001 4.1960001 2.22
-6.7389998 4.191 2.197
-6.829 4.0770001 1.914
-6.8130002 4.092 1.887
-6.8080001 4.0970001 1.862
-6.6760001 4.2140002 1.414
-6.6810002 4.2069998 1.392
-6.678 4.2090001 1.368
-6.6789999 4.2059999 1.346
-6.6939998 4.1890001 1.325
-6.7189999 4.1609998 1.307
-6.7379999 4.1389999 1.2869999
-6.743 4.1329999 1.265
-6.8299999 4.0250001 1.022
-6.8260002 4.027 0.99800003
-6.8270001 4.0250001 0.97500002
-6.8379998 4.0120001 0.95300001
-6.8249998 4.0240002 0.92799997
-6.6500001 4.2119999 0.88200003
-6.6760001 4.1820002 0.86199999
-6.7270002 4.1259999 0.84600002
-6.7220001 4.1300001 0.82200003
-6.7129998 4.1389999 0.79799998
-6.7199998 4.1300001 0.77600002
-6.711 4.1389999 0.75199997
-6.7319999 4.1149998 0.73100001
-6.7249999 4.1199999 0.70700002
-6.7220001 4.1220002 0.68400002
-6.7319999 4.1110001 0.662
-6.717 4.1259999 0.63700002
-6.7140002 4.1279998 0.61400002
-6.7309999 4.1079998 0.59299999
-6.7350001 4.1020002 0.56999999
-6.7350001 4.1009998 0.54699999
-6.7290001 4.1059999 0.523
-6.7259998 4.1079998 0.5
-6.7329998 4.099 0.47799999
-6.73 4.1009998 0.454
-6.723 4.1069999 0.43099999
-6.73 4.098 0.40799999
-6.73 4.0970001 0.38499999
-6.7270002 4.099 0.36199999
-6.7309999 4.0939999 0.33899999
-6.7270002 4.0960002 0.31600001
-6.7270002 4.0949998 0.29300001
-6.7309999 4.0900002 0.27000001
-6.7290001 4.0900002 0.24699999
-6.723 4.0960002 0.22400001
-6.7309999 4.086 0.20100001
-6.724 4.092 0.178
-6.7309999 4.0840001 0.155
-6.7350001 4.0770001 0.132
-6.73 4.0809999 0.109
-6.723 4.0869999 0.086000003
-6.7290001 4.079 0.063000001
-6.7210002 4.0869999 0.039999999
-6.7220001 4.0840001 0.017000001
-6.526 4.4169998 2.677
-6.5560002 4.3829999 2.664
-6.546 4.3930001 2.6370001
-6.552 4.3850002 2.615
-6.5510001 4.3839998 2.592
-6.5510001 4.3839998 2.5680001
-6.553 4.3790002 2.546
-6.553 4.3790002 2.5220001
-6.5450001 4.3850002 2.497
-6.5479999 4.381 2.474
-6.5510001 4.3769999 2.4519999
-6.553 4.3730001 2.4289999
-6.5619998 4.362 2.4089999
-6.5650001 4.3579998 2.3870001
-6.5939999 4.3249998 2.372
-6.6030002 4.3140001 2.352
-6.6129999 4.303 2.3310001
-6.625 4.2880001 2.3110001
-6.6409998 4.27 2.293
-6.6659999 4.2410002 2.276
-6.6750002 4.23 2.256
-6.7010002 4.2010002 2.2390001
-6.6960001 4.2049999 2.2149999
-6.7220001 4.1760001 2.198
-6.73 4.165 2.177
-6.7529998 4.1389999 2.1600001
-6.7909999 4.085 1.91
-6.79 4.0840001 1.886
-6.7940001 4.0770001 1.864
-6.6859999 4.1690001 1.397
-6.6820002 4.1719999 1.373
-6.6750002 4.178 1.349
-6.6799998 4.1719999 1.327
-6.7020001 4.1459999 1.308
-6.717 4.1290002 1.2869999
-6.73 4.1139998 1.266
-6.7410002 4.0999999 1.245
-6.803 4.0229998 1.068
-6.8169999 4.006 1.0470001
-6.8049998 4.0180001 1.022
-6.8080001 4.0139999 0.99900001
-6.796 4.0250001 0.97399998
-6.8060002 4.013 0.95200002
-6.8049998 4.013 0.92900002
-6.658 4.171 0.88599998
-6.6589999 4.1680002 0.86299998
-6.7020001 4.1209998 0.84600002
-6.6900001 4.132 0.82099998
-6.6869998 4.1329999 0.79799998
-6.6960001 4.1230001 0.77600002
-6.6849999 4.1329999 0.75199997
-6.7049999 4.1110001 0.73100001
-6.7259998 4.0869999 0.70999998
-6.7259998 4.085 0.68699998
-6.7259998 4.0830002 0.66399997
-6.737 4.0700002 0.64200002
-6.7340002 4.072 0.61900002
-6.7280002 4.0770001 0.59500003
-6.7280002 4.0760002 0.57200003
-6.7319999 4.0700002 0.54900002
-6.7389998 4.0609999 0.52700001
-6.7319999 4.0669999 0.50300002
-6.7309999 4.0679998 0.47999999
-6.7379999 4.059 0.45699999
-6.7399998 4.0549998 0.435
-6.7329998 4.0609999 0.41100001
-6.7340002 4.059 0.38800001
-6.7270002 4.0650001 0.36399999
-6.7410002 4.0489998 0.34200001
-6.7270002 4.0619998 0.31799999
-6.7340002 4.053 0.296
-6.7340002 4.052 0.27200001
-6.7340002 4.0510001 0.249
-6.7329998 4.0510001 0.226
-6.7270002 4.0560002 0.20299999
-6.7270002 4.0539999 0.18000001
-6.7340002 4.046 0.15700001
-6.7270002 4.052 0.134
-6.7340002 4.0440001 0.111
-6.7309999 4.0450001 0.088
-6.7280002 4.0469999 0.064999998
-6.73 4.0440001 0.041000001
-6.7350001 4.0370002 0.018999999
-6.559 4.3449998 2.6240001
-6.552 4.3520002 2.598
-6.5479999 4.355 2.5739999
-6.5500002 4.3499999 2.5510001
-6.5560002 4.342 2.53
-6.559 4.3379998 2.507
-6.5549998 4.3410001 2.483
-6.5409999 4.355 2.4549999
-6.5570002 4.336 2.437
-6.5560002 4.336 2.4130001
-6.552 4.3390002 2.388
-6.572 4.316 2.3710001
-6.5770001 4.309 2.3499999
-6.592 4.2909999 2.3310001
-6.6079998 4.2729998 2.312
-6.6110001 4.2690001 2.29
-6.6230001 4.2540002 2.27
-6.6409998 4.2329998 2.2520001
-6.6599998 4.211 2.234
-6.6729999 4.1960001 2.214
-6.6880002 4.178 2.1949999
-6.711 4.1529999 2.177
-6.7199998 4.1420002 2.1559999
-6.7319999 4.1269999 2.1359999
-6.7399998 4.118 2.1140001
-6.77 4.073 1.91
-6.7690001 4.072 1.886
-6.77 4.0700002 1.863
-6.6890001 4.1300001 1.355
-6.6830001 4.1360002 1.331
-6.6810002 4.1360002 1.308
-6.684 4.132 1.285
-6.711 4.1009998 1.267
-6.7160001 4.0939999 1.244
-6.7329998 4.073 1.224
-6.7639999 4.039 1.206
-6.7940001 4 1.094
-6.7919998 4 1.0700001
-6.7750001 4.0170002 1.045
-6.783 4.007 1.022
-6.7779999 4.0110002 0.99800003
-6.789 3.9979999 0.977
-6.7870002 3.9990001 0.95300001
-6.7810001 4.0040002 0.92900002
-6.6869998 4.1059999 0.89300001
-6.664 4.1279998 0.86699998
-6.6690001 4.1220002 0.84500003
-6.664 4.1259999 0.82099998
-6.6820002 4.105 0.80000001
-6.6700001 4.1170001 0.77600002
-6.6620002 4.1240001 0.75199997
-6.6820002 4.1009998 0.73100001
-6.7399998 4.0370002 0.71499997
-6.737 4.039 0.69099998
-6.737 4.0370002 0.66799998
-6.73 4.0440001 0.64399999
-6.7399998 4.0320001 0.62199998
-6.7410002 4.0300002 0.59899998
-6.7340002 4.0349998 0.57499999
-6.7449999 4.0229998 0.55299997
-6.7350001 4.0320001 0.52899998
-6.7290001 4.0370002 0.505
-6.7360001 4.0289998 0.48300001
-6.7389998 4.0229998 0.46000001
-6.7389998 4.0219998 0.43700001
-6.7399998 4.02 0.414
-6.7360001 4.0229998 0.38999999
-6.737 4.0209999 0.36700001
-6.7270002 4.0300002 0.34299999
-6.7420001 4.0120001 0.32100001
-6.7420001 4.0110002 0.29800001
-6.744 4.0079999 0.27500001
-6.737 4.0139999 0.25099999
-6.744 4.006 0.229
-6.7420001 4.007 0.205
-6.75 3.9960001 0.183
-6.7340002 4.0120001 0.15899999
-6.7350001 4.0100002 0.13600001
-6.7389998 4.0040002 0.113
-6.7389998 4.0029998 0.090000004
-6.7340002 4.007 0.066
-6.7410002 3.9979999 0.043000001
-6.7519999 3.984 0.021
-6.7740002 4.0960002 2.9920001
-6.7839999 4.0840001 2.971
-6.7839999 4.0830002 2.947
-6.5580001 4.3109999 2.5829999
-6.5570002 4.3099999 2.559
-6.5500002 4.3169999 2.5339999
-6.5619998 4.302 2.5139999
-6.5479999 4.3150001 2.487
-6.5580001 4.3039999 2.4660001
-6.5570002 4.303 2.4430001
-6.5560002 4.303 2.4189999
-6.552 4.3060002 2.3940001
-6.5609999 4.2950001 2.3740001
-6.5710001 4.283 2.3540001
-6.5700002 4.2820001 2.3299999
-6.579 4.2709999 2.309
-6.5879998 4.2610002 2.2880001
-6.5999999 4.2459998 2.2690001
-6.612 4.2309999 2.2490001
-6.6409998 4.1989999 2.234
-6.6459999 4.1919999 2.2119999
-6.6719999 4.1630001 2.1949999
-6.6739998 4.1589999 2.1730001
-6.6900001 4.1409998 2.1530001
-6.7119999 4.1160002 2.1359999
-6.723 4.1020002 2.115
-6.7410002 4.0809999 2.0969999
-6.7410002 4.0809999 2.073
-6.7410002 4.0700002 1.908
-6.7459998 4.0640001 1.886
-6.7509999 4.0570002 1.863
-6.7020001 4.0809999 1.339
-6.6950002 4.0869999 1.314
-6.6919999 4.0890002 1.29
-6.6880002 4.092 1.266
-6.7069998 4.0700002 1.2460001
-6.717 4.0580001 1.225
-6.723 4.0500002 1.2029999
-6.7540002 4.0139999 1.1849999
-6.7589998 4.007 1.1390001
-6.7579999 4.007 1.115
-6.7600002 4.0029998 1.092
-6.7579999 4.0040002 1.069
-6.7519999 4.0089998 1.044
-6.756 4.0029998 1.022
-6.7519999 4.007 0.99800003
-6.7509999 4.006 0.97399998
-6.7470002 4.0089998 0.95099998
-6.7610002 3.9920001 0.92900002
-6.71 4.046 0.89899999
-6.6659999 4.0929999 0.87
-6.6570001 4.1020002 0.84600002
-6.6570001 4.0999999 0.82300001
-6.645 4.1129999 0.79900002
-6.6550002 4.0999999 0.77700001
-6.651 4.1030002 0.75300002
-6.671 4.0809999 0.73299998
-6.8520002 3.881 0.73000002
-6.7309999 4.0089998 0.64700001
-6.724 4.0159998 0.62300003
-6.7160001 4.0229998 0.59899998
-6.7220001 4.0149999 0.57700002
-6.7280002 4.006 0.55400002
-6.7649999 3.938 0.068999998
