ply
format ascii 1.0
comment PCL generated
element vertex 666
property float x
property float y
property float z
element camera 1
property float view_px
property float view_py
property float view_pz
property float x_axisx
property float x_axisy
property float x_axisz
property float y_axisx
property float y_axisy
property float y_axisz
property float z_axisx
property float z_axisy
property float z_axisz
property float focal
property float scalex
property float scaley
property float centerx
property float centery
property int viewportx
property int viewporty
property float k1
property float k2
end_header
5.9746108 10.586582 0.027638888
6.0444112 10.587063 0.052597821
6.1484861 10.588329 0.050442848
6.2178502 10.59015 0.075449996
6.7804232 10.588154 0.028038461
6.8498011 10.587566 0.033566672
6.9451108 10.595834 0.047166664
7.0193338 10.588333 0.050166667
7.5548339 10.596667 0.052166671
7.6586666 10.598333 0.056333333
7.7486668 10.592834 0.041833334
5.9748445 10.649325 0.031155027
6.0214438 10.641922 0.07474684
6.1703629 10.62541 0.03872728
6.2254171 10.633834 0.079833329
6.7779636 10.648658 0.050006326
6.8464818 10.607174 0.066068962
6.9599419 10.608028 0.057088245
7.02068 10.633559 0.048720002
7.4925728 10.644714 0.088714287
7.5437322 10.644763 0.049708061
7.6453338 10.612396 0.045833334
7.7429543 10.619797 0.051772736
7.813273 10.62891 0.021363636
5.9772635 10.729449 0.025315795
6.0406394 10.744916 0.059546158
6.145493 10.752534 0.052915487
6.2222733 10.730637 0.080818191
6.7747235 10.74819 0.05034091
6.9840002 10.799 0.024
7.0322857 10.758428 0.038428571
7.4921336 10.733133 0.090066679
7.5428576 10.745319 0.04888637
7.6436353 10.779387 0.047727272
7.7462678 10.772489 0.049195126
7.8176665 10.746 0.013833332
6.7832971 10.810135 0.04545946
6.8542256 10.81116 0.04966129
6.9525623 10.808771 0.050229169
7.0183339 10.806665 0.052499998
6.0679483 10.589737 0.13557896
6.1463342 10.588492 0.15330668
6.2416596 10.590553 0.15273216
6.3124003 10.5904 0.18260001
6.7902498 10.59425 0.12025
6.8829999 10.599 0.127
6.9749999 10.591 0.14733334
7.0131249 10.587749 0.1495
7.4819999 10.596001 0.13133334
7.6633334 10.592667 0.17300001
7.7154999 10.592501 0.108
6.066041 10.650334 0.14168903
6.1220241 10.634191 0.17626192
6.2581458 10.62512 0.14960976
6.3163085 10.629999 0.17653847
6.7838426 10.648031 0.14842948
6.8438506 10.611407 0.14946295
6.9519248 10.60891 0.15246296
7.0196958 10.628304 0.15108697
7.4602947 10.647125 0.15272255
7.5445852 10.613384 0.14671671
7.6519804 10.61536 0.14722
7.719934 10.626333 0.12713334
6.0696592 10.73217 0.13656193
6.1394715 10.751481 0.15651891
6.2411923 10.751351 0.15624563
6.3115005 10.743 0.19375001
6.7827263 10.748343 0.14800596
6.8017502 10.775749 0.1365
7.0304999 10.7765 0.119
7.396667 10.746333 0.192
7.4543796 10.744508 0.15225001
7.5446677 10.778754 0.15017779
7.6477709 10.775249 0.15008335
7.7195396 10.756462 0.12707692
6.787344 10.80817 0.14844829
6.8517008 10.810865 0.1501167
6.948668 10.810668 0.15025491
7.0165997 10.809599 0.14659999
6.099 10.599 0.207
6.160768 10.590466 0.24114999
6.246357 10.592016 0.25116947
6.3428545 10.593143 0.2503902
6.402 10.584 0.296
6.783 10.5875 0.2375
7.0155001 10.590334 0.23566668
7.4534998 10.59 0.25024998
7.5513334 10.593 0.28066668
7.6069999 10.591 0.237
6.1526008 10.649425 0.24887224
6.2470403 10.612799 0.25427997
6.3507223 10.625 0.25019148
6.4120002 10.607 0.28149998
6.783669 10.648108 0.24891356
6.8457303 10.614609 0.25004059
6.9505358 10.613054 0.24932148
7.0190315 10.623531 0.25312501
7.3696713 10.649523 0.26213446
7.4321556 10.626624 0.23533337
7.5520182 10.612721 0.24874073
7.6323476 10.631218 0.22939126
6.1623163 10.73761 0.24459159
6.2465882 10.759761 0.25233749
6.3378057 10.750927 0.26087806
6.4130001 10.73 0.29800001
6.7852621 10.747292 0.24951871
6.8078012 10.7651 0.2511
7.3648582 10.74343 0.26024103
7.4359589 10.765368 0.23914866
7.5494094 10.778706 0.24622734
7.6260552 10.764 0.23383334
6.7921662 10.805722 0.25083336
6.848578 10.812173 0.25003126
6.9493265 10.814489 0.24994545
7.0111003 10.812099 0.2464
6.1945 10.592 0.30400002
6.2487869 10.593127 0.34310636
6.343533 10.594733 0.34602222
6.4204288 10.595785 0.35307142
6.783 10.591499 0.36000001
6.8049998 10.575 0.34299999
6.9419999 10.599 0.315
7.0019999 10.596 0.30700001
7.3959999 10.599 0.375
7.4759998 10.589667 0.37966666
7.527667 10.589666 0.32733333
6.1934619 10.645001 0.30515385
6.2415919 10.644048 0.35032964
6.3567505 10.610374 0.34924999
6.4450898 10.619419 0.35643634
6.5220003 10.623333 0.38
6.7805572 10.650166 0.35131148
6.8466372 10.618855 0.34771007
6.9460926 10.617727 0.3503333
7.0217724 10.629182 0.34954545
7.2770176 10.660782 0.37018183
7.3352785 10.636874 0.33840546
7.4490924 10.615074 0.35166669
7.5350013 10.627131 0.33666661
6.198 10.709 0.30700001
6.2484517 10.741743 0.34690252
6.347415 10.764159 0.35041431
6.430759 10.754311 0.36427584
6.7832451 10.745872 0.35080111
6.8033996 10.7786 0.35100001
7.2727294 10.739189 0.36834124
7.3346777 10.756759 0.33488894
7.4431868 10.781604 0.35077092
7.5330715 10.763251 0.33214289
6.7893 10.80805 0.34040001
6.8467641 10.816251 0.34926388
6.9506192 10.816581 0.34891993
7.0152502 10.810917 0.34916663
6.2875004 10.595833 0.41500002
6.3465586 10.594853 0.44170591
6.4408422 10.597315 0.45068425
7.4316001 10.595401 0.45500001
6.2872 10.645927 0.41378182
6.3366113 10.639366 0.45837507
6.4548292 10.610812 0.44674996
6.5283093 10.61738 0.45704761
6.678 10.68 0.48500001
6.7776666 10.651061 0.44899452
6.8485265 10.620691 0.44922975
6.9520135 10.621832 0.45048052
7.0177827 10.626826 0.45095652
7.1812067 10.652068 0.47879314
7.243196 10.636468 0.44157609
7.3478074 10.61317 0.45163828
7.4361091 10.62302 0.44471738
6.2899585 10.736626 0.41116664
6.3397989 10.747022 0.45225343
6.4420729 10.767334 0.45137686
6.5247059 10.751824 0.46458825
6.782094 10.747134 0.44827959
6.803 10.767 0.4445
7.0481253 10.795124 0.45012501
7.1834049 10.742271 0.47199997
7.2366004 10.754623 0.43999988
7.3457775 10.783449 0.44708163
7.4372149 10.765286 0.43582141
6.785768 10.814134 0.45043331
6.8464537 10.822044 0.44889399
6.9523072 10.819386 0.45078847
7.0185003 10.8075 0.43625
6.3842859 10.597857 0.51728576
6.4375 10.598333 0.54258335
6.5535002 10.598333 0.54383337
7.0320001 10.594 0.51800001
7.2989998 10.587 0.58899999
7.3532858 10.592429 0.54400003
6.3781347 10.646388 0.5225445
6.4369392 10.63396 0.56127691
6.5496578 10.612317 0.55019736
6.6296396 10.618679 0.56627995
6.7767787 10.654142 0.54311711
6.8506856 10.62577 0.5500285
6.9496121 10.624905 0.54898655
7.0380483 10.637429 0.55514288
7.1438942 10.638783 0.55180216
7.2512593 10.61646 0.55133331
7.34091 10.6195 0.54638648
7.4096251 10.643875 0.51987499
6.3827462 10.73789 0.51898181
6.4404163 10.753547 0.55914408
6.5453343 10.769196 0.55163157
6.6257863 10.745501 0.56185716
6.7782207 10.746515 0.54779506
6.8035002 10.77825 0.54525
7.0651436 10.781359 0.56550002
7.149044 10.768597 0.54653609
7.2463512 10.785562 0.54992986
7.3445387 10.774436 0.53997439
7.4089999 10.7445 0.50450003
6.7823052 10.819109 0.54752773
6.8469515 10.826017 0.55014503
6.9453731 10.824 0.54774517
7.0073333 10.814834 0.56550008
6.4784999 10.598499 0.62975001
6.5470004 10.597167 0.65866667
7.2563753 10.595625 0.657875
7.3000002 10.588 0.60100001
6.4710655 10.646665 0.63439018
6.5360813 10.628642 0.65938401
6.6436515 10.613507 0.65425408
6.765697 10.642495 0.64229125
6.8469005 10.626245 0.64754325
6.9483128 10.627963 0.64981931
7.0582781 10.633931 0.65218049
7.1464138 10.620575 0.64979982
7.2467308 10.620019 0.648673
7.3133335 10.646 0.6171667
6.4769344 10.738129 0.62955838
6.537971 10.758624 0.66009152
6.6402507 10.768726 0.65413642
6.7732353 10.749577 0.64724523
7.0775557 10.786167 0.65099996
7.147603 10.786545 0.64867926
7.2457347 10.785182 0.64330614
7.3173332 10.731334 0.62533331
6.784513 10.814666 0.65023077
6.8430343 10.829305 0.65077966
6.9450769 10.825806 0.64725006
7.0047998 10.8172 0.65880007
7.2280002 10.801 0.685
6.5840001 10.598 0.73900002
6.7030001 10.598 0.74199998
7.1830001 10.597 0.75150001
6.5611124 10.646879 0.74176592
6.6420426 10.61825 0.75176376
6.7478518 10.61724 0.74640739
6.8533897 10.628983 0.74544072
6.950789 10.63028 0.75229818
7.0408826 10.625724 0.74493426
7.152319 10.623392 0.75117403
7.2311058 10.633421 0.71831578
6.5645862 10.744023 0.73737866
6.6384826 10.767818 0.75825304
6.7565336 10.774722 0.74745327
6.9580002 10.702 0.78799999
7.0804377 10.790751 0.74181247
7.1487598 10.787839 0.75003994
7.2250772 10.758384 0.72215384
6.7840667 10.818135 0.75033331
6.8466668 10.831184 0.74790007
6.9482822 10.829605 0.74966031
7.0318747 10.81175 0.75037497
7.1730003 10.807 0.76950002
7.2069998 10.808 0.72100002
6.7919998 10.5735 0.89300001
6.8100004 10.586333 0.8963334
6.9624996 10.5875 0.89450002
7.125 10.597 0.81400001
6.5939999 10.6335 0.80250001
6.6500926 10.648075 0.84671021
6.7516155 10.619315 0.8498767
6.8502359 10.624368 0.85202938
6.9476318 10.626255 0.84662032
7.0477238 10.62209 0.85111827
7.1264687 10.628469 0.84468085
6.6563549 10.745907 0.84587222
6.7450442 10.781089 0.84794116
7.0778003 10.7908 0.84653336
7.1238647 10.769229 0.83581817
6.7761364 10.822632 0.8533076
6.8489327 10.835182 0.84625
6.9510555 10.8325 0.84962952
7.0193338 10.820999 0.85650003
7.131 10.802 0.81099999
6.7937503 10.580999 0.91025001
6.8292856 10.588573 0.91728574
6.954 10.591 0.91224998
7.0450001 10.597 0.92299998
6.6909003 10.6482 0.91244984
6.743145 10.649041 0.95338583
6.8480158 10.622655 0.95813107
6.9523449 10.621508 0.9526065
7.0399356 10.631531 0.94576591
7.1059999 10.633 0.90600002
6.6932225 10.731555 0.90588886
6.7431078 10.753173 0.95141047
7.0506473 10.747586 0.94147068
6.7727156 10.824056 0.95324337
6.8500814 10.837111 0.94643557
6.9536476 10.834513 0.95260781
7.0082226 10.81789 0.95333344
6.9606667 10.59089 1.0365556
6.7586231 10.659178 1.0481385
6.8525958 10.6283 1.051
6.9545679 10.625689 1.048919
7.0110717 10.642859 1.0455716
6.7620225 10.748421 1.0500822
6.9963331 10.753334 1.0396667
7.0076995 10.745002 1.0482
6.7737455 10.823334 1.0472443
7.0097694 10.81977 1.0540769
6.7569304 10.661819 1.149513
6.8527122 10.637186 1.1463877
6.9577098 10.638479 1.1546955
7.0085649 10.635651 1.1429566
6.760385 10.750051 1.1499941
7.0056 10.7426 1.1458
6.7774119 10.8248 1.1491556
6.7547016 10.66221 1.2502315
6.8526859 10.639559 1.2458606
6.9576077 10.63611 1.2524047
7.0106926 10.652539 1.2421538
6.7572203 10.751024 1.249549
6.9898334 10.753334 1.2561667
7.008667 10.750667 1.2426667
6.6989999 10.657 1.392
6.7546196 10.659842 1.3517928
6.849319 10.640625 1.3493334
6.956038 10.638286 1.3498749
7.0053992 10.645 1.35
6.7554641 10.750431 1.3505965
6.9854999 10.7432 1.3498
7.007143 10.769572 1.3525714
6.7711897 10.825488 1.349278
6.7500629 10.65856 1.4505215
6.8495588 10.641466 1.4486232
6.9553628 10.639827 1.4496998
7.0055556 10.646889 1.4425555
6.7536769 10.748825 1.4490179
6.9924293 10.731287 1.4405715
7.0051432 10.76 1.4491428
6.7666335 10.827168 1.4508107
7.0074997 10.827999 1.4643333
6.7510133 10.66214 1.5493147
6.8510275 10.6428 1.5476339
6.952024 10.641012 1.5489142
7.0056 10.646502 1.5507001
6.7512946 10.748745 1.5491592
6.9906473 10.74894 1.546353
7.0060005 10.7455 1.5374999
6.7626109 10.828874 1.5497967
6.8506541 10.84552 1.546173
6.9526377 10.839638 1.5472976
7.0027995 10.8262 1.5398
6.7501287 10.661974 1.648224
6.8490825 10.645737 1.6498052
6.9501147 10.64132 1.650026
7.0035005 10.641399 1.643
6.74755 10.747693 1.6493551
6.9918747 10.749001 1.6448749
6.7578893 10.830982 1.6500466
6.8483868 10.846285 1.6506532
6.9509997 10.839108 1.6492609
7 10.823 1.615
6.6929998 10.66 1.761
6.749537 10.661115 1.7503288
6.8474088 10.647466 1.7478307
6.949368 10.645015 1.749241
7.0032496 10.641167 1.7444167
6.7461772 10.748905 1.7516786
6.9883003 10.747701 1.74725
6.7606697 10.83041 1.7501653
6.8516669 10.845355 1.7523539
6.9565997 10.83664 1.7476202
7.0085001 10.822 1.771
6.7444735 10.663305 1.8500365
6.8473344 10.645415 1.8487067
6.9487534 10.641983 1.8482875
7.0033331 10.649666 1.8436668
6.7422843 10.748675 1.8496774
6.9879165 10.742667 1.8477501
6.7583308 10.831759 1.8514591
6.8526978 10.846674 1.8486511
6.9476876 10.83769 1.8458889
7.0015001 10.833 1.8494999
6.7447143 10.663388 1.9496013
6.8467426 10.647373 1.951214
6.9496508 10.645048 1.948687
7.0037498 10.6415 1.9525
6.7409983 10.74858 1.9489937
6.9856257 10.744687 1.9466877
6.7546139 10.831217 1.9489825
6.8496466 10.849188 1.9488128
6.9514894 10.839287 1.9482653
7.0015001 10.838 1.9575
6.7416391 10.662549 2.0521152
6.8438406 10.647106 2.0493157
6.9492211 10.646192 2.0499117
7.0029998 10.651333 2.0641668
6.7332845 10.749834 2.0489573
6.9802732 10.749819 2.0469093
6.7529998 10.833747 2.0491126
6.8495874 10.850393 2.0481522
6.9481363 10.840569 2.0516591
7.007 10.833 2.04
6.6963339 10.578667 2.1849999
6.7408957 10.568981 2.168427
6.830483 10.566677 2.170903
6.921 10.599 2.1860001
6.6830001 10.676154 2.1690001
6.7247281 10.642326 2.1444888
6.8526216 10.628027 2.1313517
6.9569359 10.65128 2.1433907
7.0030003 10.641 2.1459999
6.6868577 10.704144 2.1657143
6.7261391 10.749483 2.1473897
6.9843335 10.758733 2.1406667
7.0009999 10.723 2.1849999
6.7501879 10.835319 2.1522617
6.8485794 10.851441 2.1503596
6.9490933 10.843324 2.1456282
6.6931434 10.472286 2.2834287
6.7405481 10.470874 2.2689886
6.8354993 10.466238 2.2682381
6.696701 10.546768 2.2589669
6.7202206 10.546193 2.2452688
6.8432436 10.533363 2.2323906
6.6968179 10.632729 2.2604547
6.7141805 10.648957 2.2483771
6.8677864 10.631786 2.2460716
6.9603186 10.65941 2.2433178
7.0120001 10.668 2.2315001
6.698 10.744001 2.2306666
6.7211189 10.749611 2.2465775
6.9788675 10.750401 2.2441335
7 10.786 2.299
6.7384806 10.848771 2.2450895
6.8475003 10.880139 2.2420197
6.9440351 10.846679 2.2423215
6.7556434 10.909359 2.2798927
6.8502669 10.9094 2.2878001
6.6938415 10.372106 2.3811581
6.7409053 10.374654 2.3701737
6.831708 10.37039 2.3693416
6.6943021 10.447874 2.3565078
6.7241445 10.442759 2.3381741
6.8367391 10.433071 2.3345237
6.6940384 10.545529 2.3479059
6.7088642 10.552275 2.3494272
6.8604164 10.5525 2.347667
6.6955624 10.628751 2.3424373
6.7176156 10.650974 2.3484812
6.8684001 10.6312 2.3477001
6.965692 10.664847 2.3441541
6.7318997 10.74971 2.3496795
6.9792356 10.743765 2.3480589
6.7353401 10.846686 2.3497584
6.8912501 10.884501 2.35725
6.9536657 10.839 2.3453336
6.7506404 10.93301 2.3546495
6.849381 10.939795 2.3492219
6.9097495 10.931687 2.3491251
6.6859255 10.274888 2.4787405
6.7442842 10.276207 2.4737926
6.8301721 10.27443 2.4740858
6.690371 10.351252 2.4506211
6.7268801 10.338307 2.4394631
6.8326974 10.335233 2.4386611
6.6919079 10.447804 2.4511225
6.7077575 10.450484 2.4466057
6.8449054 10.448477 2.4491429
6.6943974 10.536246 2.4449434
6.7101912 10.545912 2.4428482
6.8493571 10.544001 2.4373569
6.6989999 10.603 2.4119999
6.733119 10.660717 2.4492307
6.8483634 10.656001 2.4497273
6.9624996 10.672084 2.4479167
6.7328157 10.748681 2.4511387
6.9798002 10.748001 2.4467332
6.7321744 10.848607 2.4491346
6.8964996 10.8715 2.4435
6.9551249 10.841249 2.4529998
6.7452393 10.94983 2.4478443
6.8538513 10.978042 2.4274893
6.9094377 10.963436 2.4519377
6.7582254 11.0135 2.4730504
6.8523607 11.01124 2.4796
6.9101672 11.007999 2.4801667
6.6847196 10.181358 2.5831599
6.7442989 10.179682 2.5778296
6.8211751 10.182826 2.5763042
6.685626 10.253912 2.5529377
6.7453203 10.230708 2.533334
6.8327794 10.2374 2.5403597
6.9060001 10.256 2.552
6.6865964 10.347551 2.5498424
6.7030005 10.355863 2.5347273
6.8394785 10.348348 2.5520871
6.6902151 10.438874 2.5449092
6.7122498 10.452228 2.5459094
6.8404174 10.434166 2.5475836
6.6936007 10.506599 2.5151999
6.7222004 10.530133 2.523
6.8155003 10.5275 2.5135
6.691 10.684 2.527
6.7385845 10.666242 2.5505331
6.836297 10.646926 2.5619264
6.9618335 10.672834 2.5497501
6.7254953 10.748487 2.5487232
6.9759402 10.752001 2.5470002
6.7340989 10.850508 2.5485468
6.8916664 10.875668 2.5456667
6.9738579 10.821857 2.5530002
6.7369108 10.952024 2.5490897
6.895 10.9485 2.5487499
6.9038005 10.9564 2.5320001
6.7553802 11.038745 2.5557153
6.8526053 11.047917 2.5519502
6.9091668 11.037055 2.5562222
6.681251 10.084042 2.6795835
6.7488384 10.082406 2.6815138
6.8175387 10.085846 2.6826923
6.6795135 10.152169 2.6545286
6.7471409 10.13276 2.6354554
6.8357959 10.145703 2.6427042
6.6827502 10.247895 2.6492171
6.7047777 10.261112 2.6389999
6.8283005 10.249501 2.6514995
6.6850276 10.341555 2.6432099
6.7147861 10.363357 2.6524999
6.8334289 10.342238 2.6403806
6.6887002 10.413401 2.6097999
6.7176919 10.425769 2.6219232
6.697 10.685 2.687
6.736558 10.669201 2.650177
6.8401079 10.643892 2.6481433
6.9436097 10.658999 2.6613479
6.7244549 10.74923 2.6507728
6.9784546 10.74509 2.6454544
6.7398977 10.846501 2.6490929
6.8726668 10.883334 2.6646669
6.963223 10.825334 2.6424446
6.7340131 10.950747 2.6495697
6.8937497 10.9405 2.6361248
6.9061112 10.964556 2.6538889
6.744503 11.052097 2.647191
6.8583226 11.082354 2.6330295
6.9151821 11.067227 2.6372731
6.761023 11.115025 2.6728373
6.8454485 11.114689 2.6731036
6.91225 11.1105 2.6791251
6.674448 9.9830351 2.7845864
6.7474713 9.9856157 2.7838533
6.8125558 9.9845552 2.7849998
6.670547 10.051934 2.7517631
6.7502737 10.034228 2.7358296
6.8247128 10.045481 2.7467313
6.9130001 10.081 2.7609999
6.6755891 10.14906 2.7500536
6.7129998 10.11 2.7390001
6.8234801 10.146521 2.7432799
6.9099998 10.103 2.7260001
6.6804152 10.244164 2.7447271
6.7235003 10.264 2.7781668
6.8247085 10.241167 2.7538335
6.6844282 10.312144 2.7185004
6.7218885 10.341778 2.7213335
6.8304996 10.3185 2.7192502
6.7870002 10.598 2.7809999
6.7438378 10.664258 2.7508361
6.8469005 10.641649 2.7467833
6.952435 10.649958 2.7558479
6.7235422 10.747562 2.7500982
6.9721336 10.750801 2.7482669
6.7440915 10.841529 2.748009
6.8162222 10.859555 2.7727778
6.9729095 10.825636 2.7492728
6.7433944 10.956676 2.744705
6.8500004 10.936868 2.7581336
6.9029999 10.996 2.7179999
6.7366199 11.048846 2.7482986
6.8905549 11.042 2.7515557
6.9135718 11.061144 2.7437143
6.8512139 11.15436 2.7486894
6.9151425 11.137571 2.7496667
6.668643 9.8841801 2.8846431
6.752162 9.8867016 2.8851347
6.8264999 9.8880005 2.8945
6.6630692 9.9509497 2.8529236
6.7516212 9.938673 2.8376212
6.8209157 9.9455118 2.8457427
6.6658931 10.049254 2.8475683
6.8138328 10.045584 2.8508756
6.6720762 10.147728 2.8450756
6.7389998 10.163 2.8616667
6.8161111 10.149833 2.8503888
6.6780553 10.22089 2.8167219
6.7178335 10.234667 2.848
6.8168001 10.213401 2.8307998
6.7449999 10.303 2.8150001
6.7733335 10.590668 2.8923335
6.6931109 10.665555 2.8884444
6.7384601 10.656203 2.8523755
6.8522944 10.64169 2.8511147
6.9529781 10.644531 2.8508937
7.0157146 10.642572 2.8825715
6.6919293 10.740357 2.8884287
6.7190475 10.750206 2.8494301
6.9822001 10.750501 2.8452001
7.0205002 10.740499 2.8855
6.7425265 10.840974 2.8494389
6.8459687 10.855189 2.8572502
6.9713755 10.829375 2.8517501
6.7622852 10.974428 2.8381634
6.8451114 10.970445 2.8516295
6.9104996 10.993999 2.8740001
6.7356954 11.049655 2.8474116
6.8918233 11.051645 2.8505294
6.9036665 11.049 2.8546667
6.7441897 11.147769 2.8484485
6.9176116 11.167057 2.8286667
6.9074287 11.213286 2.8650002
6.6660423 9.7868261 2.9849131
6.7460456 9.7865906 2.9894545
6.6551318 9.8520298 2.9522729
6.7511287 9.8378735 2.9440596
6.8194094 9.8542309 2.9543333
6.6573515 9.948267 2.9503703
6.7721429 9.936286 2.960429
6.8078823 9.9477644 2.9409411
6.6644993 10.045917 2.9470155
6.7849002 10.034801 2.9430001
6.8125296 10.05 2.9502349
6.6724672 10.120234 2.9207001
6.7184439 10.149222 2.9362223
6.8186665 10.126333 2.9150004
6.75 10.582666 2.9446666
5.6859999 10.63 2.9849999
6.6736307 10.66411 2.954551
6.7440767 10.644294 2.9425395
6.8530955 10.644062 2.9501743
6.9429445 10.633259 2.9492409
7.0359998 10.648241 2.9538796
6.6711249 10.746172 2.951406
6.7129645 10.770037 2.9377859
7.0352669 10.736 2.9417336
6.6989999 10.808 2.9979999
6.7406979 10.838158 2.9470186
6.8524766 10.854073 2.9507625
6.9335461 10.849091 2.9564095
7.0380001 10.821 2.9920001
6.7729998 10.987 2.9059999
6.8365002 10.993 2.9035001
6.902 10.996 2.9100001
6.7500229 11.058577 2.9426415
6.8512163 11.029893 2.9525139
6.9118567 11.051144 2.9598572
6.7398319 11.150306 2.9482169
6.8920002 11.134001 2.9376667
6.9040003 11.1615 2.9654999
0 0 0 1 0 0 0 1 0 0 0 1 0 0 0 0 0 666 1 0 0
