ply
format ascii 1.0
comment PCL generated
element vertex 2017
property float x
property float y
property float z
element camera 0
property float view_px
property float view_py
property float view_pz
property float x_axisx
property float x_axisy
property float x_axisz
property float y_axisx
property float y_axisy
property float y_axisz
property float z_axisx
property float z_axisy
property float z_axisz
property float focal
property float scalex
property float scaley
property float centerx
property float centery
property int viewportx
property int viewporty
property float k1
property float k2
end_header
-12.761 12.228 0.31200001
-12.763 12.246 0.301
-12.765 12.255 0.292
-12.767 12.278 0.28099999
-12.767 12.272 0.27500001
-12.767 12.271 0.26699999
-12.769 12.288 0.257
-12.77 12.296 0.248
-12.768 12.282 0.244
-12.768 12.279 0.237
-12.767 12.27 0.23100001
-12.768 12.276 0.223
-12.768 12.282 0.215
-12.769 12.283 0.207
-12.769 12.285 0.199
-12.77 12.292 0.191
-12.769 12.287 0.185
-12.768 12.274 0.17900001
-12.77 12.289 0.17
-12.769 12.285 0.163
-12.77 12.294 0.155
-12.769 12.281 0.15000001
-12.77 12.289 0.141
-12.771 12.299 0.132
-12.771 12.297 0.126
-12.771 12.294 0.119
-12.77 12.293 0.112
-12.771 12.297 0.104
-12.769 12.277 0.1
-12.769 12.281 0.092
-12.77 12.291 0.082999997
-12.77 12.29 0.075999998
-12.77 12.286 0.07
-12.768 12.268 0.064999998
-12.769 12.281 0.056000002
-12.769 12.279 0.048999999
-12.769 12.276 0.041999999
-12.77 12.282 0.034000002
-12.768 12.269 0.028999999
-12.768 12.269 0.021
-12.768 12.267 0.014
-12.754 12.234 0.34099999
-12.75 12.198 0.34
-12.752 12.212 0.33000001
-12.755 12.235 0.31799999
-12.755 12.239 0.31
-12.757 12.252 0.30000001
-12.759 12.265 0.29100001
-12.76 12.279 0.28099999
-12.759 12.268 0.27500001
-12.762 12.29 0.264
-12.762 12.294 0.25600001
-12.762 12.288 0.25
-12.76 12.274 0.245
-12.759 12.266 0.23899999
-12.762 12.29 0.228
-12.762 12.286 0.221
-12.76 12.274 0.21600001
-12.763 12.292 0.206
-12.761 12.281 0.2
-12.76 12.272 0.19400001
-12.762 12.287 0.185
-12.763 12.292 0.177
-12.761 12.278 0.17200001
-12.761 12.277 0.16500001
-12.762 12.284 0.156
-12.763 12.296 0.147
-12.762 12.288 0.141
-12.761 12.276 0.13600001
-12.762 12.281 0.12800001
-12.761 12.277 0.121
-12.762 12.281 0.113
-12.762 12.285 0.106
-12.764 12.301 0.096000001
-12.762 12.281 0.092
-12.762 12.279 0.085000001
-12.761 12.276 0.078000002
-12.761 12.275 0.071000002
-12.762 12.282 0.063000001
-12.761 12.271 0.057
-12.763 12.291 0.048
-12.764 12.299 0.039000001
-12.763 12.285 0.034000002
-12.76 12.266 0.028999999
-12.745 12.22 0.35800001
-12.741 12.186 0.35800001
-12.742 12.189 0.34900001
-12.746 12.224 0.33500001
-12.751 12.262 0.32100001
-12.748 12.241 0.317
-12.751 12.264 0.30599999
-12.753 12.277 0.296
-12.752 12.271 0.28999999
-12.752 12.27 0.28200001
-12.754 12.283 0.273
-12.754 12.282 0.266
-12.753 12.277 0.259
-12.753 12.274 0.25299999
-12.754 12.286 0.243
-12.753 12.273 0.23800001
-12.756 12.298 0.227
-12.753 12.278 0.223
-12.754 12.28 0.215
-12.754 12.283 0.207
-12.754 12.279 0.20100001
-12.756 12.296 0.191
-12.756 12.293 0.184
-12.754 12.278 0.17900001
-12.754 12.276 0.17200001
-12.755 12.29 0.163
-12.754 12.281 0.15700001
-12.755 12.29 0.148
-12.755 12.283 0.142
-12.756 12.292 0.134
-12.755 12.287 0.127
-12.755 12.285 0.12
-12.756 12.29 0.112
-12.755 12.286 0.106
-12.756 12.29 0.097999997
-12.752 12.262 0.093999997
-12.756 12.289 0.083999999
-12.754 12.277 0.078000002
-12.756 12.288 0.068999998
-12.755 12.284 0.063000001
-12.755 12.285 0.056000002
-12.755 12.281 0.048999999
-12.756 12.288 0.041000001
-12.755 12.282 0.034000002
-12.737 12.211 0.375
-12.738 12.225 0.36500001
-12.734 12.186 0.36500001
-12.736 12.205 0.354
-12.739 12.231 0.34099999
-12.74 12.235 0.333
-12.742 12.248 0.32300001
-12.743 12.256 0.31400001
-12.743 12.26 0.30599999
-12.745 12.273 0.29699999
-12.745 12.272 0.28999999
-12.747 12.285 0.28
-12.745 12.274 0.27399999
-12.747 12.29 0.264
-12.745 12.273 0.25999999
-12.747 12.282 0.25099999
-12.747 12.283 0.244
-12.746 12.274 0.23800001
-12.746 12.28 0.23
-12.746 12.277 0.223
-12.748 12.291 0.213
-12.749 12.298 0.205
-12.748 12.292 0.199
-12.746 12.277 0.19400001
-12.748 12.288 0.185
-12.748 12.287 0.178
-12.747 12.283 0.171
-12.748 12.291 0.163
-12.748 12.285 0.156
-12.747 12.278 0.15000001
-12.749 12.294 0.141
-12.747 12.28 0.13500001
-12.746 12.272 0.12899999
-12.747 12.281 0.121
-12.747 12.278 0.114
-12.747 12.277 0.107
-12.747 12.281 0.098999999
-12.745 12.265 0.093999997
-12.746 12.273 0.086000003
-12.749 12.293 0.075999998
-12.747 12.279 0.071000002
-12.747 12.278 0.064000003
-12.747 12.274 0.057
-12.748 12.285 0.048
-12.747 12.273 0.043000001
-12.722 12.157 0.38600001
-12.724 12.174 0.375
-12.729 12.211 0.36000001
-12.733 12.243 0.347
-12.733 12.242 0.34
-12.735 12.255 0.33000001
-12.736 12.264 0.32100001
-12.735 12.253 0.315
-12.738 12.276 0.30399999
-12.738 12.279 0.296
-12.74 12.288 0.287
-12.741 12.3 0.27700001
-12.739 12.286 0.273
-12.737 12.268 0.26800001
-12.74 12.287 0.25799999
-12.739 12.284 0.25099999
-12.741 12.298 0.241
-12.738 12.275 0.23800001
-12.739 12.284 0.229
-12.741 12.297 0.22
-12.738 12.269 0.21699999
-12.74 12.284 0.207
-12.74 12.287 0.2
-12.741 12.29 0.192
-12.74 12.287 0.185
-12.739 12.278 0.17900001
-12.739 12.277 0.17200001
-12.741 12.289 0.163
-12.739 12.276 0.15800001
-12.739 12.274 0.15099999
-12.742 12.295 0.141
-12.738 12.269 0.13699999
-12.742 12.295 0.126
-12.74 12.285 0.12
-12.74 12.279 0.114
-12.741 12.286 0.106
-12.741 12.29 0.097999997
-12.74 12.283 0.092
-12.741 12.286 0.083999999
-12.739 12.274 0.079000004
-12.74 12.278 0.071000002
-12.739 12.274 0.064000003
-12.742 12.291 0.055
-12.74 12.274 0.050000001
-12.72 12.195 0.39399999
-12.72 12.198 0.38600001
-12.718 12.18 0.382
-12.723 12.223 0.366
-12.725 12.236 0.35600001
-12.726 12.244 0.347
-12.728 12.257 0.33700001
-12.728 12.256 0.33000001
-12.73 12.274 0.31900001
-12.73 12.268 0.31299999
-12.731 12.276 0.30399999
-12.732 12.285 0.29499999
-12.732 12.283 0.28799999
-12.734 12.297 0.278
-12.733 12.29 0.27200001
-12.729 12.264 0.26899999
-12.731 12.277 0.25999999
-12.732 12.279 0.252
-12.732 12.28 0.245
-12.73 12.266 0.23999999
-12.732 12.282 0.23
-12.733 12.289 0.221
-12.733 12.291 0.214
-12.732 12.283 0.208
-12.732 12.279 0.20100001
-12.732 12.279 0.19400001
-12.732 12.282 0.186
-12.732 12.279 0.17900001
-12.732 12.278 0.17200001
-12.733 12.287 0.164
-12.733 12.283 0.15700001
-12.73 12.265 0.152
-12.732 12.279 0.14300001
-12.732 12.278 0.13600001
-12.732 12.274 0.12899999
-12.734 12.288 0.12
-12.731 12.265 0.116
-12.732 12.271 0.108
-12.732 12.274 0.1
-12.732 12.271 0.093000002
-12.733 12.278 0.085000001
-12.732 12.274 0.079000004
-12.732 12.27 0.071999997
-12.733 12.276 0.064000003
-12.732 12.275 0.057
-12.565 11.208 2.9749999
-12.566 11.213 2.9590001
-12.563 11.191 2.961
-12.717 12.231 0.39399999
-12.712 12.195 0.39399999
-12.713 12.197 0.38600001
-12.716 12.225 0.373
-12.718 12.238 0.36300001
-12.721 12.261 0.35100001
-12.721 12.26 0.34400001
-12.722 12.263 0.336
-12.723 12.277 0.32600001
-12.725 12.29 0.31600001
-12.722 12.264 0.31299999
-12.726 12.295 0.30000001
-12.725 12.291 0.294
-12.726 12.29 0.287
-12.724 12.275 0.28200001
-12.724 12.281 0.27399999
-12.725 12.284 0.266
-12.725 12.282 0.259
-12.724 12.279 0.252
-12.724 12.277 0.245
-12.723 12.269 0.23899999
-12.725 12.286 0.229
-12.724 12.275 0.22400001
-12.725 12.281 0.215
-12.724 12.272 0.20999999
-12.723 12.266 0.20299999
-12.724 12.277 0.19400001
-12.724 12.276 0.18700001
-12.725 12.278 0.17900001
-12.726 12.289 0.171
-12.723 12.266 0.167
-12.725 12.277 0.15800001
-12.724 12.273 0.15099999
-12.724 12.27 0.14399999
-12.725 12.279 0.13600001
-12.726 12.283 0.12800001
-12.725 12.276 0.122
-12.726 12.283 0.114
-12.725 12.281 0.107
-12.726 12.288 0.098999999
-12.727 12.291 0.090999998
-12.726 12.286 0.083999999
-12.725 12.279 0.078000002
-12.727 12.293 0.068999998
-12.727 12.289 0.061999999
-12.559 11.23 2.974
-12.56 11.24 2.954
-12.558 11.222 2.954
-12.559 11.233 2.934
-12.557 11.214 2.9330001
-12.706 12.206 0.40700001
-12.702 12.174 0.40599999
-12.705 12.2 0.39300001
-12.711 12.242 0.377
-12.712 12.245 0.36899999
-12.713 12.254 0.36000001
-12.714 12.262 0.35100001
-12.715 12.27 0.34200001
-12.712 12.25 0.338
-12.715 12.273 0.32699999
-12.716 12.276 0.31900001
-12.717 12.28 0.31099999
-12.719 12.297 0.30000001
-12.718 12.293 0.294
-12.716 12.275 0.28999999
-12.716 12.272 0.28299999
-12.715 12.266 0.27599999
-12.715 12.268 0.26899999
-12.716 12.274 0.25999999
-12.716 12.27 0.25400001
-12.717 12.276 0.245
-12.717 12.279 0.23800001
-12.717 12.282 0.23
-12.716 12.268 0.22499999
-12.718 12.286 0.215
-12.717 12.281 0.208
-12.718 12.284 0.2
-12.718 12.281 0.19400001
-12.718 12.281 0.186
-12.717 12.278 0.18000001
-12.717 12.277 0.17200001
-12.717 12.276 0.16500001
-12.716 12.27 0.15899999
-12.716 12.269 0.152
-12.718 12.283 0.14300001
-12.717 12.275 0.13699999
-12.718 12.284 0.12800001
-12.717 12.275 0.122
-12.717 12.271 0.115
-12.716 12.268 0.109
-12.716 12.265 0.102
-12.718 12.276 0.093000002
-12.72 12.29 0.083999999
-12.716 12.263 0.079999998
-12.718 12.281 0.071000002
-12.555 11.269 2.987
-12.553 11.259 2.9809999
-12.555 11.274 2.9579999
-12.554 11.264 2.9519999
-12.554 11.262 2.9400001
-12.551 11.24 2.9419999
-12.553 11.255 2.9200001
-12.554 11.263 2.902
-12.551 11.236 2.9059999
-12.695 12.182 0.41999999
-12.693 12.165 0.41600001
-12.697 12.197 0.40099999
-12.704 12.244 0.384
-12.705 12.253 0.375
-12.707 12.266 0.36500001
-12.707 12.264 0.35800001
-12.707 12.268 0.34999999
-12.707 12.267 0.34299999
-12.708 12.27 0.33500001
-12.709 12.278 0.32600001
-12.709 12.279 0.31799999
-12.71 12.285 0.31
-12.709 12.28 0.303
-12.71 12.282 0.296
-12.71 12.285 0.28799999
-12.709 12.274 0.28200001
-12.709 12.273 0.27500001
-12.709 12.279 0.26699999
-12.709 12.273 0.26100001
-12.711 12.289 0.25099999
-12.712 12.295 0.242
-12.71 12.28 0.23800001
-12.71 12.283 0.23
-12.711 12.286 0.222
-12.711 12.288 0.214
-12.71 12.282 0.208
-12.711 12.283 0.20100001
-12.71 12.278 0.19400001
-12.71 12.281 0.18700001
-12.711 12.284 0.17900001
-12.711 12.288 0.171
-12.71 12.275 0.16599999
-12.709 12.274 0.15899999
-12.711 12.285 0.15000001
-12.71 12.28 0.14300001
-12.71 12.279 0.13600001
-12.709 12.272 0.13
-12.711 12.284 0.121
-12.708 12.257 0.117
-12.712 12.287 0.106
-12.709 12.267 0.102
-12.711 12.28 0.093000002
-12.708 12.261 0.088
-12.55 11.305 2.9760001
-12.55 11.299 2.967
-12.547 11.281 2.967
-12.549 11.296 2.944
-12.548 11.286 2.938
-12.548 11.288 2.924
-12.55 11.299 2.904
-12.549 11.29 2.8970001
-12.548 11.283 2.8889999
-12.547 11.277 2.8800001
-12.543 11.248 2.8870001
-12.688 12.182 0.435
-12.689 12.188 0.426
-12.686 12.172 0.42199999
-12.692 12.21 0.40599999
-12.696 12.242 0.39199999
-12.696 12.241 0.38499999
-12.699 12.259 0.37400001
-12.701 12.277 0.36300001
-12.7 12.265 0.35800001
-12.699 12.263 0.35100001
-12.701 12.277 0.34099999
-12.703 12.286 0.33199999
-12.704 12.298 0.322
-12.701 12.27 0.31999999
-12.701 12.273 0.31200001
-12.699 12.258 0.308
-12.701 12.271 0.29800001
-12.702 12.277 0.289
-12.703 12.283 0.28099999
-12.702 12.279 0.27399999
-12.7 12.265 0.27000001
-12.703 12.283 0.259
-12.702 12.279 0.252
-12.701 12.271 0.24699999
-12.704 12.291 0.236
-12.701 12.269 0.23199999
-12.701 12.27 0.22499999
-12.703 12.284 0.215
-12.701 12.27 0.20999999
-12.703 12.281 0.20100001
-12.702 12.271 0.19499999
-12.702 12.275 0.18799999
-12.703 12.278 0.18000001
-12.702 12.269 0.17399999
-12.704 12.286 0.164
-12.703 12.277 0.15800001
-12.704 12.282 0.15000001
-12.702 12.268 0.145
-12.703 12.277 0.13600001
-12.7 12.253 0.133
-12.703 12.279 0.122
-12.704 12.282 0.114
-12.703 12.275 0.108
-12.703 12.277 0.1
-12.703 12.278 0.093000002
-12.543 11.32 2.9790001
-12.543 11.319 2.9679999
-12.544 11.325 2.951
-12.545 11.327 2.9360001
-12.543 11.317 2.9300001
-12.544 11.324 2.9130001
-12.545 11.331 2.8959999
-12.543 11.316 2.8929999
-12.543 11.311 2.8840001
-12.543 11.313 2.8699999
-12.545 11.324 2.8499999
-12.542 11.306 2.849
-12.543 11.313 2.832
-12.684 12.206 0.43799999
-12.677 12.158 0.44
-12.681 12.184 0.42699999
-12.684 12.207 0.41499999
-12.689 12.24 0.40000001
-12.69 12.253 0.38999999
-12.692 12.261 0.38100001
-12.693 12.269 0.37200001
-12.694 12.278 0.36300001
-12.693 12.266 0.35800001
-12.695 12.284 0.347
-12.695 12.283 0.34
-12.695 12.282 0.333
-12.697 12.295 0.32300001
-12.694 12.273 0.31999999
-12.694 12.272 0.31299999
-12.695 12.278 0.30399999
-12.695 12.279 0.29699999
-12.695 12.281 0.289
-12.693 12.269 0.28400001
-12.692 12.261 0.278
-12.695 12.282 0.26699999
-12.694 12.275 0.26100001
-12.695 12.275 0.25299999
-12.694 12.271 0.24699999
-12.696 12.284 0.237
-12.695 12.275 0.23100001
-12.696 12.283 0.223
-12.696 12.282 0.21600001
-12.695 12.274 0.20999999
-12.695 12.278 0.20200001
-12.696 12.279 0.19400001
-12.695 12.274 0.18799999
-12.696 12.281 0.17900001
-12.696 12.28 0.17200001
-12.695 12.275 0.16599999
-12.697 12.285 0.15700001
-12.696 12.283 0.15000001
-12.698 12.291 0.142
-12.695 12.272 0.13699999
-12.696 12.276 0.12899999
-12.696 12.276 0.122
-12.694 12.261 0.117
-12.696 12.276 0.108
-12.694 12.262 0.102
-12.537 11.344 2.977
-12.536 11.334 2.971
-12.537 11.336 2.9560001
-12.541 11.363 2.925
-12.538 11.345 2.925
-12.54 11.356 2.905
-12.541 11.362 2.888
-12.539 11.352 2.882
-12.539 11.351 2.8710001
-12.54 11.356 2.855
-12.539 11.35 2.846
-12.54 11.353 2.832
-12.54 11.351 2.8199999
-12.541 11.358 2.803
-12.537 11.336 2.806
-12.538 11.338 2.7920001
-12.674 12.188 0.449
-12.672 12.175 0.44400001
-12.672 12.177 0.43599999
-12.679 12.224 0.419
-12.682 12.242 0.40799999
-12.684 12.26 0.396
-12.685 12.263 0.38800001
-12.685 12.266 0.38
-12.687 12.275 0.37099999
-12.685 12.264 0.366
-12.688 12.282 0.35499999
-12.69 12.295 0.345
-12.689 12.294 0.338
-12.687 12.274 0.33399999
-12.687 12.274 0.32699999
-12.686 12.27 0.31999999
-12.687 12.275 0.31200001
-12.686 12.272 0.30500001
-12.687 12.275 0.29699999
-12.687 12.274 0.28999999
-12.688 12.278 0.28200001
-12.688 12.282 0.27399999
-12.687 12.274 0.26800001
-12.685 12.261 0.26300001
-12.687 12.274 0.25400001
-12.687 12.273 0.24600001
-12.687 12.274 0.23899999
-12.688 12.276 0.23100001
-12.686 12.265 0.226
-12.687 12.268 0.21799999
-12.689 12.285 0.208
-12.688 12.274 0.20299999
-12.688 12.28 0.19400001
-12.689 12.284 0.186
-12.688 12.274 0.18099999
-12.688 12.272 0.17399999
-12.688 12.277 0.16599999
-12.688 12.275 0.15899999
-12.689 12.279 0.15099999
-12.688 12.272 0.145
-12.686 12.256 0.14
-12.688 12.275 0.13
-12.686 12.26 0.125
-12.689 12.276 0.115
-12.69 12.284 0.107
-12.53 11.359 2.98
-12.53 11.358 2.9679999
-12.531 11.364 2.951
-12.532 11.366 2.937
-12.533 11.373 2.9200001
-12.533 11.375 2.905
-12.534 11.38 2.8889999
-12.535 11.382 2.875
-12.536 11.389 2.858
-12.536 11.394 2.842
-12.535 11.384 2.836
-12.533 11.372 2.832
-12.534 11.379 2.8150001
-12.535 11.381 2.8010001
-12.536 11.39 2.783
-12.535 11.383 2.776
-12.533 11.369 2.7720001
-12.533 11.366 2.7620001
-12.534 11.371 2.7460001
-12.667 12.194 0.463
-12.665 12.178 0.45899999
-12.663 12.165 0.454
-12.665 12.179 0.44400001
-12.673 12.232 0.42500001
-12.676 12.254 0.41299999
-12.677 12.262 0.403
-12.675 12.246 0.39899999
-12.676 12.255 0.38999999
-12.679 12.277 0.37799999
-12.681 12.285 0.36899999
-12.68 12.28 0.36300001
-12.68 12.283 0.35499999
-12.68 12.282 0.34799999
-12.681 12.287 0.33899999
-12.68 12.282 0.333
-12.678 12.262 0.329
-12.681 12.285 0.31799999
-12.679 12.271 0.31299999
-12.679 12.268 0.30599999
-12.68 12.276 0.29699999
-12.679 12.267 0.292
-12.682 12.29 0.28
-12.68 12.276 0.27500001
-12.679 12.27 0.26899999
-12.68 12.277 0.26100001
-12.68 12.273 0.25400001
-12.682 12.291 0.244
-12.68 12.275 0.23899999
-12.68 12.277 0.23100001
-12.68 12.271 0.22499999
-12.682 12.285 0.215
-12.682 12.284 0.208
-12.679 12.265 0.204
-12.678 12.257 0.198
-12.679 12.261 0.19
-12.681 12.278 0.18000001
-12.684 12.295 0.17
-12.681 12.277 0.16599999
-12.68 12.268 0.16
-12.679 12.259 0.154
-12.677 12.251 0.148
-12.681 12.272 0.13699999
-12.683 12.29 0.12800001
-12.68 12.268 0.124
-12.524 11.375 2.983
-12.525 11.385 2.9630001
-12.524 11.379 2.954
-12.526 11.39 2.934
-12.528 11.399 2.915
-12.527 11.393 2.9070001
-12.528 11.403 2.8870001
-12.529 11.408 2.872
-12.531 11.417 2.8529999
-12.53 11.415 2.842
-12.532 11.426 2.822
-12.53 11.408 2.822
-12.531 11.417 2.803
-12.529 11.407 2.7980001
-12.53 11.408 2.7850001
-12.53 11.41 2.7709999
-12.53 11.409 2.7590001
-12.531 11.412 2.7449999
-12.529 11.402 2.7390001
-12.53 11.407 2.724
-12.531 11.414 2.707
-12.664 12.226 0.46399999
-12.656 12.169 0.46900001
-12.656 12.166 0.46200001
-12.662 12.207 0.44600001
-12.666 12.234 0.43200001
-12.668 12.252 0.421
-12.668 12.25 0.414
-12.669 12.254 0.405
-12.67 12.261 0.396
-12.672 12.275 0.38600001
-12.671 12.273 0.37900001
-12.674 12.287 0.36899999
-12.671 12.271 0.36500001
-12.675 12.293 0.35299999
-12.673 12.28 0.34799999
-12.671 12.268 0.34299999
-12.673 12.281 0.333
-12.671 12.269 0.32800001
-12.672 12.273 0.31999999
-12.673 12.277 0.31200001
-12.674 12.285 0.303
-12.67 12.26 0.301
-12.673 12.276 0.28999999
-12.672 12.275 0.28299999
-12.672 12.268 0.27700001
-12.674 12.281 0.26699999
-12.673 12.275 0.26100001
-12.672 12.267 0.255
-12.673 12.276 0.24600001
-12.671 12.26 0.242
-12.674 12.283 0.23100001
-12.673 12.272 0.22499999
-12.674 12.281 0.21600001
-12.672 12.267 0.211
-12.673 12.271 0.20299999
-12.673 12.27 0.19599999
-12.673 12.271 0.189
-12.673 12.275 0.18099999
-12.671 12.262 0.175
-12.674 12.28 0.16500001
-12.675 12.283 0.15800001
-12.672 12.265 0.153
-12.674 12.277 0.14399999
-12.676 12.291 0.13500001
-12.674 12.274 0.13
-12.52 11.414 2.9690001
-12.517 11.392 2.971
-12.519 11.403 2.951
-12.522 11.424 2.924
-12.522 11.422 2.9130001
-12.524 11.437 2.8900001
-12.523 11.431 2.882
-12.525 11.438 2.865
-12.525 11.44 2.8499999
-12.525 11.438 2.839
-12.525 11.437 2.8280001
-12.525 11.44 2.8139999
-12.526 11.442 2.8
-12.527 11.449 2.783
-12.527 11.448 2.7709999
-12.527 11.448 2.7590001
-12.526 11.445 2.7490001
-12.526 11.443 2.7379999
-12.526 11.442 2.7260001
-12.526 11.44 2.7149999
-12.525 11.436 2.7060001
-12.525 11.433 2.6960001
-12.529 11.459 2.6670001
-12.526 11.436 2.6700001
-12.651 12.19 0.47999999
-12.647 12.161 0.479
-12.65 12.176 0.46799999
-12.656 12.219 0.45100001
-12.659 12.241 0.43799999
-12.662 12.259 0.42699999
-12.66 12.243 0.42300001
-12.662 12.256 0.41299999
-12.663 12.265 0.403
-12.664 12.273 0.39399999
-12.666 12.286 0.384
-12.665 12.28 0.37799999
-12.666 12.284 0.37
-12.664 12.268 0.366
-12.667 12.291 0.354
-12.665 12.275 0.34900001
-12.663 12.259 0.345
-12.666 12.282 0.333
-12.666 12.28 0.32600001
-12.665 12.274 0.31999999
-12.665 12.276 0.31200001
-12.663 12.261 0.308
-12.666 12.281 0.29699999
-12.666 12.276 0.28999999
-12.666 12.279 0.28200001
-12.666 12.279 0.27500001
-12.665 12.274 0.26899999
-12.666 12.282 0.25999999
-12.665 12.273 0.25400001
-12.666 12.281 0.245
-12.666 12.278 0.23899999
-12.664 12.264 0.234
-12.666 12.274 0.22499999
-12.667 12.281 0.21600001
-12.665 12.271 0.211
-12.667 12.279 0.20200001
-12.665 12.269 0.19599999
-12.665 12.267 0.189
-12.667 12.279 0.18000001
-12.665 12.27 0.17399999
-12.667 12.279 0.16599999
-12.666 12.273 0.15899999
-12.667 12.28 0.15099999
-12.666 12.274 0.145
-12.665 12.265 0.139
-12.642 12.296 2.984
-12.635 12.251 2.9860001
-12.636 12.253 2.9719999
-12.632 12.228 2.9809999
-12.629 12.212 2.9820001
-12.625 12.179 2.9860001
-12.513 11.428 2.9860001
-12.514 11.433 2.9690001
-12.512 11.416 2.9690001
-12.514 11.429 2.947
-12.514 11.431 2.9330001
-12.516 11.441 2.9130001
-12.516 11.444 2.8989999
-12.518 11.454 2.8789999
-12.517 11.445 2.8729999
-12.517 11.447 2.859
-12.518 11.454 2.842
-12.52 11.469 2.8199999
-12.52 11.467 2.8080001
-12.52 11.461 2.8
-12.521 11.472 2.78
-12.523 11.48 2.763
-12.524 11.491 2.743
-12.52 11.461 2.7509999
-12.523 11.478 2.7279999
-12.522 11.473 2.7190001
-12.523 11.48 2.7019999
-12.521 11.466 2.6989999
-12.521 11.465 2.688
-12.522 11.472 2.671
-12.522 11.471 2.6600001
-12.524 11.481 2.641
-12.522 11.472 2.6359999
-12.645 12.197 0.49399999
-12.65 12.231 0.47799999
-12.64 12.163 0.486
-12.643 12.184 0.47400001
-12.65 12.226 0.45699999
-12.65 12.23 0.44800001
-12.653 12.247 0.43700001
-12.655 12.26 0.42699999
-12.655 12.264 0.419
-12.657 12.277 0.40799999
-12.657 12.275 0.40099999
-12.656 12.269 0.39500001
-12.659 12.287 0.384
-12.659 12.286 0.377
-12.659 12.284 0.37
-12.656 12.264 0.366
-12.656 12.265 0.359
-12.657 12.269 0.35100001
-12.658 12.276 0.34200001
-12.658 12.278 0.33399999
-12.657 12.27 0.32800001
-12.66 12.286 0.31799999
-12.658 12.272 0.31299999
-12.656 12.26 0.308
-12.659 12.278 0.29699999
-12.658 12.275 0.29100001
-12.657 12.27 0.28400001
-12.659 12.279 0.27500001
-12.657 12.268 0.27000001
-12.659 12.279 0.26100001
-12.659 12.278 0.25299999
-12.657 12.266 0.248
-12.658 12.274 0.23999999
-12.656 12.258 0.235
-12.659 12.28 0.22400001
-12.658 12.274 0.21799999
-12.658 12.271 0.211
-12.658 12.27 0.204
-12.658 12.267 0.197
-12.659 12.275 0.18799999
-12.657 12.264 0.183
-12.658 12.266 0.175
-12.657 12.265 0.168
-12.657 12.259 0.162
-12.656 12.252 0.155
-12.659 12.276 0.14399999
-12.633 12.287 2.98
-12.633 12.286 2.9690001
-12.629 12.26 2.9790001
-12.628 12.255 2.9719999
-12.626 12.237 2.974
-12.626 12.238 2.961
-12.622 12.213 2.97
-12.619 12.193 2.9749999
-12.616 12.173 2.9790001
-12.617 12.182 2.96
-12.507 11.445 2.974
-12.508 11.454 2.9560001
-12.509 11.46 2.9389999
-12.509 11.454 2.9300001
-12.509 11.457 2.9159999
-12.512 11.475 2.8900001
-12.513 11.478 2.8759999
-12.511 11.468 2.8699999
-12.512 11.475 2.8529999
-12.513 11.481 2.8369999
-12.513 11.48 2.825
-12.516 11.495 2.803
-12.514 11.485 2.7969999
-12.517 11.503 2.773
-12.514 11.481 2.7750001
-12.516 11.496 2.753
-12.517 11.503 2.7360001
-12.519 11.514 2.717
-12.516 11.492 2.7190001
-12.518 11.507 2.697
-12.518 11.502 2.6889999
-12.517 11.497 2.6800001
-12.517 11.495 2.6689999
-12.519 11.507 2.6500001
-12.518 11.501 2.641
-12.517 11.496 2.6329999
-12.516 11.491 2.6240001
-12.518 11.504 2.6040001
-12.635 12.18 0.505
-12.639 12.204 0.49200001
-12.634 12.174 0.491
-12.636 12.186 0.48100001
-12.643 12.234 0.463
-12.644 12.242 0.45300001
-12.645 12.245 0.44499999
-12.648 12.263 0.43399999
-12.649 12.27 0.42500001
-12.65 12.274 0.417
-12.65 12.277 0.40900001
-12.652 12.29 0.398
-12.651 12.28 0.39300001
-12.649 12.27 0.38800001
-12.651 12.281 0.37799999
-12.648 12.262 0.375
-12.648 12.262 0.36700001
-12.649 12.265 0.359
-12.648 12.262 0.352
-12.65 12.277 0.34200001
-12.65 12.274 0.33500001
-12.65 12.271 0.32800001
-12.65 12.272 0.32100001
-12.648 12.258 0.31600001
-12.649 12.268 0.30700001
-12.651 12.277 0.29800001
-12.652 12.281 0.28999999
-12.65 12.27 0.28400001
-12.651 12.278 0.27599999
-12.649 12.265 0.27000001
-12.653 12.286 0.25999999
-12.65 12.27 0.255
-12.652 12.284 0.245
-12.653 12.29 0.237
-12.651 12.272 0.233
-12.651 12.271 0.226
-12.65 12.264 0.219
-12.652 12.28 0.20900001
-12.651 12.269 0.204
-12.65 12.264 0.197
-12.653 12.286 0.18700001
-12.65 12.267 0.182
-12.652 12.279 0.17299999
-12.651 12.271 0.167
-12.65 12.262 0.161
-12.632 12.33 2.9820001
-12.629 12.312 2.984
-12.628 12.305 2.9779999
-12.627 12.297 2.973
-12.626 12.287 2.9690001
-12.623 12.266 2.9749999
-12.623 12.271 2.9590001
-12.623 12.268 2.9489999
-12.618 12.236 2.964
-12.617 12.23 2.957
-12.616 12.221 2.9530001
-12.614 12.211 2.9489999
-12.61 12.181 2.9619999
-12.612 12.195 2.938
-12.499 11.451 2.984
-12.504 11.481 2.95
-12.504 11.484 2.9360001
-12.502 11.471 2.9319999
-12.505 11.488 2.9070001
-12.504 11.478 2.902
-12.505 11.485 2.885
-12.507 11.5 2.862
-12.506 11.494 2.8540001
-12.509 11.513 2.8280001
-12.508 11.503 2.823
-12.506 11.493 2.8169999
-12.51 11.516 2.79
-12.509 11.51 2.7809999
-12.511 11.521 2.7620001
-12.512 11.524 2.7479999
-12.511 11.518 2.7390001
-12.513 11.529 2.72
-12.515 11.544 2.698
-12.512 11.522 2.7
-12.512 11.525 2.6860001
-12.513 11.53 2.671
-12.513 11.531 2.6589999
-12.514 11.534 2.645
-12.512 11.525 2.6389999
-12.512 11.523 2.628
-12.512 11.522 2.6170001
-12.512 11.517 2.608
-12.515 11.539 2.582
-12.512 11.519 2.5840001
-12.624 12.155 0.51099998
-12.623 12.152 0.50400001
-12.633 12.213 0.48300001
-12.634 12.222 0.47299999
-12.638 12.249 0.46000001
-12.639 12.253 0.45100001
-12.639 12.256 0.44299999
-12.641 12.263 0.43399999
-12.642 12.271 0.42500001
-12.643 12.275 0.41600001
-12.644 12.283 0.40799999
-12.641 12.267 0.403
-12.643 12.274 0.39500001
-12.642 12.271 0.38800001
-12.643 12.277 0.37900001
-12.642 12.272 0.373
-12.643 12.276 0.36399999
-12.643 12.274 0.35800001
-12.641 12.259 0.35299999
-12.642 12.267 0.34400001
-12.641 12.264 0.33700001
-12.643 12.274 0.32800001
-12.642 12.268 0.322
-12.644 12.278 0.31200001
-12.641 12.261 0.308
-12.642 12.262 0.301
-12.643 12.272 0.29100001
-12.645 12.281 0.28299999
-12.644 12.274 0.27599999
-12.644 12.279 0.26800001
-12.643 12.267 0.26300001
-12.64 12.251 0.25799999
-12.641 12.255 0.25
-12.645 12.284 0.23800001
-12.644 12.278 0.23199999
-12.645 12.281 0.22400001
-12.643 12.268 0.219
-12.645 12.278 0.20999999
-12.645 12.281 0.20200001
-12.644 12.276 0.19599999
-12.643 12.266 0.19
-12.644 12.276 0.18099999
-12.645 12.282 0.17299999
-12.643 12.264 0.168
-12.627 12.343 2.983
-12.624 12.328 2.984
-12.623 12.321 2.9779999
-12.624 12.322 2.9649999
-12.622 12.312 2.9619999
-12.618 12.287 2.97
-12.62 12.297 2.95
-12.617 12.279 2.9530001
-12.615 12.263 2.954
-12.614 12.26 2.9449999
-12.613 12.254 2.938
-12.609 12.226 2.9489999
-12.609 12.223 2.9400001
-12.607 12.214 2.9349999
-12.602 12.181 2.95
-12.601 12.176 2.9419999
-12.599 12.163 2.941
-12.493 11.471 2.9579999
-12.498 11.5 2.925
-12.5 11.516 2.902
-12.501 11.522 2.885
-12.503 11.533 2.865
-12.502 11.523 2.859
-12.502 11.525 2.845
-12.504 11.535 2.826
-12.505 11.542 2.809
-12.504 11.536 2.8010001
-12.503 11.527 2.7950001
-12.506 11.547 2.7690001
-12.504 11.532 2.767
-12.507 11.551 2.7420001
-12.506 11.546 2.734
-12.507 11.552 2.717
-12.509 11.559 2.701
-12.51 11.566 2.684
-12.508 11.557 2.678
-12.51 11.568 2.6589999
-12.511 11.571 2.645
-12.51 11.566 2.6370001
-12.508 11.552 2.6340001
-12.509 11.559 2.618
-12.51 11.566 2.602
-12.51 11.565 2.5910001
-12.508 11.551 2.5880001
-12.509 11.554 2.5739999
-12.508 11.549 2.5650001
-12.509 11.558 2.5480001
-12.626 12.217 0.51200002
-12.617 12.161 0.51800001
-12.615 12.147 0.51300001
-12.624 12.206 0.49200001
-12.629 12.239 0.477
-12.633 12.262 0.46399999
-12.632 12.255 0.458
-12.632 12.254 0.45100001
-12.634 12.267 0.44100001
-12.633 12.259 0.435
-12.633 12.263 0.42699999
-12.637 12.285 0.41499999
-12.637 12.285 0.40700001
-12.633 12.26 0.405
-12.635 12.276 0.39399999
-12.637 12.283 0.38499999
-12.633 12.262 0.382
-12.635 12.271 0.373
-12.634 12.266 0.36700001
-12.634 12.265 0.359
-12.635 12.269 0.35100001
-12.635 12.273 0.34299999
-12.635 12.271 0.336
-12.634 12.263 0.33000001
-12.633 12.255 0.324
-12.636 12.273 0.31299999
-12.635 12.266 0.30700001
-12.637 12.281 0.29699999
-12.635 12.265 0.29300001
-12.634 12.262 0.28600001
-12.637 12.279 0.27599999
-12.634 12.263 0.271
-12.635 12.265 0.26300001
-12.636 12.274 0.255
-12.636 12.272 0.248
-12.635 12.265 0.242
-12.637 12.277 0.23199999
-12.636 12.27 0.226
-12.637 12.276 0.21799999
-12.636 12.267 0.212
-12.636 12.268 0.204
-12.635 12.26 0.198
-12.638 12.281 0.18799999
-12.637 12.272 0.182
-12.636 12.27 0.175
-12.62 12.349 2.9790001
-12.619 12.338 2.9760001
-12.617 12.33 2.971
-12.616 12.32 2.967
-12.616 12.319 2.9560001
-12.614 12.307 2.9549999
-12.612 12.297 2.951
-12.611 12.287 2.947
-12.61 12.279 2.9419999
-12.609 12.277 2.9319999
-12.608 12.266 2.9289999
-12.605 12.249 2.931
-12.602 12.232 2.9330001
-12.601 12.223 2.9289999
-12.599 12.209 2.928
-12.599 12.206 2.918
-12.591 12.156 2.947
-12.592 12.166 2.927
-12.482 11.456 2.97
-12.488 11.494 2.9300001
-12.494 11.529 2.8929999
-12.495 11.54 2.8729999
-12.496 11.541 2.8599999
-12.495 11.536 2.8510001
-12.499 11.559 2.823
-12.499 11.561 2.809
-12.5 11.568 2.7920001
-12.5 11.566 2.7809999
-12.498 11.548 2.7809999
-12.499 11.559 2.7620001
-12.501 11.57 2.7420001
-12.501 11.569 2.7309999
-12.5 11.563 2.723
-12.503 11.579 2.701
-12.503 11.577 2.6900001
-12.505 11.588 2.6700001
-12.502 11.575 2.6670001
-12.505 11.589 2.6459999
-12.505 11.592 2.632
-12.505 11.591 2.6210001
-12.505 11.59 2.6099999
-12.505 11.59 2.598
-12.506 11.592 2.586
-12.503 11.574 2.585
-12.504 11.577 2.572
-12.506 11.589 2.553
-12.503 11.571 2.552
-12.504 11.58 2.5350001
-12.505 11.587 2.5190001
-12.616 12.203 0.52399999
-12.609 12.157 0.52700001
-12.61 12.164 0.51700002
-12.617 12.209 0.49900001
-12.621 12.232 0.486
-12.623 12.25 0.47499999
-12.627 12.272 0.46200001
-12.625 12.26 0.45699999
-12.625 12.26 0.44999999
-12.628 12.276 0.43900001
-12.627 12.27 0.433
-12.629 12.284 0.42199999
-12.628 12.274 0.417
-12.626 12.263 0.412
-12.627 12.268 0.40400001
-12.627 12.268 0.396
-12.624 12.25 0.39199999
-12.628 12.276 0.38
-12.625 12.257 0.37599999
-12.627 12.266 0.36700001
-12.627 12.269 0.359
-12.626 12.263 0.35299999
-12.627 12.264 0.345
-12.629 12.276 0.33500001
-12.629 12.278 0.32699999
-12.63 12.283 0.31900001
-12.629 12.278 0.31299999
-12.629 12.276 0.30599999
-12.627 12.266 0.30000001
-12.63 12.284 0.28999999
-12.625 12.253 0.28799999
-12.626 12.257 0.28
-12.63 12.281 0.26800001
-12.627 12.264 0.264
-12.627 12.261 0.257
-12.628 12.268 0.248
-12.629 12.271 0.241
-12.628 12.264 0.234
-12.627 12.258 0.228
-12.627 12.26 0.22
-12.628 12.268 0.212
-12.63 12.276 0.20299999
-12.629 12.273 0.19599999
-12.628 12.262 0.191
-12.612 12.341 2.974
-12.611 12.339 2.964
-12.61 12.333 2.957
-12.609 12.323 2.954
-12.608 12.317 2.947
-12.608 12.318 2.934
-12.605 12.3 2.937
-12.603 12.287 2.9360001
-12.602 12.278 2.9319999
-12.602 12.28 2.918
-12.599 12.261 2.921
-12.598 12.252 2.9170001
-12.598 12.254 2.904
-12.594 12.225 2.9159999
-12.593 12.219 2.9089999
-12.591 12.21 2.904
-12.587 12.185 2.9130001
-12.586 12.176 2.908
-12.58 12.14 2.925
-12.469 11.434 2.9860001
-12.476 11.475 2.944
-12.484 11.527 2.8959999
-12.487 11.545 2.8699999
-12.493 11.577 2.836
-12.491 11.57 2.829
-12.493 11.576 2.812
-12.494 11.583 2.7950001
-12.495 11.59 2.7780001
-12.496 11.592 2.7639999
-12.498 11.607 2.7420001
-12.496 11.594 2.7390001
-12.498 11.604 2.72
-12.498 11.603 2.7090001
-12.498 11.606 2.6949999
-12.499 11.612 2.6789999
-12.498 11.603 2.6730001
-12.498 11.605 2.6600001
-12.501 11.621 2.638
-12.5 11.611 2.632
-12.5 11.614 2.619
-12.5 11.613 2.608
-12.502 11.625 2.589
-12.501 11.617 2.582
-12.501 11.617 2.5699999
-12.501 11.615 2.5599999
-12.5 11.612 2.55
-12.5 11.611 2.539
-12.5 11.61 2.5280001
-12.499 11.601 2.523
-12.499 11.604 2.5090001
-12.499 11.601 2.5
-12.609 12.207 0.52999997
-12.6 12.15 0.53600001
-12.603 12.166 0.52499998
-12.614 12.237 0.50099999
-12.614 12.235 0.49399999
-12.616 12.248 0.48300001
-12.618 12.261 0.47299999
-12.618 12.264 0.46399999
-12.617 12.257 0.458
-12.62 12.27 0.44800001
-12.618 12.263 0.442
-12.622 12.287 0.43000001
-12.619 12.267 0.426
-12.618 12.262 0.41999999
-12.621 12.275 0.41
-12.62 12.271 0.403
-12.619 12.268 0.396
-12.619 12.262 0.38999999
-12.62 12.269 0.38100001
-12.621 12.276 0.37200001
-12.617 12.253 0.37
-12.619 12.263 0.36000001
-12.619 12.26 0.35299999
-12.619 12.262 0.345
-12.621 12.276 0.33500001
-12.62 12.267 0.33000001
-12.619 12.261 0.32300001
-12.621 12.272 0.31400001
-12.621 12.275 0.30599999
-12.62 12.268 0.30000001
-12.619 12.261 0.294
-12.617 12.25 0.289
-12.621 12.269 0.278
-12.622 12.279 0.26899999
-12.618 12.252 0.266
-12.62 12.264 0.257
-12.619 12.26 0.25
-12.619 12.255 0.243
-12.622 12.277 0.23199999
-12.62 12.263 0.227
-12.62 12.263 0.22
-12.62 12.263 0.213
-12.622 12.275 0.204
-12.622 12.276 0.19599999
-12.605 12.348 2.9809999
-12.604 12.339 2.977
-12.604 12.336 2.9679999
-12.603 12.331 2.96
-12.603 12.331 2.948
-12.603 12.33 2.9360001
-12.6 12.312 2.9400001
-12.599 12.306 2.9330001
-12.599 12.303 2.924
-12.598 12.297 2.9170001
-12.595 12.28 2.9189999
-12.594 12.274 2.9119999
-12.593 12.269 2.904
-12.592 12.259 2.901
-12.59 12.249 2.8970001
-12.589 12.24 2.8929999
-12.588 12.238 2.882
-12.583 12.206 2.8970001
-12.584 12.208 2.8829999
-12.578 12.175 2.898
-12.576 12.161 2.8970001
-12.468 11.481 2.941
-12.471 11.495 2.918
-12.478 11.538 2.8759999
-12.482 11.564 2.845
-12.484 11.577 2.825
-12.489 11.61 2.789
-12.487 11.597 2.7869999
-12.491 11.615 2.7620001
-12.49 11.614 2.75
-12.491 11.617 2.737
-12.492 11.624 2.72
-12.492 11.622 2.7090001
-12.493 11.628 2.6930001
-12.493 11.627 2.6819999
-12.494 11.63 2.668
-12.494 11.633 2.654
-12.493 11.627 2.6459999
-12.495 11.639 2.6270001
-12.496 11.646 2.6110001
-12.494 11.632 2.608
-12.496 11.644 2.589
-12.497 11.647 2.575
-12.498 11.651 2.5599999
-12.497 11.645 2.553
-12.497 11.645 2.5409999
-12.498 11.651 2.526
-12.497 11.642 2.5209999
-12.495 11.632 2.5150001
-12.496 11.638 2.5
-12.497 11.643 2.4849999
-12.496 11.634 2.48
-12.497 11.641 2.464
-12.494 11.623 2.464
-12.603 12.214 0.54400003
-12.599 12.193 0.542
-12.592 12.149 0.54500002
-12.597 12.18 0.52999997
-12.605 12.23 0.50999999
-12.608 12.247 0.498
-12.607 12.241 0.49200001
-12.607 12.239 0.48500001
-12.61 12.257 0.47400001
-12.614 12.284 0.46000001
-12.614 12.283 0.45300001
-12.614 12.281 0.44600001
-12.615 12.284 0.43799999
-12.612 12.267 0.43399999
-12.612 12.266 0.42699999
-12.611 12.263 0.41999999
-12.612 12.266 0.412
-12.61 12.254 0.40700001
-12.612 12.264 0.39700001
-12.61 12.251 0.39300001
-12.612 12.269 0.38100001
-12.615 12.282 0.37099999
-12.612 12.267 0.36700001
-12.614 12.277 0.35800001
-12.612 12.265 0.35299999
-12.612 12.264 0.345
-12.613 12.272 0.336
-12.613 12.269 0.33000001
-12.613 12.267 0.322
-12.614 12.278 0.31299999
-12.614 12.275 0.30599999
-12.612 12.263 0.301
-12.613 12.267 0.29300001
-12.612 12.264 0.28600001
-12.615 12.28 0.27599999
-12.61 12.247 0.27500001
-12.611 12.252 0.266
-12.611 12.251 0.259
-12.612 12.259 0.25
-12.613 12.263 0.242
-12.613 12.263 0.235
-12.613 12.263 0.228
-12.614 12.269 0.219
-12.614 12.267 0.212
-12.615 12.273 0.204
-12.596 12.335 2.9809999
-12.597 12.343 2.9630001
-12.597 12.338 2.954
-12.596 12.335 2.9449999
-12.596 12.331 2.937
-12.597 12.336 2.9200001
-12.595 12.327 2.9170001
-12.591 12.299 2.927
-12.591 12.3 2.915
-12.592 12.305 2.8989999
-12.59 12.291 2.8989999
-12.588 12.281 2.895
-12.587 12.275 2.888
-12.583 12.251 2.8959999
-12.583 12.25 2.885
-12.581 12.235 2.8859999
-12.579 12.225 2.881
-12.578 12.216 2.8770001
-12.574 12.195 2.882
-12.571 12.176 2.885
-12.568 12.158 2.8889999
-12.561 12.115 2.9100001
-12.456 11.462 2.9549999
-12.461 11.493 2.921
-12.466 11.523 2.8870001
-12.474 11.57 2.8429999
-12.479 11.597 2.812
-12.482 11.617 2.7850001
-12.484 11.626 2.767
-12.486 11.637 2.7479999
-12.486 11.64 2.734
-12.487 11.646 2.7179999
-12.485 11.633 2.714
-12.487 11.643 2.6960001
-12.488 11.65 2.6789999
-12.488 11.649 2.668
-12.488 11.648 2.6570001
-12.489 11.655 2.641
-12.491 11.666 2.622
-12.49 11.661 2.6129999
-12.49 11.66 2.602
-12.49 11.658 2.592
-12.492 11.666 2.575
-12.491 11.665 2.5639999
-12.492 11.668 2.5510001
-12.493 11.671 2.5369999
-12.492 11.667 2.5280001
-12.493 11.671 2.5139999
-12.492 11.664 2.507
-12.493 11.673 2.49
-12.492 11.666 2.483
-12.492 11.661 2.4749999
-12.492 11.66 2.464
-12.492 11.663 2.451
-12.491 11.653 2.4460001
-12.49 11.647 2.438
-12.596 12.222 0.55000001
-12.582 12.135 0.56400001
-12.585 12.149 0.55299997
-12.592 12.192 0.53399998
-12.598 12.233 0.51700002
-12.597 12.226 0.51099998
-12.601 12.248 0.498
-12.602 12.252 0.49000001
-12.604 12.264 0.47999999
-12.603 12.263 0.47299999
-12.606 12.276 0.46200001
-12.607 12.284 0.45300001
-12.605 12.269 0.449
-12.604 12.264 0.442
-12.603 12.256 0.43700001
-12.604 12.264 0.42699999
-12.605 12.267 0.419
-12.603 12.254 0.414
-12.605 12.271 0.403
-12.606 12.273 0.396
-12.605 12.265 0.38999999
-12.606 12.275 0.38
-12.606 12.272 0.37400001
-12.604 12.262 0.368
-12.604 12.261 0.361
-12.605 12.266 0.352
-12.605 12.268 0.345
-12.606 12.269 0.33700001
-12.606 12.272 0.329
-12.606 12.268 0.322
-12.605 12.266 0.315
-12.604 12.256 0.31
-12.608 12.284 0.29699999
-12.608 12.28 0.29100001
-12.608 12.282 0.28299999
-12.607 12.273 0.27700001
-12.605 12.264 0.27200001
-12.605 12.263 0.264
-12.604 12.257 0.25799999
-12.607 12.27 0.248
-12.605 12.261 0.243
-12.604 12.253 0.237
-12.605 12.262 0.228
-12.605 12.259 0.221
-12.592 12.357 2.9749999
-12.59 12.34 2.9779999
-12.591 12.346 2.961
-12.59 12.343 2.951
-12.591 12.345 2.938
-12.59 12.343 2.927
-12.589 12.331 2.925
-12.589 12.333 2.9119999
-12.587 12.321 2.9100001
-12.585 12.31 2.908
-12.585 12.307 2.8989999
-12.585 12.308 2.8859999
-12.58 12.278 2.898
-12.58 12.28 2.885
-12.58 12.279 2.8740001
-12.578 12.266 2.8729999
-12.577 12.256 2.869
-12.574 12.238 2.872
-12.572 12.225 2.8710001
-12.571 12.224 2.8599999
-12.568 12.205 2.8629999
-12.566 12.19 2.8640001
-12.564 12.177 2.862
-12.561 12.159 2.865
-12.444 11.444 2.9690001
-12.45 11.478 2.9319999
-12.459 11.529 2.8840001
-12.462 11.551 2.8570001
-12.47 11.594 2.8139999
-12.475 11.625 2.7809999
-12.478 11.644 2.756
-12.48 11.654 2.737
-12.483 11.673 2.7119999
-12.484 11.676 2.698
-12.483 11.671 2.6900001
-12.481 11.661 2.6849999
-12.483 11.672 2.665
-12.485 11.679 2.6489999
-12.486 11.686 2.632
-12.484 11.677 2.6270001
-12.484 11.676 2.6159999
-12.486 11.687 2.5969999
-12.486 11.686 2.586
-12.486 11.685 2.575
-12.487 11.688 2.562
-12.488 11.695 2.5450001
-12.487 11.686 2.54
-12.489 11.697 2.5209999
-12.487 11.69 2.5139999
-12.487 11.689 2.5039999
-12.487 11.687 2.493
-12.487 11.686 2.483
-12.487 11.684 2.473
-12.487 11.683 2.4619999
-12.487 11.686 2.4489999
-12.487 11.681 2.4400001
-12.487 11.684 2.428
-12.488 11.687 2.414
-12.485 11.672 2.4119999
-12.587 12.209 0.56099999
-12.579 12.161 0.565
-12.578 12.153 0.55900002
-12.588 12.213 0.537
-12.592 12.24 0.523
-12.591 12.234 0.51700002
-12.593 12.246 0.50700003
-12.596 12.259 0.49599999
-12.595 12.258 0.48899999
-12.597 12.269 0.479
-12.599 12.278 0.46900001
-12.599 12.281 0.461
-12.6 12.282 0.45300001
-12.597 12.266 0.44999999
-12.597 12.264 0.44299999
-12.597 12.265 0.435
-12.597 12.263 0.428
-12.596 12.259 0.421
-12.598 12.269 0.412
-12.596 12.258 0.40599999
-12.596 12.254 0.40000001
-12.598 12.27 0.389
-12.598 12.27 0.382
-12.599 12.272 0.37400001
-12.597 12.263 0.368
-12.598 12.267 0.36000001
-12.598 12.264 0.35299999
-12.597 12.261 0.34599999
-12.597 12.262 0.33899999
-12.599 12.271 0.33000001
-12.598 12.264 0.32300001
-12.6 12.278 0.31299999
-12.598 12.267 0.308
-12.598 12.266 0.301
-12.599 12.269 0.29300001
-12.598 12.263 0.287
-12.595 12.247 0.28200001
-12.598 12.26 0.27200001
-12.598 12.263 0.26499999
-12.599 12.271 0.25600001
-12.598 12.261 0.25
-12.598 12.26 0.243
-12.599 12.268 0.234
-12.598 12.258 0.229
-12.582 12.341 2.9779999
-12.583 12.347 2.961
-12.583 12.345 2.951
-12.583 12.343 2.9400001
-12.584 12.352 2.921
-12.585 12.353 2.908
-12.583 12.34 2.9070001
-12.581 12.331 2.902
-12.578 12.315 2.904
-12.579 12.32 2.888
-12.576 12.302 2.891
-12.577 12.307 2.8759999
-12.576 12.297 2.872
-12.574 12.288 2.868
-12.572 12.274 2.8670001
-12.571 12.266 2.862
-12.569 12.256 2.858
-12.568 12.25 2.852
-12.565 12.229 2.8570001
-12.562 12.211 2.859
-12.561 12.206 2.852
-12.56 12.2 2.845
-12.553 12.156 2.868
-12.557 12.18 2.8369999
-12.548 12.13 2.865
-12.431 11.422 2.9849999
-12.44 11.471 2.938
-12.445 11.502 2.904
-12.451 11.533 2.8699999
-12.46 11.587 2.8199999
-12.464 11.614 2.789
-12.47 11.645 2.756
-12.474 11.669 2.727
-12.476 11.683 2.7060001
-12.478 11.694 2.687
-12.479 11.701 2.671
-12.479 11.695 2.6619999
-12.478 11.69 2.654
-12.478 11.693 2.641
-12.479 11.696 2.6270001
-12.481 11.707 2.608
-12.484 11.722 2.586
-12.481 11.705 2.586
-12.481 11.704 2.575
-12.482 11.711 2.559
-12.483 11.714 2.5450001
-12.482 11.712 2.5350001
-12.484 11.72 2.5190001
-12.484 11.719 2.5079999
-12.484 11.722 2.4949999
-12.484 11.717 2.487
-12.485 11.728 2.4679999
-12.484 11.72 2.4619999
-12.484 11.716 2.4530001
-12.484 11.717 2.441
-12.482 11.708 2.4360001
-12.484 11.717 2.4189999
-12.482 11.702 2.4170001
-12.479 11.684 2.4170001
-12.481 11.696 2.398
-12.481 11.698 2.3859999
-12.576 12.187 0.57499999
-12.567 12.134 0.57999998
-12.575 12.18 0.56099999
-12.579 12.206 0.54699999
-12.585 12.243 0.52999997
-12.586 12.246 0.52200001
-12.586 12.249 0.514
-12.586 12.248 0.50700003
-12.591 12.275 0.493
-12.588 12.259 0.48899999
-12.59 12.267 0.47999999
-12.592 12.283 0.46799999
-12.589 12.266 0.465
-12.589 12.261 0.458
-12.588 12.259 0.45100001
-12.588 12.253 0.44499999
-12.59 12.268 0.43399999
-12.59 12.269 0.42699999
-12.591 12.271 0.419
-12.587 12.249 0.41600001
-12.591 12.269 0.40400001
-12.59 12.262 0.398
-12.591 12.269 0.389
-12.587 12.248 0.38600001
-12.589 12.255 0.377
-12.591 12.269 0.36700001
-12.591 12.267 0.36000001
-12.59 12.262 0.354
-12.592 12.272 0.34400001
-12.589 12.256 0.34
-12.592 12.276 0.329
-12.591 12.267 0.32300001
-12.592 12.274 0.31400001
-12.593 12.281 0.30599999
-12.594 12.282 0.29800001
-12.591 12.267 0.29300001
-12.59 12.259 0.28799999
-12.591 12.268 0.27900001
-12.588 12.245 0.27500001
-12.592 12.272 0.26300001
-12.593 12.278 0.255
-12.59 12.256 0.25099999
-12.591 12.261 0.243
-12.593 12.274 0.233
-12.578 12.361 2.9860001
-12.576 12.348 2.9860001
-12.576 12.346 2.9749999
-12.574 12.337 2.97
-12.578 12.357 2.941
-12.574 12.336 2.947
-12.575 12.336 2.9349999
-12.576 12.343 2.9170001
-12.576 12.341 2.9070001
-12.575 12.336 2.8989999
-12.575 12.335 2.888
-12.572 12.321 2.888
-12.574 12.333 2.8670001
-12.57 12.306 2.8770001
-12.57 12.307 2.865
-12.57 12.307 2.852
-12.566 12.283 2.8599999
-12.563 12.265 2.8629999
-12.562 12.26 2.8559999
-12.561 12.251 2.852
-12.558 12.237 2.8510001
-12.558 12.235 2.8410001
-12.558 12.234 2.8299999
-12.555 12.217 2.8310001
-12.552 12.199 2.8340001
-12.546 12.164 2.8499999
-12.544 12.148 2.8510001
-12.432 11.477 2.9349999
-12.435 11.495 2.9100001
-12.443 11.54 2.8659999
-12.448 11.568 2.8340001
-12.453 11.595 2.803
-12.458 11.628 2.7690001
-12.466 11.673 2.7260001
-12.472 11.705 2.6919999
-12.471 11.701 2.6830001
-12.473 11.714 2.6619999
-12.477 11.732 2.6389999
-12.475 11.72 2.635
-12.474 11.719 2.6240001
-12.475 11.722 2.6099999
-12.475 11.721 2.5999999
-12.477 11.732 2.5799999
-12.475 11.718 2.5780001
-12.477 11.733 2.5569999
-12.476 11.724 2.5510001
-12.477 11.731 2.5350001
-12.477 11.73 2.5239999
-12.478 11.733 2.5109999
-12.478 11.732 2.5009999
-12.479 11.739 2.484
-12.482 11.755 2.4630001
-12.48 11.746 2.4579999
-12.479 11.741 2.45
-12.478 11.731 2.444
-12.479 11.739 2.428
-12.478 11.734 2.4200001
-12.478 11.733 2.4089999
-12.477 11.724 2.404
-12.477 11.725 2.392
-12.478 11.731 2.3770001
-12.478 11.726 2.369
-12.48 11.738 2.3510001
-12.571 12.204 0.57800001
-12.561 12.146 0.58499998
-12.565 12.169 0.57200003
-12.573 12.214 0.55299997
-12.577 12.236 0.54000002
-12.579 12.249 0.52899998
-12.58 12.257 0.51999998
-12.58 12.254 0.51300001
-12.582 12.268 0.50199997
-12.584 12.276 0.493
-12.584 12.279 0.484
-12.584 12.278 0.477
-12.583 12.272 0.47099999
-12.581 12.256 0.46700001
-12.579 12.245 0.46200001
-12.581 12.258 0.45199999
-12.583 12.269 0.442
-12.581 12.26 0.43599999
-12.582 12.266 0.428
-12.582 12.261 0.421
-12.582 12.263 0.41299999
-12.583 12.268 0.405
-12.584 12.271 0.39700001
-12.583 12.265 0.38999999
-12.579 12.244 0.38699999
-12.586 12.283 0.37200001
-12.585 12.279 0.36500001
-12.582 12.256 0.36199999
-12.583 12.267 0.35299999
-12.583 12.263 0.34599999
-12.583 12.265 0.338
-12.582 12.257 0.333
-12.581 12.25 0.32600001
-12.583 12.261 0.317
-12.58 12.245 0.31299999
-12.583 12.261 0.30199999
-12.582 12.257 0.296
-12.583 12.262 0.287
-12.582 12.254 0.28099999
-12.583 12.262 0.27200001
-12.581 12.25 0.26699999
-12.584 12.265 0.257
-12.582 12.256 0.25099999
-12.582 12.254 0.244
-12.569 12.347 2.9749999
-12.568 12.343 2.9660001
-12.567 12.339 2.957
-12.57 12.352 2.934
-12.569 12.347 2.927
-12.567 12.337 2.9230001
-12.567 12.337 2.9119999
-12.568 12.341 2.8970001
-12.566 12.331 2.8929999
-12.566 12.329 2.8829999
-12.564 12.317 2.881
-12.564 12.315 2.8699999
-12.563 12.312 2.8610001
-12.561 12.299 2.8610001
-12.561 12.295 2.852
-12.56 12.29 2.8440001
-12.559 12.285 2.8369999
-12.556 12.264 2.842
-12.555 12.259 2.8340001
-12.554 12.253 2.8269999
-12.551 12.239 2.8269999
-12.548 12.218 2.832
-12.549 12.221 2.8180001
-12.547 12.21 2.8139999
-12.542 12.185 2.823
-12.537 12.152 2.8369999
-12.537 12.154 2.8239999
-12.417 11.442 2.96
-12.425 11.488 2.915
-12.431 11.523 2.878
-12.437 11.558 2.842
-12.445 11.605 2.7980001
-12.451 11.636 2.7639999
-12.456 11.666 2.7309999
-12.462 11.702 2.6949999
-12.467 11.728 2.6659999
-12.466 11.724 2.6570001
-12.471 11.747 2.6289999
-12.47 11.746 2.618
-12.47 11.745 2.6070001
-12.469 11.74 2.599
-12.469 11.739 2.589
-12.472 11.753 2.5669999
-12.472 11.752 2.5569999
-12.472 11.751 2.546
-12.474 11.762 2.527
-12.474 11.761 2.517
-12.475 11.768 2.5009999
-12.474 11.763 2.493
-12.474 11.762 2.4820001
-12.473 11.757 2.474
-12.473 11.756 2.4630001
-12.475 11.764 2.447
-12.476 11.771 2.431
-12.475 11.766 2.4230001
-12.476 11.771 2.4089999
-12.476 11.772 2.3970001
-12.474 11.756 2.3959999
-12.475 11.759 2.3829999
-12.475 11.763 2.3699999
-12.476 11.769 2.355
-12.474 11.757 2.3510001
-12.472 11.742 2.349
-12.473 11.746 2.336
-12.56 12.186 0.59100002
-12.554 12.151 0.59200001
-12.56 12.185 0.57599998
-12.568 12.23 0.55699998
-12.57 12.244 0.546
-12.569 12.233 0.54100001
-12.574 12.265 0.52600002
-12.571 12.249 0.52200001
-12.574 12.266 0.50999999
-12.574 12.264 0.50300002
-12.576 12.277 0.493
-12.574 12.262 0.48899999
-12.573 12.256 0.48300001
-12.576 12.271 0.47099999
-12.573 12.256 0.46700001
-12.573 12.254 0.46000001
-12.575 12.267 0.44999999
-12.575 12.265 0.44299999
-12.576 12.268 0.435
-12.576 12.269 0.42699999
-12.574 12.256 0.42199999
-12.574 12.258 0.414
-12.574 12.259 0.40700001
-12.575 12.261 0.39899999
-12.574 12.257 0.39199999
-12.577 12.272 0.382
-12.576 12.271 0.37400001
-12.575 12.259 0.36899999
-12.576 12.269 0.36000001
-12.576 12.27 0.352
-12.576 12.269 0.345
-12.575 12.262 0.33899999
-12.575 12.263 0.33199999
-12.574 12.257 0.32499999
-12.575 12.26 0.317
-12.576 12.266 0.30899999
-12.574 12.254 0.30399999
-12.575 12.26 0.29499999
-12.579 12.279 0.28400001
-12.576 12.264 0.28
-12.578 12.272 0.271
-12.577 12.268 0.264
-12.575 12.257 0.259
-12.561 12.348 2.9749999
-12.562 12.349 2.9619999
-12.562 12.352 2.948
-12.559 12.336 2.95
-12.558 12.329 2.9430001
-12.561 12.341 2.921
-12.561 12.34 2.9100001
-12.56 12.339 2.8989999
-12.561 12.341 2.8859999
-12.559 12.33 2.882
-12.558 12.322 2.878
-12.558 12.323 2.865
-12.558 12.324 2.852
-12.555 12.304 2.8570001
-12.554 12.299 2.849
-12.555 12.303 2.8340001
-12.552 12.29 2.8340001
-12.55 12.276 2.8329999
-12.549 12.267 2.829
-12.547 12.257 2.825
-12.545 12.248 2.8210001
-12.545 12.242 2.813
-12.545 12.244 2.8
-12.54 12.216 2.8110001
-12.54 12.214 2.8010001
-12.537 12.196 2.8039999
-12.531 12.164 2.8169999
-12.532 12.17 2.8010001
-12.526 12.133 2.8180001
-12.405 11.424 2.974
-12.413 11.47 2.9289999
-12.419 11.504 2.8929999
-12.427 11.547 2.8510001
-12.433 11.582 2.8139999
-12.437 11.605 2.786
-12.445 11.652 2.7420001
-12.453 11.695 2.701
-12.457 11.716 2.675
-12.464 11.758 2.6340001
-12.464 11.757 2.6229999
-12.467 11.773 2.6010001
-12.467 11.774 2.589
-12.466 11.769 2.5810001
-12.466 11.768 2.5699999
-12.466 11.767 2.559
-12.466 11.765 2.549
-12.468 11.776 2.53
-12.469 11.784 2.5139999
-12.469 11.783 2.503
-12.47 11.788 2.4890001
-12.47 11.785 2.4790001
-12.471 11.793 2.4630001
-12.47 11.783 2.4579999
-12.47 11.783 2.447
-12.471 11.79 2.431
-12.469 11.777 2.428
-12.471 11.791 2.408
-12.472 11.792 2.3959999
-12.472 11.791 2.3859999
-12.471 11.791 2.375
-12.47 11.782 2.3699999
-12.471 11.785 2.3570001
-12.47 11.78 2.349
-12.471 11.783 2.336
-12.468 11.771 2.3329999
-12.47 11.78 2.316
-12.47 11.778 2.306
-12.469 11.773 2.299
-12.549 12.162 0.60500002
-12.549 12.16 0.59799999
-12.556 12.204 0.579
-12.562 12.239 0.56300002
-12.56 12.228 0.55800003
-12.562 12.236 0.54799998
-12.564 12.248 0.537
-12.566 12.261 0.52700001
-12.566 12.259 0.51999998
-12.568 12.272 0.509
-12.569 12.274 0.50099999
