ply
format ascii 1.0
comment PCL generated
element vertex 1829
property float x
property float y
property float z
element camera 0
property float view_px
property float view_py
property float view_pz
property float x_axisx
property float x_axisy
property float x_axisz
property float y_axisx
property float y_axisy
property float y_axisz
property float z_axisx
property float z_axisy
property float z_axisz
property float focal
property float scalex
property float scaley
property float centerx
property float centery
property int viewportx
property int viewporty
property float k1
property float k2
end_header
6.2399998 2.905 2.5610001
6.2379999 2.908 2.5469999
6.2379999 2.908 2.5339999
6.2340002 2.911 2.5190001
6.2540002 2.8929999 2.516
6.2410002 2.905 2.4960001
6.256 2.892 2.4909999
6.263 2.885 2.4820001
6.0539999 3.102 0.96799999
6.0650001 3.0910001 0.95899999
6.0580001 3.098 0.94700003
6.0380001 3.1170001 0.93099999
6.0380001 3.1170001 0.92000002
6.0219998 3.132 0.90600002
6.0240002 3.131 0.89499998
6.0029998 3.1500001 0.88
5.994 3.158 0.86699998
5.9809999 3.171 0.85399997
5.9860001 3.1670001 0.84399998
5.9840002 3.1689999 0.833
5.9559999 3.1949999 0.81599998
5.9460001 3.204 0.80400002
5.9369998 3.214 0.79100001
5.9299998 3.2190001 0.77899998
5.9349999 3.2149999 0.76899999
5.9109998 3.2379999 0.75400001
5.9050002 3.244 0.74299997
5.895 3.253 0.73000002
5.9060001 3.243 0.72100002
5.9000001 3.2490001 0.70999998
5.9120002 3.2379999 0.70099998
5.9060001 3.244 0.69
5.9169998 3.233 0.68099999
5.9120002 3.2379999 0.67000002
5.9089999 3.2409999 0.65799999
5.9180002 3.233 0.64899999
5.9109998 3.2390001 0.63800001
5.9190001 3.2320001 0.62800002
5.9060001 3.2449999 0.616
5.9180002 3.234 0.60699999
5.9120002 3.24 0.59500003
5.9200001 3.2320001 0.58600003
5.9239998 3.2279999 0.57599998
5.921 3.2320001 0.565
5.914 3.2379999 0.55400002
5.9200001 3.233 0.54400003
5.9239998 3.2290001 0.53399998
5.9260001 3.2279999 0.523
5.9439998 3.211 0.51499999
6.177 2.997 0.222
6.1750002 2.9990001 0.211
6.2509999 2.928 0.148
6.2680001 2.9130001 0.13699999
6.2620001 2.9189999 0.126
6.263 2.918 0.114
6.256 2.925 0.103
6.256 2.925 0.092
6.2519999 2.9289999 0.079999998
6.2639999 2.918 0.068999998
6.256 2.9260001 0.057999998
6.2529998 2.928 0.046999998
6.2529998 2.928 0.035
6.2540002 2.928 0.024
6.2719998 2.911 0.013
6.3569999 2.8080001 2.8399999
6.3189998 2.8440001 2.803
6.3080001 2.8540001 2.783
6.2789998 2.882 2.7520001
6.257 2.9030001 2.7260001
6.244 2.914 2.7049999
6.2329998 2.925 2.6849999
6.243 2.9159999 2.678
6.2329998 2.925 2.6589999
6.23 2.928 2.6440001
6.2340002 2.925 2.6329999
6.2340002 2.925 2.619
6.237 2.9219999 2.608
6.2350001 2.925 2.5940001
6.2379999 2.9219999 2.582
6.2420001 2.9189999 2.5710001
6.2379999 2.9219999 2.556
6.2449999 2.9159999 2.5469999
6.2379999 2.9219999 2.53
6.2449999 2.9159999 2.5209999
6.2519999 2.9100001 2.5109999
6.2420001 2.9200001 2.493
6.2550001 2.9070001 2.487
6.257 2.9059999 2.4749999
6.2540002 2.9089999 2.46
6.0710001 3.0999999 0.99299997
6.0799999 3.092 0.98299998
6.0809999 3.0910001 0.97299999
6.0710001 3.0999999 0.95899999
6.0580001 3.1129999 0.94499999
6.0419998 3.128 0.93099999
6.0370002 3.1329999 0.91900003
6.0300002 3.1400001 0.90600002
6.0089998 3.1589999 0.89099997
6.0110002 3.158 0.88
6.0079999 3.1600001 0.86900002
5.9879999 3.1789999 0.85399997
5.9679999 3.198 0.83899999
5.9619999 3.204 0.82700002
5.9629998 3.2030001 0.81599998
5.9460001 3.2190001 0.80199999
5.9439998 3.221 0.79100001
5.9380002 3.227 0.77899998
5.9349999 3.23 0.76800001
5.9219999 3.2420001 0.755
5.9190001 3.2449999 0.74400002
5.9229999 3.2420001 0.73400003
5.9239998 3.24 0.72399998
5.9320002 3.233 0.71399999
5.9219999 3.243 0.70200002
5.9169998 3.247 0.69099998
5.928 3.237 0.68199998
5.9190001 3.2460001 0.67000002
5.928 3.2379999 0.66000003
5.928 3.2379999 0.64999998
5.9359999 3.23 0.64099997
5.9190001 3.2460001 0.62699997
5.9239998 3.2420001 0.61799997
5.9289999 3.2379999 0.60799998
5.9429998 3.2249999 0.59899998
5.9359999 3.2309999 0.588
5.9349999 3.2320001 0.57700002
5.934 3.233 0.56599998
5.9369998 3.2309999 0.55599999
5.9429998 3.2249999 0.546
5.9349999 3.233 0.53399998
6.1960001 2.994 0.223
6.1900001 3 0.212
6.2459998 2.948 0.17
6.2709999 2.925 0.16
6.2670002 2.9289999 0.148
6.2729998 2.9230001 0.13699999
6.27 2.927 0.126
6.2480001 2.947 0.114
6.2589998 2.937 0.103
6.2519999 2.9430001 0.090999998
6.2529998 2.9430001 0.079999998
6.257 2.9400001 0.068999998
6.2490001 2.947 0.057999998
6.2610002 2.9360001 0.046999998
6.2639999 2.9330001 0.035
6.2459998 2.95 0.024
6.2579999 2.9400001 0.013
6.3610001 2.8199999 2.8239999
6.3249998 2.8529999 2.789
6.3099999 2.868 2.766
6.2750001 2.901 2.7320001
6.257 2.918 2.7079999
6.2410002 2.9330001 2.6849999
6.2410002 2.9330001 2.6719999
6.2280002 2.9460001 2.651
6.2309999 2.9430001 2.6400001
6.2350001 2.9400001 2.6289999
6.2319999 2.9419999 2.6140001
6.2360001 2.9389999 2.6029999
6.2360001 2.9389999 2.5899999
6.2290001 2.9460001 2.573
6.2459998 2.9300001 2.569
6.2360001 2.9400001 2.5510001
6.2360001 2.9400001 2.5380001
6.243 2.934 2.5280001
6.243 2.934 2.5150001
6.2360001 2.941 2.4979999
6.2490001 2.928 2.493
6.2459998 2.9319999 2.4779999
6.2529998 2.925 2.4679999
6.256 2.9230001 2.457
6.2649999 2.914 2.4489999
6.0970001 3.0899999 1.0190001
6.0900002 3.0969999 1.007
6.0869999 3.0999999 0.995
6.0869999 3.0999999 0.98299998
6.0809999 3.1059999 0.97100002
6.0599999 3.125 0.95499998
6.0469999 3.1370001 0.94099998
6.0450001 3.1389999 0.93000001
6.0279999 3.155 0.91500002
6.0219998 3.161 0.903
6.02 3.1630001 0.89200002
6.0079999 3.175 0.87800002
5.9980001 3.184 0.86500001
5.9920001 3.1900001 0.85299999
5.9860001 3.1960001 0.84100002
5.9689999 3.211 0.82700002
5.967 3.214 0.81599998
5.9499998 3.23 0.80199999
5.9349999 3.244 0.78799999
5.9450002 3.2349999 0.77899998
5.9390001 3.24 0.76800001
5.9320002 3.247 0.75599998
5.9400001 3.2390001 0.74699998
5.941 3.2379999 0.736
5.9310002 3.2479999 0.72399998
5.9390001 3.2409999 0.71399999
5.9439998 3.2360001 0.70499998
5.927 3.2520001 0.69099998
5.9439998 3.237 0.68300003
5.9450002 3.2360001 0.67299998
5.9380002 3.2420001 0.66100001
5.9359999 3.2449999 0.64999998
5.9320002 3.2479999 0.639
5.9450002 3.237 0.63
5.9489999 3.233 0.62
5.947 3.2349999 0.60900003
5.9510002 3.2309999 0.59899998
5.9450002 3.237 0.588
5.9569998 3.2260001 0.579
5.947 3.2360001 0.56699997
5.9580002 3.2260001 0.55800003
6.2350001 2.973 0.22499999
6.2080002 2.9979999 0.212
6.2540002 2.9560001 0.18099999
6.2670002 2.944 0.17
6.2649999 2.9449999 0.15899999
6.2579999 2.9519999 0.148
6.2540002 2.9560001 0.13600001
6.2519999 2.9590001 0.125
6.2480001 2.9619999 0.114
6.2449999 2.9649999 0.102
6.2639999 2.948 0.092
6.2600002 2.951 0.079999998
6.2600002 2.951 0.068999998
6.2639999 2.948 0.057999998
6.257 2.954 0.046999998
6.2540002 2.9579999 0.035
6.2610002 2.951 0.024
6.2540002 2.9579999 0.013
6.3559999 2.8399999 2.803
6.3439999 2.852 2.7820001
6.2979999 2.895 2.7409999
6.2849998 2.908 2.72
6.2649999 2.927 2.6949999
6.2589998 2.9319999 2.678
6.2350001 2.954 2.651
6.2329998 2.957 2.6370001
6.23 2.96 2.622
6.2399998 2.951 2.6140001
6.2470002 2.944 2.605
6.237 2.954 2.586
6.2470002 2.9449999 2.579
6.244 2.948 2.5639999
6.2459998 2.9460001 2.552
6.2470002 2.9449999 2.54
6.25 2.9419999 2.5280001
6.2389998 2.9519999 2.5090001
6.2399998 2.9519999 2.497
6.25 2.9430001 2.4890001
6.243 2.9489999 2.473
6.2399998 2.9530001 2.4579999
6.257 2.937 2.454
6.2550001 2.9389999 2.4400001
6.2649999 2.9300001 2.4319999
6.105 3.098 1.031
6.1129999 3.0899999 1.021
6.1059999 3.096 1.0089999
6.0890002 3.1129999 0.99400002
6.0869999 3.115 0.98199999
6.0739999 3.1270001 0.96799999
6.0679998 3.1329999 0.95599997
6.0580001 3.142 0.94199997
6.0419998 3.1570001 0.92799997
6.0430002 3.1559999 0.917
6.033 3.165 0.90399998
6.0159998 3.181 0.88999999
6.0149999 3.1830001 0.87800002
6.0019999 3.1949999 0.86500001
5.987 3.2090001 0.85100001
5.9749999 3.22 0.838
5.9689999 3.2260001 0.82599998
5.9629998 3.2320001 0.81400001
5.9569998 3.237 0.80199999
5.9580002 3.237 0.79100001
5.9549999 3.2390001 0.77999997
5.9450002 3.2490001 0.76800001
5.961 3.234 0.75999999
5.9580002 3.237 0.74900001
5.9530001 3.2420001 0.73699999
5.9530001 3.2420001 0.72600001
5.9619999 3.234 0.71700001
5.9520001 3.243 0.70499998
5.9569998 3.2390001 0.69499999
5.9689999 3.2279999 0.68599999
5.9520001 3.244 0.67299998
5.9559999 3.24 0.66299999
5.9640002 3.2320001 0.65399998
5.9510002 3.2449999 0.64099997
5.9580002 3.2379999 0.63099998
5.9530001 3.244 0.62
5.9650002 3.233 0.611
5.9510002 3.2460001 0.59799999
5.9629998 3.2349999 0.58999997
5.9720001 3.2260001 0.57999998
5.9710002 3.227 0.56900001
6.2550001 2.97 0.226
6.2410002 2.9820001 0.214
6.263 2.9619999 0.193
6.2670002 2.9590001 0.18099999
6.2649999 2.961 0.17
6.2550001 2.971 0.15800001
6.2589998 2.967 0.147
6.2550001 2.971 0.13600001
6.256 2.97 0.125
6.2600002 2.967 0.114
6.2670002 2.96 0.103
6.2639999 2.9630001 0.092
6.2529998 2.973 0.079999998
6.2639999 2.9630001 0.068999998
6.2610002 2.9660001 0.057999998
6.2610002 2.9660001 0.046999998
6.2690001 2.9590001 0.035999998
6.2610002 2.9660001 0.024
6.2649999 2.9630001 0.013
6.3660002 2.8469999 2.79
6.329 2.882 2.7550001
6.3060002 2.904 2.7279999
6.289 2.9189999 2.7049999
6.2600002 2.947 2.674
6.2459998 2.9590001 2.6530001
6.2340002 2.971 2.6329999
6.237 2.9679999 2.622
6.237 2.9679999 2.609
6.237 2.9679999 2.596
6.243 2.9630001 2.586
6.2410002 2.9649999 2.5710001
6.237 2.9690001 2.556
6.237 2.9690001 2.543
6.2329998 2.973 2.5280001
6.237 2.9690001 2.517
6.244 2.9630001 2.5079999
6.244 2.9630001 2.4949999
6.2509999 2.957 2.4860001
6.2509999 2.957 2.473
6.244 2.964 2.4560001
6.244 2.964 2.4430001
6.25 2.9579999 2.434
6.25 2.9590001 2.421
6.2859998 2.9260001 2.4260001
6.2420001 2.9660001 2.391
6.1420002 3.0780001 1.0599999
6.131 3.0880001 1.0470001
6.125 3.0940001 1.034
6.1040001 3.1129999 1.018
6.1059999 3.112 1.007
6.0999999 3.1170001 0.995
6.0760002 3.1400001 0.97799999
6.0809999 3.135 0.96799999
6.072 3.1440001 0.95499998
6.0580001 3.1559999 0.94099998
6.0419998 3.1719999 0.926
6.0359998 3.178 0.91399997
6.0300002 3.1830001 0.90200001
6.0209999 3.1919999 0.889
6.0079999 3.204 0.875
6.0019999 3.21 0.86299998
5.9959998 3.2149999 0.85100001
5.9819999 3.2279999 0.838
5.9689999 3.24 0.824
5.9629998 3.2460001 0.81300002
5.9640002 3.2449999 0.80199999
5.9720001 3.2379999 0.79299998
5.9580002 3.2509999 0.77999997
5.973 3.237 0.77200001
5.967 3.243 0.75999999
5.973 3.2379999 0.75
5.974 3.237 0.74000001
5.9720001 3.2390001 0.72899997
5.9619999 3.2479999 0.71600002
5.9699998 3.2409999 0.70700002
5.9710002 3.24 0.69599998
5.9749999 3.2360001 0.68599999
5.9699998 3.2420001 0.67500001
5.9710002 3.2409999 0.66399997
5.9780002 3.234 0.65499997
5.9840002 3.2290001 0.64499998
5.9809999 3.2320001 0.634
5.9809999 3.2320001 0.62300003
5.9790001 3.234 0.61199999
5.9910002 3.223 0.60299999
6.0009999 3.2130001 0.59399998
6.256 2.984 0.226
6.25 2.9890001 0.214
6.2659998 2.9749999 0.204
6.2649999 2.9760001 0.192
6.2729998 2.9690001 0.182
6.2550001 2.9860001 0.169
6.2550001 2.9860001 0.15800001
6.2659998 2.9749999 0.148
6.2589998 2.9820001 0.13600001
6.2690001 2.973 0.125
6.256 2.9849999 0.114
6.2529998 2.9879999 0.102
6.2600002 2.9809999 0.090999998
6.2459998 2.9949999 0.079999998
6.2459998 2.9949999 0.068999998
6.2459998 2.9949999 0.057
6.2719998 2.971 0.046999998
6.2620001 2.9809999 0.035
6.2620001 2.9809999 0.024
6.2690001 2.974 0.013
6.3629999 2.8659999 2.77
6.3400002 2.8870001 2.744
6.3099999 2.915 2.7130001
6.2870002 2.937 2.6860001
6.2709999 2.9519999 2.6630001
6.2410002 2.9790001 2.6329999
6.2509999 2.97 2.6259999
6.224 2.9949999 2.5969999
6.2350001 2.9860001 2.5899999
6.2350001 2.9860001 2.5769999
6.244 2.977 2.569
6.2350001 2.9860001 2.5510001
6.2379999 2.983 2.54
6.2420001 2.98 2.529
6.2420001 2.9809999 2.516
6.2350001 2.987 2.4990001
6.2449999 2.9779999 2.4909999
6.2540002 2.9690001 2.484
6.2449999 2.9790001 2.4649999
6.2509999 2.9719999 2.4560001
6.2579999 2.967 2.447
6.2480001 2.9760001 2.428
6.2410002 2.983 2.4119999
6.2480001 2.977 2.402
6.2680001 2.9579999 2.4000001
6.2600002 2.9660001 2.3829999
6.1490002 3.086 1.072
6.1350002 3.099 1.057
6.1360002 3.098 1.046
6.125 3.109 1.0319999
6.119 3.1140001 1.02
6.098 3.1329999 1.0039999
6.0960002 3.135 0.99199998
6.0900002 3.141 0.98000002
6.0809999 3.1500001 0.96700001
6.0679998 3.1619999 0.95300001
6.0580001 3.171 0.93900001
6.052 3.177 0.92699999
6.0430002 3.1860001 0.91399997
6.0370002 3.191 0.90200001
6.0240002 3.2030001 0.88800001
6.0040002 3.2219999 0.87300003
6.0009999 3.224 0.86199999
5.9809999 3.243 0.847
5.9889998 3.2360001 0.838
5.9720001 3.2509999 0.824
5.9809999 3.244 0.815
5.9819999 3.243 0.80400002
5.9850001 3.24 0.79400003
5.987 3.2379999 0.78399998
5.98 3.2449999 0.77200001
5.9829998 3.243 0.76200002
5.9840002 3.2420001 0.75099999
5.974 3.2509999 0.73900002
5.9829998 3.243 0.72899997
5.9759998 3.2490001 0.71799999
5.9850001 3.2420001 0.708
5.9920001 3.2349999 0.699
5.9829998 3.243 0.68699998
5.9840002 3.243 0.676
5.9780002 3.2490001 0.66399997
5.9970002 3.2309999 0.65700001
5.9910002 3.237 0.64499998
5.9920001 3.2360001 0.63499999
5.9959998 3.2320001 0.625
6.0019999 3.227 0.61500001
6.2719998 2.9790001 0.55299997
6.2709999 2.9820001 0.46200001
6.2540002 2.9979999 0.43799999
6.256 2.9960001 0.42699999
6.2639999 2.9890001 0.41600001
6.2649999 2.9879999 0.405
6.2839999 2.971 0.396
6.256 2.997 0.382
6.2589998 2.994 0.37099999
6.2639999 2.9890001 0.36000001
6.2649999 2.9890001 0.34900001
6.2620001 2.9909999 0.338
6.256 2.9979999 0.32600001
6.257 2.997 0.315
6.2579999 2.9960001 0.30399999
6.2540002 3 0.292
6.263 2.9920001 0.28200001
6.2740002 2.9820001 0.271
6.257 2.9979999 0.259
6.25 3.0039999 0.24699999
6.257 2.9979999 0.236
6.2680001 2.9879999 0.226
6.2729998 2.984 0.215
6.2540002 3.0009999 0.20299999
6.2540002 3.0009999 0.192
6.2579999 2.9979999 0.18099999
6.2659998 2.9909999 0.17
6.263 2.994 0.15800001
6.2589998 2.997 0.147
6.2709999 2.987 0.13600001
6.256 3 0.125
6.2639999 2.993 0.114
6.2529998 3.003 0.102
6.2529998 3.003 0.090999998
6.25 3.007 0.079999998
6.2459998 3.01 0.068999998
6.2579999 3 0.057999998
6.2729998 2.9860001 0.046999998
6.2620001 2.9960001 0.035
6.2579999 3 0.024
6.2649999 2.993 0.013
6.3709998 2.8740001 2.757
6.3379998 2.905 2.7249999
6.3080001 2.9330001 2.694
6.2880001 2.951 2.6689999
6.2719998 2.967 2.6459999
6.256 2.9820001 2.6240001
6.2490001 2.9879999 2.6070001
6.2319999 3.0039999 2.5840001
6.2420001 2.994 2.5769999
6.2420001 2.9949999 2.5639999
6.2420001 2.9949999 2.5510001
6.2459998 2.9920001 2.54
6.256 2.983 2.533
6.243 2.9949999 2.5120001
6.2490001 2.9890001 2.503
6.2420001 2.9960001 2.4860001
6.2459998 2.993 2.4749999
6.2449999 2.994 2.4619999
6.2459998 2.994 2.4489999
6.2449999 2.994 2.4360001
6.2519999 2.9879999 2.427
6.2449999 2.9949999 2.4100001
6.2519999 2.9890001 2.401
6.2480001 2.9920001 2.3859999
6.2690001 2.973 2.3840001
6.263 2.9790001 2.368
6.1750002 3.076 1.099
6.151 3.098 1.082
6.158 3.092 1.072
6.1430001 3.1059999 1.057
6.1370001 3.112 1.045
6.132 3.1170001 1.0319999
6.1149998 3.132 1.017
6.1059999 3.141 1.0039999
6.0999999 3.1470001 0.991
6.0939999 3.152 0.97899997
6.0770001 3.168 0.96399999
6.0749998 3.1700001 0.95300001
6.0580001 3.1860001 0.93800002
6.0599999 3.1849999 0.92699999
6.0430002 3.2 0.91299999
6.027 3.2149999 0.898
6.0320001 3.211 0.889
6.0110002 3.23 0.87300003
6.0089998 3.2320001 0.86199999
6.006 3.234 0.85100001
6 3.24 0.83899999
5.9970002 3.243 0.82700002
5.9920001 3.2479999 0.81599998
5.9850001 3.2550001 0.80400002
5.994 3.2460001 0.79500002
6.0019999 3.2390001 0.78500003
5.9959998 3.2449999 0.77399999
5.9970002 3.244 0.76300001
6.006 3.2360001 0.75400001
6 3.2420001 0.74199998
6.0040002 3.2379999 0.73199999
6.0089998 3.234 0.722
6.006 3.2360001 0.71100003
6.0100002 3.233 0.70099998
6.0089998 3.234 0.69
6.013 3.23 0.68000001
6.0139999 3.23 0.66900003
6.0149999 3.2290001 0.65899998
6.0050001 3.2379999 0.64600003
6.0240002 3.221 0.63800001
6.0190001 3.2260001 0.62699997
6.2480001 3.016 0.639
6.256 3.0090001 0.62900001
6.2620001 3.003 0.61799997
6.2680001 2.9979999 0.60799998
6.2610002 3.0050001 0.59600002
6.2659998 3 0.58499998
6.2540002 3.0109999 0.57200003
6.2659998 3 0.56199998
6.2680001 2.9990001 0.551
6.2690001 2.9979999 0.54000002
6.27 2.997 0.52899998
6.257 3.0090001 0.51599997
6.2579999 3.0079999 0.505
6.2729998 2.9949999 0.49599999
6.2639999 3.0039999 0.48300001
6.2690001 2.9990001 0.47299999
6.2719998 2.9960001 0.46200001
6.263 3.0050001 0.449
6.2620001 3.007 0.43799999
6.256 3.0120001 0.426
6.276 2.993 0.417
6.283 2.9879999 0.40599999
6.2729998 2.997 0.39399999
6.277 2.993 0.38299999
6.2820001 2.9879999 0.373
6.2930002 2.9790001 0.36199999
6.2820001 2.9890001 0.34999999
6.2849998 2.9860001 0.33899999
6.2839999 2.987 0.32800001
6.2880001 2.984 0.317
6.2849998 2.987 0.30500001
6.2789998 2.9920001 0.294
6.283 2.9890001 0.28299999
6.2800002 2.9920001 0.271
6.2940001 2.9790001 0.26100001
6.2690001 3.0020001 0.248
6.2820001 2.99 0.23800001
6.2610002 3.01 0.22499999
6.2649999 3.007 0.214
6.2649999 3.006 0.20299999
6.2620001 3.0090001 0.192
6.2579999 3.013 0.18000001
6.2620001 3.0090001 0.169
6.2670002 3.006 0.15800001
6.2670002 3.0050001 0.147
6.2600002 3.0120001 0.13600001
6.2600002 3.0120001 0.125
6.263 3.0090001 0.114
6.2750001 2.9979999 0.103
6.2610002 3.0109999 0.090999998
6.2600002 3.0120001 0.079999998
6.2540002 3.0179999 0.068999998
6.2620001 3.0109999 0.057999998
6.2509999 3.0209999 0.046
6.2690001 3.0039999 0.035999998
6.277 2.9979999 0.024
6.2620001 3.0109999 0.013
6.3559999 2.905 2.73
6.3429999 2.9159999 2.7090001
6.3200002 2.938 2.6830001
6.2930002 2.9630001 2.654
6.2729998 2.9809999 2.6300001
6.25 3.003 2.6029999
6.2470002 3.006 2.5880001
6.243 3.0090001 2.573
6.243 3.0090001 2.5599999
6.243 3.0090001 2.5469999
6.243 3.01 2.5339999
6.25 3.0039999 2.5250001
6.2389998 3.0139999 2.506
6.243 3.01 2.4949999
6.25 3.0039999 2.4860001
6.2470002 3.0079999 2.471
6.2519999 3.003 2.461
6.2550001 3 2.45
6.2529998 3.0020001 2.4360001
6.2459998 3.0090001 2.4200001
6.2600002 2.997 2.414
6.2449999 3.01 2.3929999
6.2420001 3.013 2.3789999
6.2519999 3.0039999 2.3710001
6.2690001 2.9890001 2.3670001
6.2610002 2.9960001 2.3510001
6.191 3.0769999 1.113
6.1669998 3.099 1.095
6.1570001 3.109 1.082
6.1669998 3.099 1.073
6.1399999 3.1240001 1.0549999
6.1339998 3.1300001 1.0420001
6.125 3.138 1.029
6.112 3.1500001 1.015
6.1020002 3.1589999 1.002
6.1100001 3.1530001 0.99199998
6.0939999 3.1670001 0.97799999
6.0739999 3.1860001 0.96200001
6.0609999 3.198 0.94800001
6.0689998 3.1900001 0.93900001
6.039 3.2179999 0.921
6.04 3.217 0.91100001
6.0380001 3.22 0.89899999
6.0240002 3.2320001 0.88599998
6.0180001 3.2379999 0.87400001
6.0100002 3.2449999 0.861
6.0170002 3.2390001 0.852
6.0180001 3.2379999 0.84100002
6.0089998 3.247 0.82800001
6.0240002 3.233 0.82099998
6.0250001 3.233 0.81
6.02 3.2379999 0.79799998
6.013 3.243 0.78600001
6.0149999 3.243 0.77600002
6.0009999 3.2550001 0.76200002
6.0170002 3.2409999 0.755
6.0180001 3.24 0.74400002
6.0229998 3.2360001 0.73400003
6.02 3.2379999 0.72299999
6.0240002 3.2349999 0.713
6.026 3.233 0.70200002
6.0229998 3.2360001 0.69099998
6.0170002 3.2420001 0.67900002
6.033 3.227 0.671
6.026 3.233 0.65899998
6.0570002 3.2060001 0.653
6.2659998 3.0150001 0.67400002
6.2820001 3.0009999 0.66500002
6.2579999 3.023 0.65100002
6.277 3.0050001 0.64200002
6.2649999 3.016 0.62900001
6.2880001 2.9960001 0.62099999
6.2800002 3.003 0.60900003
6.2789998 3.0039999 0.597
6.2800002 3.003 0.58600003
6.2849998 2.9990001 0.57499999
6.2859998 2.9979999 0.56400001
6.2750001 3.0079999 0.551
6.2729998 3.01 0.54000002
6.2729998 3.01 0.52899998
6.2740002 3.0090001 0.51800001
6.2820001 3.0020001 0.50700003
6.2789998 3.0050001 0.49599999
6.276 3.007 0.484
6.263 3.02 0.47099999
6.2779999 3.006 0.46200001
6.2789998 3.006 0.44999999
6.2719998 3.0120001 0.43900001
6.276 3.0079999 0.428
6.2659998 3.0179999 0.41499999
6.2740002 3.0109999 0.405
6.2670002 3.0179999 0.39300001
6.2639999 3.0209999 0.382
6.2750001 3.01 0.37099999
6.2690001 3.016 0.36000001
6.2690001 3.016 0.34799999
6.2779999 3.0079999 0.338
6.276 3.01 0.32699999
6.2750001 3.0109999 0.315
6.2779999 3.0079999 0.30399999
6.2859998 3.0009999 0.294
6.2750001 3.0109999 0.28200001
6.2719998 3.0139999 0.27000001
6.276 3.01 0.259
6.2670002 3.0190001 0.248
6.2600002 3.0250001 0.236
6.2610002 3.0250001 0.22499999
6.2680001 3.0179999 0.214
6.2620001 3.0250001 0.20299999
6.2690001 3.0190001 0.192
6.25 3.036 0.18000001
6.263 3.0239999 0.169
6.2519999 3.0339999 0.15800001
6.2670002 3.0209999 0.147
6.256 3.0309999 0.13600001
6.2600002 3.027 0.125
6.257 3.03 0.113
6.2610002 3.027 0.102
6.2610002 3.027 0.090999998
6.2839999 3.006 0.081
6.2579999 3.03 0.068999998
6.2659998 3.023 0.057999998
6.2690001 3.02 0.046999998
6.27 3.02 0.035999998
6.27 3.02 0.024
6.27 3.02 0.013
6.3649998 2.9130001 2.717
6.348 2.928 2.694
6.3169999 2.9560001 2.664
6.2909999 2.9809999 2.635
6.2750001 2.9960001 2.6129999
6.2480001 3.0209999 2.585
6.244 3.0239999 2.5699999
6.237 3.03 2.553
6.244 3.0239999 2.5439999
6.244 3.0250001 2.53
6.244 3.0250001 2.5179999
6.244 3.0250001 2.5050001
6.2410002 3.0280001 2.49
6.2470002 3.023 2.48
6.2509999 3.0190001 2.47
6.2470002 3.023 2.4549999
6.2509999 3.02 2.444
6.2540002 3.017 2.4330001
6.257 3.0150001 2.421
6.2540002 3.0179999 2.4070001
6.2529998 3.0179999 2.3940001
6.2529998 3.0179999 2.381
6.2490001 3.0220001 2.3659999
6.256 3.016 2.3570001
6.2729998 3.0009999 2.3529999
6.2600002 3.0120001 2.3340001
6.2719998 3.0150001 1.352
6.276 3.0120001 1.33
6.244 3.0420001 1.2970001
6.2410002 3.0450001 1.273
6.2490001 3.0369999 1.2640001
6.2490001 3.0380001 1.252
6.2529998 3.0339999 1.242
6.2449999 3.0420001 1.228
6.2459998 3.0409999 1.217
6.2490001 3.039 1.206
6.2360001 3.0510001 1.191
6.2480001 3.039 1.183
6.2350001 3.052 1.168
6.2160001 3.069 1.14
6.1919999 3.092 1.122
6.2020001 3.082 1.114
6.1789999 3.1040001 1.097
6.1659999 3.1159999 1.082
6.1529999 3.128 1.068
6.1479998 3.132 1.0549999
6.1350002 3.1440001 1.041
6.125 3.1530001 1.027
6.1160002 3.1619999 1.0140001
6.1079998 3.1689999 1.001
6.0970001 3.1800001 0.98799998
6.098 3.178 0.977
6.092 3.184 0.96399999
6.0830002 3.1930001 0.95099998
6.066 3.2079999 0.93699998
6.053 3.221 0.92299998
6.0500002 3.223 0.91100001
6.0380001 3.234 0.898
6.0349998 3.237 0.88700002
6.04 3.2320001 0.87699997
6.0180001 3.253 0.861
6.0310001 3.2409999 0.85299999
6.033 3.2390001 0.84299999
6.033 3.2390001 0.83200002
6.0310001 3.2409999 0.82099998
6.0370002 3.2360001 0.81099999
6.0300002 3.2420001 0.79900002
6.0279999 3.2449999 0.78799999
6.04 3.234 0.77899998
6.033 3.24 0.76700002
6.0310001 3.243 0.75599998
6.0419998 3.2320001 0.74699998
6.0219998 3.2509999 0.73299998
6.0380001 3.2360001 0.72500002
6.0500002 3.2260001 0.71600002
6.0469999 3.2279999 0.70499998
6.0380001 3.237 0.69199997
6.046 3.2290001 0.68300003
6.0510001 3.2249999 0.67299998
6.2800002 3.017 0.69800001
6.2779999 3.0190001 0.68599999
6.2709999 3.0250001 0.67400002
6.2709999 3.0250001 0.66299999
6.263 3.033 0.64999998
6.2789998 3.0179999 0.64099997
6.2690001 3.027 0.62900001
6.2670002 3.03 0.61699998
6.2779999 3.02 0.60699999
6.2639999 3.033 0.59399998
6.277 3.0209999 0.58499998
6.2740002 3.0239999 0.57300001
6.2779999 3.02 0.56199998
6.2680001 3.029 0.55000001
6.2729998 3.0250001 0.53899997
6.2740002 3.0250001 0.528
6.2740002 3.0239999 0.51700002
6.2789998 3.02 0.50599998
6.2680001 3.03 0.49399999
6.2810001 3.0190001 0.484
6.27 3.029 0.47099999
6.2709999 3.0280001 0.46000001
6.2750001 3.0250001 0.449
6.2690001 3.0309999 0.43799999
6.2690001 3.0309999 0.426
6.2719998 3.0280001 0.41499999
6.2579999 3.0409999 0.403
6.277 3.023 0.39300001
6.2750001 3.026 0.382
6.2750001 3.026 0.37099999
6.2859998 3.016 0.361
6.2729998 3.0280001 0.34799999
6.27 3.0309999 0.33700001
6.2740002 3.027 0.32600001
6.2709999 3.03 0.315
6.2719998 3.029 0.303
6.2620001 3.039 0.292
6.2789998 3.023 0.28200001
6.2789998 3.023 0.27000001
6.263 3.0380001 0.25799999
6.256 3.0439999 0.24699999
6.2529998 3.0469999 0.235
6.257 3.0439999 0.22400001
6.2610002 3.04 0.213
6.2620001 3.04 0.20200001
6.2659998 3.036 0.191
6.2740002 3.029 0.18099999
6.263 3.039 0.169
6.2670002 3.036 0.15800001
6.2639999 3.039 0.147
6.2639999 3.039 0.13600001
6.2529998 3.049 0.124
6.2610002 3.0420001 0.113
6.2610002 3.0420001 0.102
6.2729998 3.0320001 0.090999998
6.2690001 3.0350001 0.079999998
6.2620001 3.0409999 0.068999998
6.2659998 3.0380001 0.057999998
6.2620001 3.0409999 0.046999998
6.277 3.0280001 0.035999998
6.2690001 3.0350001 0.024
6.2589998 3.0450001 0.013
6.368 2.925 2.7019999
6.342 2.9489999 2.6730001
6.3119998 2.977 2.6429999
6.2989998 2.9890001 2.622
6.2690001 3.017 2.592
6.2620001 3.023 2.576
6.2519999 3.0320001 2.5569999
6.2350001 3.0480001 2.5350001
6.2449999 3.039 2.527
6.2410002 3.043 2.5120001
6.2480001 3.0369999 2.503
6.2470002 3.0380001 2.4890001
6.244 3.04 2.4749999
6.2579999 3.0280001 2.4690001
6.25 3.0350001 2.4519999
6.2509999 3.0339999 2.4400001
6.244 3.0409999 2.424
6.25 3.036 2.414
6.243 3.0420001 2.398
6.2509999 3.036 2.3889999
6.25 3.036 2.3759999
6.25 3.0369999 2.3629999
6.2529998 3.0339999 2.352
6.2600002 3.0280001 2.342
6.2670002 3.0220001 2.3329999
6.2719998 3.0179999 2.323
6.2420001 3.0539999 1.587
6.27 3.03 1.573
6.25 3.0480001 1.5549999
6.2750001 3.0250001 1.551
6.2449999 3.053 1.529
6.244 3.053 1.517
6.2519999 3.046 1.508
6.2519999 3.0469999 1.4960001
6.2610002 3.039 1.487
6.2519999 3.0469999 1.473
6.2470002 3.052 1.459
6.2729998 3.0280001 1.456
6.244 3.0550001 1.4349999
6.2459998 3.053 1.424
6.256 3.0450001 1.415
6.2399998 3.059 1.399
6.257 3.0439999 1.392
6.244 3.056 1.377
6.25 3.0510001 1.367
6.2519999 3.049 1.3559999
6.2540002 3.0469999 1.345
6.256 3.0450001 1.334
6.2589998 3.043 1.323
6.2529998 3.0480001 1.309
6.2490001 3.052 1.2970001
6.2589998 3.043 1.288
6.2789998 3.0250001 1.2819999
6.283 3.0220001 1.271
6.2859998 3.0190001 1.261
6.2750001 3.03 1.2460001
6.276 3.029 1.234
6.283 3.023 1.225
6.2789998 3.026 1.212
6.2849998 3.0209999 1.202
6.2859998 3.02 1.191
6.277 3.0280001 1.177
6.2800002 3.026 1.166
6.276 3.03 1.153
6.2059999 3.0929999 1.124
6.1989999 3.0999999 1.1109999
6.1830001 3.115 1.096
6.1700001 3.1270001 1.081
6.1599998 3.1359999 1.068
6.1440001 3.1500001 1.053
6.1350002 3.1589999 1.039
6.1220002 3.171 1.025
6.119 3.1730001 1.013
6.1170001 3.175 1.002
6.1110001 3.181 0.98900002
6.0910001 3.2 0.97399998
6.0890002 3.2019999 0.96200001
6.0679998 3.221 0.94700003
6.0619998 3.2260001 0.93400002
6.0599999 3.2279999 0.92299998
6.0510001 3.237 0.91000003
6.0479999 3.2390001 0.89899999
6.0419998 3.2449999 0.88700002
6.0440001 3.244 0.87599999
6.0450001 3.243 0.86500001
6.0419998 3.2460001 0.85399997
6.053 3.2349999 0.84500003
6.0560002 3.233 0.83499998
6.0419998 3.2460001 0.82200003
6.0549998 3.234 0.81300002
6.0380001 3.25 0.79900002
6.053 3.237 0.79100001
6.0549998 3.2349999 0.78100002
6.052 3.2379999 0.76899999
6.0500002 3.24 0.75800002
6.0469999 3.243 0.74699998
6.052 3.2379999 0.73699999
6.0570002 3.234 0.727
6.0609999 3.23 0.71700001
6.0619998 3.2290001 0.70599997
6.0630002 3.2279999 0.69599998
6.27 3.0409999 0.71799999
6.2750001 3.0369999 0.708
6.2670002 3.0439999 0.69499999
6.2820001 3.0309999 0.68599999
6.2789998 3.0339999 0.67400002
6.2649999 3.046 0.66100001
6.2600002 3.0510001 0.64899999
6.2709999 3.0409999 0.639
6.2800002 3.033 0.62900001
6.2690001 3.043 0.616
6.2690001 3.043 0.60500002
6.2789998 3.0339999 0.59500003
6.2639999 3.0480001 0.58200002
6.2870002 3.0280001 0.574
6.2740002 3.039 0.56099999
6.2670002 3.046 0.54900002
6.276 3.0380001 0.53899997
6.283 3.0309999 0.528
6.277 3.0369999 0.51599997
6.277 3.0369999 0.505
6.2709999 3.043 0.493
6.2719998 3.0420001 0.48199999
6.276 3.039 0.47099999
6.2729998 3.0409999 0.46000001
6.2789998 3.0369999 0.449
6.2639999 3.05 0.43599999
6.2690001 3.046 0.426
6.27 3.0450001 0.41499999
6.2779999 3.0380001 0.40400001
6.2709999 3.0439999 0.39199999
6.2719998 3.043 0.38100001
6.2719998 3.0439999 0.37
6.2729998 3.043 0.359
6.2659998 3.049 0.347
6.2709999 3.0450001 0.336
6.2680001 3.0480001 0.32499999
6.2719998 3.0439999 0.31400001
6.2649999 3.0510001 0.303
6.2750001 3.0420001 0.292
6.2550001 3.0599999 0.28
6.263 3.053 0.26899999
6.263 3.053 0.25799999
6.2639999 3.053 0.24699999
6.2680001 3.049 0.236
6.2649999 3.052 0.22499999
6.2620001 3.0550001 0.213
6.2659998 3.052 0.20200001
6.2659998 3.0510001 0.191
6.263 3.0550001 0.18000001
6.2709999 3.0480001 0.169
6.2600002 3.0580001 0.15800001
6.2639999 3.0539999 0.147
6.257 3.0610001 0.13500001
6.2610002 3.0569999 0.124
6.2649999 3.0539999 0.113
6.2649999 3.0539999 0.102
6.2719998 3.0469999 0.090999998
6.2690001 3.05 0.079999998
6.27 3.05 0.068999998
6.2620001 3.0569999 0.057999998
6.27 3.05 0.046999998
6.2659998 3.053 0.035999998
6.256 3.063 0.024
6.2550001 3.0639999 0.013
6.3779998 2.9319999 2.6889999
6.3400002 2.967 2.655
6.3130002 2.9909999 2.6259999
6.29 3.0120001 2.5999999
6.2729998 3.0280001 2.5780001
6.256 3.0439999 2.5550001
6.256 3.0439999 2.5420001
6.2389998 3.0599999 2.52
6.2490001 3.0510001 2.513
6.2420001 3.0569999 2.4960001
6.2449999 3.0539999 2.4849999
6.2449999 3.0550001 2.471
6.2490001 3.052 2.461
6.2379999 3.0610001 2.4419999
6.244 3.056 2.4330001
6.2540002 3.0469999 2.425
6.2519999 3.05 2.411
6.2480001 3.053 2.3959999
6.257 3.0450001 2.388
6.2470002 3.0539999 2.3710001
6.2480001 3.0539999 2.358
6.2509999 3.0510001 2.3469999
6.2470002 3.0550001 2.332
6.2600002 3.043 2.326
6.263 3.04 2.3150001
6.276 3.029 2.309
6.2589998 3.0439999 2.2880001
6.2480001 3.059 1.923
6.2379999 3.069 1.9069999
6.244 3.0639999 1.873
6.2550001 3.0539999 1.841
6.2610002 3.049 1.831
6.25 3.0599999 1.814
6.2519999 3.0580001 1.803
6.244 3.0650001 1.788
6.25 3.059 1.779
6.256 3.0539999 1.7690001
6.2340002 3.075 1.748
6.2389998 3.0699999 1.738
6.2459998 3.0639999 1.729
6.2420001 3.0680001 1.715
6.2519999 3.059 1.707
6.2470002 3.063 1.694
6.2470002 3.0639999 1.682
6.2519999 3.059 1.671
6.2579999 3.0539999 1.6619999
6.2659998 3.0469999 1.653
6.2690001 3.0450001 1.642
6.2490001 3.063 1.623
6.2519999 3.0599999 1.612
6.2600002 3.053 1.603
6.2620001 3.0510001 1.592
6.2740002 3.0409999 1.584
6.2620001 3.052 1.568
6.2740002 3.0420001 1.5599999
6.277 3.039 1.55
6.2729998 3.043 1.536
6.2800002 3.036 1.527
6.27 3.046 1.512
6.276 3.0409999 1.502
6.2670002 3.049 1.487
6.2789998 3.0380001 1.479
6.2750001 3.0409999 1.466
6.2680001 3.0480001 1.452
6.276 3.0409999 1.443
6.2810001 3.036 1.433
6.2750001 3.0420001 1.419
6.2849998 3.0339999 1.41
6.2839999 3.0339999 1.398
6.27 3.0480001 1.382
6.2740002 3.0439999 1.372
6.2789998 3.039 1.362
6.2779999 3.0409999 1.349
6.2649999 3.052 1.334
6.2740002 3.0439999 1.325
6.2649999 3.053 1.311
6.2670002 3.0510001 1.3
6.2649999 3.053 1.288
6.263 3.0550001 1.275
6.2719998 3.0469999 1.266
6.2600002 3.0580001 1.251
6.2659998 3.053 1.2410001
6.257 3.0610001 1.228
6.2649999 3.053 1.2180001
6.2529998 3.0650001 1.2029999
6.2589998 3.0599999 1.193
6.2639999 3.0550001 1.183
6.2680001 3.052 1.173
6.256 3.062 1.158
6.2030001 3.1110001 1.133
6.2010002 3.1129999 1.1210001
6.1989999 3.115 1.11
6.1859999 3.1259999 1.095
6.1810002 3.132 1.082
6.164 3.1470001 1.067
6.1440001 3.165 1.051
6.1459999 3.164 1.04
6.1329999 3.1760001 1.026
6.1160002 3.191 1.011
6.1100001 3.197 0.99900001
6.1040001 3.2019999 0.986
6.0939999 3.211 0.97299999
6.0809999 3.223 0.95899999
6.086 3.2190001 0.949
6.0689998 3.234 0.935
6.0630002 3.24 0.92199999
6.0580001 3.2449999 0.91000003
6.0619998 3.2409999 0.89999998
6.066 3.237 0.88999999
6.0619998 3.2420001 0.87800002
6.0700002 3.2349999 0.86900002
6.0609999 3.243 0.85600001
6.066 3.2390001 0.847
6.0739999 3.2320001 0.83700001
6.072 3.233 0.82599998
6.0640001 3.2409999 0.81400001
6.0669999 3.2379999 0.80299997
6.0570002 3.247 0.79100001
6.066 3.24 0.78100002
6.0739999 3.2320001 0.77200001
6.0679998 3.2379999 0.75999999
6.0689998 3.237 0.75
6.0809999 3.2260001 0.741
6.0710001 3.2349999 0.72799999
6.0890002 3.2190001 0.72000003
6.1789999 3.138 0.72500002
6.2589998 3.066 0.727
6.2750001 3.052 0.71799999
6.2620001 3.0639999 0.704
6.2690001 3.0569999 0.69400001
6.2779999 3.049 0.68400002
6.2800002 3.0480001 0.67299998
6.2800002 3.0480001 0.662
6.27 3.0569999 0.64899999
6.2670002 3.0599999 0.63800001
6.2729998 3.0550001 0.62699997
6.2729998 3.0550001 0.616
6.27 3.0569999 0.60399997
6.2750001 3.053 0.59399998
6.2789998 3.05 0.583
6.2740002 3.0550001 0.57099998
6.2670002 3.0610001 0.55900002
6.2779999 3.0510001 0.54900002
6.283 3.0469999 0.53899997
6.2690001 3.0599999 0.52600002
6.2670002 3.062 0.514
6.2670002 3.0610001 0.50300002
6.2779999 3.052 0.493
6.2649999 3.063 0.48100001
6.2729998 3.056 0.47
6.2740002 3.056 0.45899999
6.2740002 3.056 0.44800001
6.2820001 3.049 0.43799999
6.2789998 3.052 0.426
6.2789998 3.052 0.41499999
6.2659998 3.0639999 0.40200001
6.2750001 3.056 0.39199999
6.2919998 3.04 0.38299999
6.2680001 3.062 0.36899999
6.276 3.0550001 0.359
6.2729998 3.0580001 0.347
6.2670002 3.0639999 0.336
6.2659998 3.0650001 0.324
6.2709999 3.0610001 0.31400001
6.2750001 3.0569999 0.303
6.2690001 3.062 0.29100001
6.27 3.062 0.28
6.263 3.0680001 0.26899999
6.256 3.0739999 0.257
6.2639999 3.0669999 0.24600001
6.2639999 3.0669999 0.235
6.257 3.0739999 0.22400001
6.2649999 3.0669999 0.213
6.2579999 3.073 0.20200001
6.2589998 3.073 0.191
6.2589998 3.073 0.18000001
6.2600002 3.073 0.168
6.2639999 3.069 0.15800001
6.2639999 3.069 0.146
6.2680001 3.066 0.13500001
6.2529998 3.079 0.124
6.276 3.059 0.114
6.2649999 3.069 0.102
6.2729998 3.062 0.090999998
6.2690001 3.0650001 0.079999998
6.2620001 3.072 0.068999998
6.2740002 3.062 0.057999998
6.263 3.072 0.046999998
6.277 3.059 0.035999998
6.2670002 3.0680001 0.024
6.2729998 3.063 0.013
6.3709998 2.954 2.668
6.3470001 2.9749999 2.641
6.3140001 3.006 2.6099999
6.3080001 3.0120001 2.5929999
6.2670002 3.049 2.5569999
6.2529998 3.062 2.5369999
6.2529998 3.062 2.5239999
6.2319999 3.0810001 2.5
6.2449999 3.0699999 2.493
6.2529998 3.062 2.4849999
6.2449999 3.0699999 2.4679999
6.2509999 3.0650001 2.4579999
6.2490001 3.0669999 2.444
6.2449999 3.0710001 2.4289999
6.2420001 3.073 2.415
6.2519999 3.0650001 2.4070001
6.2389998 3.0769999 2.388
6.2490001 3.0680001 2.3800001
6.2490001 3.0680001 2.3670001
6.2490001 3.0680001 2.355
6.2399998 3.076 2.3380001
6.2340002 3.082 2.322
6.244 3.073 2.3139999
6.2579999 3.0610001 2.309
6.2680001 3.052 2.3010001
6.2740002 3.046 2.2920001
6.2649999 3.0550001 2.2739999
6.25 3.0699999 2.204
6.2389998 3.079 2.187
6.2290001 3.089 2.1689999
6.2319999 3.086 2.158
6.2420001 3.0769999 2.151
6.2350001 3.0840001 2.135
6.2550001 3.0650001 2.132
6.2519999 3.069 2.118
6.2480001 3.072 2.1040001
6.2579999 3.063 2.096
6.2470002 3.073 2.079
6.2470002 3.0739999 2.066
6.257 3.0650001 2.0580001
6.2490001 3.072 2.043
6.2519999 3.0699999 2.0320001
6.2290001 3.0899999 2.0090001
6.2470002 3.075 2.0050001
6.243 3.0780001 1.9910001
6.257 3.0650001 1.985
6.2600002 3.063 1.974
6.2620001 3.062 1.962
6.2620001 3.062 1.95
6.2649999 3.0599999 1.939
6.27 3.0550001 1.929
6.2709999 3.0539999 1.9170001
6.2680001 3.0569999 1.904
6.2659998 3.059 1.891
6.2729998 3.052 1.882
6.2740002 3.052 1.87
6.2589998 3.0650001 1.852
6.2729998 3.0539999 1.845
6.2820001 3.046 1.836
6.2750001 3.052 1.822
6.2779999 3.049 1.811
6.263 3.063 1.793
6.2750001 3.053 1.785
6.276 3.052 1.774
6.2600002 3.066 1.756
6.2680001 3.0599999 1.7460001
6.2709999 3.0569999 1.7359999
6.256 3.0710001 1.7180001
6.2729998 3.0550001 1.7130001
6.2719998 3.056 1.7
6.2670002 3.0610001 1.686
6.27 3.059 1.675
6.2719998 3.0569999 1.664
6.2670002 3.062 1.65
6.2800002 3.05 1.643
6.2750001 3.0550001 1.63
6.2740002 3.056 1.617
6.2649999 3.0639999 1.602
6.2639999 3.0650001 1.59
6.2659998 3.063 1.579
6.2649999 3.0650001 1.567
6.2600002 3.069 1.553
6.2579999 3.0710001 1.541
6.2709999 3.059 1.533
6.2649999 3.0650001 1.5190001
6.2610002 3.069 1.506
6.2589998 3.0699999 1.494
6.2680001 3.063 1.485
6.2670002 3.0639999 1.473
6.276 3.056 1.464
6.257 3.073 1.446
6.2550001 3.075 1.434
6.2639999 3.0669999 1.425
6.2480001 3.082 1.409
6.25 3.0799999 1.397
6.2740002 3.059 1.393
6.2649999 3.0669999 1.3789999
6.2550001 3.076 1.364
6.2639999 3.0680001 1.355
6.2600002 3.072 1.342
6.2680001 3.0650001 1.3329999
6.2610002 3.072 1.319
6.2519999 3.079 1.3049999
6.2639999 3.069 1.2970001
6.2690001 3.0639999 1.2869999
6.2610002 3.072 1.273
6.2610002 3.072 1.261
6.2670002 3.0669999 1.251
6.2649999 3.069 1.239
6.2600002 3.0739999 1.226
6.2719998 3.062 1.2180001
6.2670002 3.0669999 1.205
6.2690001 3.066 1.194
6.263 3.0710001 1.181
6.2509999 3.082 1.1670001
6.2199998 3.1099999 1.147
6.2140002 3.115 1.1339999
6.198 3.131 1.119
6.1919999 3.1359999 1.1059999
6.1830001 3.145 1.092
6.177 3.1500001 1.08
6.171 3.155 1.067
6.1479998 3.1760001 1.05
6.1459999 3.1789999 1.039
6.1290002 3.194 1.024
6.1269999 3.1960001 1.012
6.1240001 3.198 1
6.1149998 3.207 0.98699999
6.1020002 3.2190001 0.97299999
6.085 3.234 0.958
6.0900002 3.23 0.949
6.0770001 3.2420001 0.935
6.0819998 3.2379999 0.92500001
6.0819998 3.2379999 0.91399997
6.0809999 3.2390001 0.903
6.0840001 3.2360001 0.89300001
6.0869999 3.234 0.88200003
6.0799999 3.24 0.87
6.0819998 3.2379999 0.85900003
6.0830002 3.237 0.84899998
6.0799999 3.24 0.83700001
6.0809999 3.2390001 0.82700002
6.0869999 3.2349999 0.81699997
6.0879998 3.234 0.80599999
6.079 3.2420001 0.79400003
6.0840001 3.2379999 0.78399998
6.092 3.2309999 0.77399999
6.086 3.2360001 0.76200002
6.0939999 3.2290001 0.75300002
6.099 3.2249999 0.74299997
6.1269999 3.2 0.73699999
6.2719998 3.0680001 0.75
6.263 3.0780001 0.73699999
6.2670002 3.073 0.727
6.2680001 3.073 0.71600002
6.27 3.0710001 0.70499998
6.27 3.072 0.69300002
6.2709999 3.0710001 0.68199998
6.2729998 3.069 0.671
6.276 3.066 0.66100001
6.2750001 3.0680001 0.64899999
6.2779999 3.0650001 0.63800001
6.2729998 3.0699999 0.62599999
6.2550001 3.086 0.61299998
6.2709999 3.072 0.60399997
6.2719998 3.0710001 0.59299999
6.276 3.0669999 0.58200002
6.2740002 3.0699999 0.56999999
6.2729998 3.0699999 0.55900002
6.2820001 3.062 0.54900002
6.2719998 3.0710001 0.537
6.27 3.0739999 0.52499998
6.27 3.073 0.514
6.2639999 3.079 0.50199997
6.2719998 3.072 0.49200001
6.2649999 3.0780001 0.47999999
6.276 3.0680001 0.47
6.277 3.0680001 0.45899999
6.2659998 3.0780001 0.44600001
6.2750001 3.0699999 0.43599999
6.2750001 3.0699999 0.42500001
6.2729998 3.073 0.414
6.27 3.075 0.40200001
6.27 3.075 0.391
6.2940001 3.0539999 0.382
6.2690001 3.0769999 0.36899999
6.27 3.076 0.35800001
6.27 3.075 0.347
6.2750001 3.072 0.336
6.2750001 3.072 0.32499999
6.2649999 3.0810001 0.31299999
6.2690001 3.0769999 0.30199999
6.2550001 3.0899999 0.28999999
6.2589998 3.0869999 0.27900001
6.263 3.0829999 0.26800001
6.2600002 3.086 0.257
6.2639999 3.0829999 0.24600001
6.2649999 3.082 0.235
6.25 3.095 0.223
6.2620001 3.085 0.213
6.2579999 3.0880001 0.20100001
6.2589998 3.0880001 0.19
6.2670002 3.0810001 0.18000001
6.2519999 3.0940001 0.168
6.2670002 3.0810001 0.15700001
6.2600002 3.0869999 0.146
6.2529998 3.0940001 0.13500001
6.257 3.0899999 0.124
6.2610002 3.0869999 0.113
6.2540002 3.0929999 0.102
6.2480001 3.099 0.090000004
6.277 3.073 0.079999998
6.2729998 3.0769999 0.068999998
6.2740002 3.076 0.057999998
6.263 3.086 0.046999998
6.2670002 3.0829999 0.035999998
6.2820001 3.0699999 0.025
6.2740002 3.076 0.013
6.2490001 3.0780001 2.74
6.3109999 3.023 2.6960001
6.276 3.0550001 2.6500001
6.2459998 3.082 2.6199999
6.2600002 3.069 2.615
6.276 3.0550001 2.6110001
6.362 2.9779999 2.645
6.3460002 2.993 2.6229999
6.322 3.0139999 2.5969999
6.2810001 3.0510001 2.5610001
6.2610002 3.0699999 2.5369999
6.25 3.079 2.5179999
6.2540002 3.0769999 2.507
6.25 3.0799999 2.4920001
6.2490001 3.0810001 2.4790001
6.25 3.0799999 2.467
6.2420001 3.0880001 2.45
6.256 3.075 2.444
6.2459998 3.0840001 2.4260001
6.2519999 3.079 2.4170001
6.2680001 3.0650001 2.4119999
6.2519999 3.079 2.391
6.2389998 3.0910001 2.372
6.2550001 3.0769999 2.3670001
6.2490001 3.0829999 2.3510001
6.2210002 3.108 2.3239999
6.2210002 3.109 2.312
6.2449999 3.0869999 2.3110001
6.2579999 3.075 2.3050001
6.2649999 3.069 2.296
6.2610002 3.073 2.2809999
6.2859998 3.0510001 2.2809999
6.2620001 3.072 2.257
6.2529998 3.0810001 2.24
6.2709999 3.0650001 2.2360001
6.2589998 3.076 2.2179999
6.2639999 3.072 2.207
6.2659998 3.0699999 2.1960001
6.2680001 3.0680001 2.184
6.2620001 3.0739999 2.1689999
6.2459998 3.089 2.1489999
6.2600002 3.076 2.1429999
6.2579999 3.0780001 2.1300001
6.2659998 3.0710001 2.1210001
6.2680001 3.069 2.1099999
6.2639999 3.073 2.095
6.263 3.0739999 2.0829999
6.2550001 3.0810001 2.0669999
6.2579999 3.079 2.056
6.25 3.086 2.04
6.257 3.0799999 2.0309999
6.2519999 3.0840001 2.016
6.2589998 3.079 2.007
6.2509999 3.086 1.9910001
6.25 3.0869999 1.979
6.256 3.082 1.969
6.2519999 3.086 1.955
6.2550001 3.0840001 1.944
6.2540002 3.085 1.931
6.256 3.082 1.92
6.2620001 3.0769999 1.911
6.2550001 3.0840001 1.896
6.2579999 3.0810001 1.885
6.2529998 3.086 1.8710001
6.2589998 3.0799999 1.8609999
6.2550001 3.085 1.847
6.2610002 3.079 1.837
6.2600002 3.0799999 1.825
6.2550001 3.085 1.811
6.2610002 3.079 1.801
6.2529998 3.0869999 1.786
6.2519999 3.0880001 1.774
6.2610002 3.0799999 1.765
6.257 3.0840001 1.752
6.256 3.085 1.739
6.2509999 3.0899999 1.725
6.257 3.085 1.716
6.2659998 3.076 1.707
6.2540002 3.0880001 1.691
6.2490001 3.092 1.677
6.2449999 3.096 1.664
6.2649999 3.0780001 1.659
6.2600002 3.0829999 1.645
6.2610002 3.0810001 1.6339999
6.257 3.085 1.6210001
6.2589998 3.0829999 1.61
6.2550001 3.0880001 1.596
6.2600002 3.0829999 1.586
6.2550001 3.0880001 1.573
6.2719998 3.073 1.567
6.256 3.0869999 1.549
6.2509999 3.092 1.536
6.2639999 3.0810001 1.529
6.263 3.082 1.516
6.2610002 3.0840001 1.5039999
6.263 3.082 1.493
6.2620001 3.0840001 1.4809999
6.2670002 3.079 1.471
6.2690001 3.0780001 1.459
6.2610002 3.085 1.4450001
6.2659998 3.0799999 1.4349999
6.2719998 3.075 1.425
6.2589998 3.0869999 1.41
6.2649999 3.082 1.4
6.263 3.0829999 1.388
6.2589998 3.0880001 1.375
6.263 3.0829999 1.364
6.2589998 3.0880001 1.351
6.2670002 3.0799999 1.342
6.2729998 3.076 1.332
6.2670002 3.0810001 1.319
6.2649999 3.082 1.307
6.2670002 3.0810001 1.296
6.2649999 3.0829999 1.284
6.2639999 3.0840001 1.272
6.2550001 3.092 1.258
6.2649999 3.0829999 1.249
6.2620001 3.0869999 1.2359999
6.2600002 3.089 1.224
6.2740002 3.076 1.217
6.263 3.086 1.202
6.2589998 3.0899999 1.1900001
6.2459998 3.1010001 1.175
6.237 3.1099999 1.161
6.2270002 3.118 1.147
6.211 3.1340001 1.132
6.2010002 3.142 1.118
6.1919999 3.151 1.104
6.1939998 3.1489999 1.0930001
6.1700001 3.171 1.076
6.1570001 3.1819999 1.062
6.1620002 3.178 1.052
6.1529999 3.187 1.039
6.1360002 3.2019999 1.024
6.1230001 3.214 1.01
6.1240001 3.2130001 0.99900001
6.1069999 3.2279999 0.98400003
6.0939999 3.24 0.97000003
6.1030002 3.2320001 0.96100003
6.1009998 3.2349999 0.949
6.0869999 3.247 0.93599999
6.0890002 3.2460001 0.92500001
6.0970001 3.2379999 0.91600001
6.0939999 3.2409999 0.90399998
6.0949998 3.24 0.89399999
6.1009998 3.2349999 0.884
6.1059999 3.2309999 0.87400001
6.0890002 3.2460001 0.86000001
6.0939999 3.2420001 0.85000002
6.099 3.2379999 0.83999997
6.1040001 3.234 0.82999998
6.0869999 3.2479999 0.81599998
6.1030002 3.2349999 0.80800003
6.0999999 3.237 0.796
6.105 3.233 0.78600001
6.1090002 3.23 0.77600002
6.1030002 3.2349999 0.764
6.1259999 3.2149999 0.75700003
6.263 3.092 0.76999998
6.2709999 3.0840001 0.75999999
6.2690001 3.0869999 0.74800003
6.2810001 3.076 0.73900002
6.2779999 3.0780001 0.72799999
6.2820001 3.075 0.71700001
6.2690001 3.0869999 0.70300001
6.2740002 3.0829999 0.69300002
6.2680001 3.0880001 0.68099999
6.2719998 3.085 0.67000002
6.2729998 3.0840001 0.65899998
6.2750001 3.0829999 0.648
6.2719998 3.085 0.63700002
6.2880001 3.0710001 0.62800002
6.277 3.0810001 0.61500001
6.2919998 3.0680001 0.60600001
6.2540002 3.102 0.58899999
6.276 3.082 0.58099997
6.2800002 3.079 0.56999999
6.256 3.1010001 0.55599999
6.2750001 3.0840001 0.54699999
6.2870002 3.073 0.53799999
6.2610002 3.096 0.523
6.27 3.0880001 0.51300001
6.2789998 3.0799999 0.50300002
6.2709999 3.0880001 0.491
6.2800002 3.0799999 0.48100001
6.2880001 3.073 0.47
6.2709999 3.089 0.45699999
6.2740002 3.086 0.447
6.276 3.0840001 0.43599999
6.276 3.0840001 0.42500001
6.2729998 3.0880001 0.41299999
6.27 3.0899999 0.40200001
6.2719998 3.089 0.391
6.2719998 3.089 0.38
6.276 3.085 0.36899999
6.2740002 3.0869999 0.35699999
6.2740002 3.0869999 0.34599999
6.2670002 3.0929999 0.33500001
6.2719998 3.0899999 0.324
6.2470002 3.112 0.31099999
6.2649999 3.096 0.301
6.2480001 3.1110001 0.289
6.2550001 3.105 0.278
6.2519999 3.108 0.26699999
6.2620001 3.099 0.257
6.2459998 3.1140001 0.245
6.2680001 3.0940001 0.235
6.2509999 3.1099999 0.223
6.2480001 3.1129999 0.212
6.244 3.1159999 0.2
6.2519999 3.109 0.19
6.2579999 3.1029999 0.17900001
6.2550001 3.1070001 0.168
6.2529998 3.108 0.15700001
6.2540002 3.108 0.146
6.25 3.1110001 0.134
6.25 3.1110001 0.123
6.2470002 3.115 0.112
6.2579999 3.105 0.102
6.2550001 3.108 0.090000004
6.244 3.118 0.079000004
6.2519999 3.1110001 0.068000004
6.2849998 3.0810001 0.057999998
6.29 3.0769999 0.046999998
6.3000002 3.0680001 0.035999998
6.289 3.0780001 0.025
6.3000002 3.0680001 0.014
6.3119998 3.0339999 2.9619999
6.2579999 3.082 2.915
6.2789998 3.063 2.915
6.2870002 3.056 2.892
6.277 3.066 2.8729999
6.2880001 3.056 2.8659999
6.2490001 3.092 2.8280001
6.2459998 3.0940001 2.8139999
6.283 3.0610001 2.823
6.2740002 3.0699999 2.803
6.2519999 3.089 2.777
6.2930002 3.053 2.7880001
6.2550001 3.0869999 2.7520001
6.263 3.0799999 2.744
6.2540002 3.0880001 2.7249999
6.244 3.098 2.7060001
6.2610002 3.082 2.7030001
6.2480001 3.095 2.6819999
6.2470002 3.095 2.6689999
6.2540002 3.089 2.6589999
6.2610002 3.0829999 2.6500001
6.2589998 3.085 2.6359999
6.2810001 3.0650001 2.6359999
6.263 3.082 2.612
6.27 3.076 2.6029999
6.263 3.082 2.586
6.302 3.0469999 2.595
6.302 3.0469999 2.582
6.2919998 3.056 2.563
6.2779999 3.069 2.543
6.2709999 3.075 2.526
6.2709999 3.076 2.513
6.2540002 3.0910001 2.4909999
6.2399998 3.1040001 2.47
6.257 3.089 2.467
6.2470002 3.098 2.448
6.2470002 3.098 2.4360001
6.2470002 3.098 2.4230001
6.25 3.096 2.4119999
6.2589998 3.0880001 2.404
6.256 3.0910001 2.3889999
6.256 3.092 2.3759999
6.257 3.0910001 2.3640001
6.2389998 3.1070001 2.3429999
6.2069998 3.135 2.3139999
6.211 3.1329999 2.303
6.2309999 3.1140001 2.3010001
6.2519999 3.096 2.2980001
6.2579999 3.0910001 2.289
6.2579999 3.0910001 2.276
6.2649999 3.085 2.267
6.2719998 3.079 2.2579999
6.2740002 3.0769999 2.247
6.2529998 3.096 2.224
6.2550001 3.0940001 2.2119999
6.2509999 3.098 2.198
6.2600002 3.0899999 2.1900001
6.257 3.0929999 2.1760001
6.2680001 3.0840001 2.168
6.243 3.1059999 2.1440001
6.2589998 3.092 2.1389999
6.2620001 3.0899999 2.128
6.2610002 3.0910001 2.115
6.27 3.082 2.1070001
6.2490001 3.102 2.085
6.2659998 3.0869999 2.0810001
6.2610002 3.0910001 2.066
6.2709999 3.0829999 2.0580001
6.2540002 3.098 2.0380001
6.2529998 3.099 2.026
6.2490001 3.1029999 2.0120001
6.2579999 3.0940001 2.0039999
6.25 3.102 1.988
6.257 3.096 1.978
6.263 3.0910001 1.969
6.256 3.0969999 1.954
6.2620001 3.092 1.944
6.25 3.102 1.927
6.256 3.098 1.9170001
6.2589998 3.095 1.906
6.2550001 3.098 1.893
6.2600002 3.0940001 1.883
6.256 3.098 1.869
6.256 3.098 1.857
6.2480001 3.1059999 1.841
6.2579999 3.0969999 1.8329999
6.257 3.098 1.821
6.263 3.0929999 1.811
6.2620001 3.0940001 1.799
6.257 3.098 1.785
6.2589998 3.096 1.774
6.2610002 3.095 1.763
6.263 3.0929999 1.751
6.2589998 3.0969999 1.738
6.2579999 3.098 1.726
6.2639999 3.0940001 1.716
6.2659998 3.092 1.705
6.2620001 3.096 1.691
6.263 3.0940001 1.6799999
6.2589998 3.099 1.666
6.2579999 3.099 1.654
6.257 3.1010001 1.642
6.2680001 3.0910001 1.6339999
6.2610002 3.098 1.619
6.256 3.102 1.6059999
6.2649999 3.0940001 1.597
6.257 3.1010001 1.5829999
6.2589998 3.099 1.572
6.2540002 3.1040001 1.558
6.2529998 3.1059999 1.546
6.2610002 3.098 1.5369999
6.2639999 3.096 1.526
6.2589998 3.0999999 1.513
6.2750001 3.086 1.506
6.2670002 3.0940001 1.492
6.2620001 3.098 1.479
6.2709999 3.0899999 1.47
6.2729998 3.0880001 1.459
6.257 3.1029999 1.442
6.2620001 3.099 1.432
6.2579999 3.102 1.419
6.2670002 3.095 1.41
6.2540002 3.1059999 1.3940001
6.2639999 3.098 1.386
6.2680001 3.0940001 1.375
6.2540002 3.1070001 1.36
6.2610002 3.1010001 1.35
