ply
format ascii 1.0
comment PCL generated
element vertex 509
property float x
property float y
property float z
element camera 1
property float view_px
property float view_py
property float view_pz
property float x_axisx
property float x_axisy
property float x_axisz
property float y_axisx
property float y_axisy
property float y_axisz
property float z_axisx
property float z_axisy
property float z_axisz
property float focal
property float scalex
property float scaley
property float centerx
property float centery
property int viewportx
property int viewporty
property float k1
property float k2
end_header
22.585167 10.785128 0.014833335
22.647659 10.78219 0.015839627
22.711845 10.786422 0.014473686
21.693832 10.859168 0.0071666664
21.75905 10.85796 0.041715868
21.850868 10.8682 0.049079999
21.939299 10.881089 0.056294441
22.011572 10.875857 0.088857144
22.582329 10.841475 0.058975
22.650787 10.832971 0.06487684
22.716843 10.847188 0.053609379
21.687 10.963 0.001
21.736263 10.95379 0.047315788
21.964334 10.906777 0.051277775
22.004999 10.9 0.094999999
22.578266 10.951068 0.061666671
22.612202 10.926801 0.026000002
22.764721 10.941917 0.050559759
22.823868 10.942272 0.051453803
23.579329 10.946553 0.074413806
23.650501 10.93961 0.050869759
23.746908 10.934894 0.049319796
23.819408 10.939546 0.023340909
21.8405 11.01775 0.035500001
22.577856 11.046856 0.038714286
22.834 11.044 0.045000002
23.571934 11.029413 0.066931032
23.614714 11.022285 0.018999999
22.588667 11.158501 0.03475
22.6 11.16 0.037
22.584 11.217 0.052500002
22.738001 11.216 0.072999999
21.78896 10.856998 0.1148
21.853258 10.867865 0.14521395
21.951057 10.876589 0.15003598
22.030851 10.885846 0.16019209
22.1 10.897 0.19499999
22.589149 10.884446 0.11777781
22.65312 10.881634 0.11731254
22.708286 10.887286 0.10828573
21.7778 10.9624 0.1139
21.818335 10.948733 0.15813336
21.988001 10.901 0.199
22.044533 10.912361 0.15405554
22.579779 10.939111 0.15737362
22.650284 10.926467 0.16607574
22.749941 10.942937 0.15086146
22.822397 10.945353 0.14861205
23.483156 10.943423 0.1795263
23.552395 10.939211 0.15269482
23.647148 10.9347 0.15026434
23.724863 10.933152 0.1300548
21.878 11.022143 0.1417143
22.063999 11.024 0.176
22.581001 11.059643 0.14564286
23.475 11.030999 0.17660001
23.520084 11.029083 0.1305
23.651001 11.0805 0.17200001
22.580168 11.138334 0.122
22.651669 11.149666 0.16433333
22.712 11.184 0.109
22.802 11.139 0.185
21.880951 10.870907 0.22553124
21.95084 10.872559 0.24888335
22.048332 10.882161 0.25074172
22.118687 10.888409 0.26462293
23.432499 10.898001 0.2225
21.876717 10.952501 0.23121431
21.923498 10.945626 0.28312501
22.084091 10.91209 0.22536363
22.130997 10.910438 0.26678044
22.588633 10.950136 0.24036537
22.648123 10.940837 0.25069636
22.749369 10.946749 0.24945092
22.821657 10.946051 0.24700001
23.38427 10.943911 0.2860606
23.454145 10.938671 0.25374383
23.549166 10.936909 0.25055644
23.625538 10.935019 0.23576371
21.899 11.03 0.22499999
21.9202 11.015 0.24720001
22.034332 11.029667 0.24533334
22.575804 11.036753 0.25577503
22.607 11.0245 0.27599999
23.383057 11.026 0.27761111
23.427961 11.027809 0.2311154
23.618336 11.073001 0.23966669
22.58729 11.126287 0.26057145
22.764 11.153999 0.24833333
22.8125 11.1415 0.2755
23.638 11.1 0.243
21.973135 10.875499 0.33443746
22.047674 10.882284 0.35034055
22.139637 10.888525 0.35645902
22.21382 10.892818 0.37736359
21.966183 10.947454 0.34245455
22.058311 10.91575 0.34981248
22.163664 10.910052 0.34230003
22.213938 10.918485 0.37448382
22.593 10.941974 0.34800002
22.648989 10.944058 0.34914926
22.748549 10.948147 0.34844199
22.818773 10.949033 0.35196492
23.290916 10.954668 0.38933334
23.354618 10.942494 0.3569155
23.447966 10.939073 0.35036296
23.531933 10.938663 0.33699319
21.9618 11.014601 0.34940001
22.080334 11.027334 0.35166666
22.153999 11.06 0.352
22.578461 11.033172 0.34768295
22.605499 11.042 0.36199999
22.860655 11.072615 0.34284616
23.287361 11.036572 0.38671431
23.334112 11.034485 0.33542857
22.584457 11.121819 0.35300002
22.608999 11.143 0.375
22.778999 11.16 0.35699999
22.838333 11.132668 0.3506667
21.997 10.886 0.40400001
22.062799 10.881874 0.43932322
22.147749 10.886662 0.45023873
22.234776 10.89125 0.45882502
22.303001 10.8895 0.48650002
22.054537 10.931133 0.45266673
22.168764 10.903765 0.44432354
22.247532 10.911925 0.45401508
22.307552 10.917 0.48777777
22.592022 10.95189 0.451087
22.650326 10.943732 0.44829795
22.748713 10.949898 0.44893464
22.820833 10.947024 0.44780341
23.193501 10.9585 0.49700001
23.260077 10.947499 0.45756856
23.349482 10.94089 0.44974482
23.437464 10.940354 0.43847317
23.504202 10.9512 0.40760002
22.052198 11.009601 0.456
22.160336 11.048334 0.43833336
22.221001 11.048 0.46000001
22.578936 11.041534 0.44450003
22.6045 11.063499 0.4285
22.843 11.005 0.48100001
23.196499 11.025999 0.49200001
23.240437 11.037031 0.44393748
22.588335 11.127333 0.44688886
22.784 11.163 0.45300001
22.829 11.146 0.43900001
22.089287 10.881857 0.50978565
22.15303 10.886884 0.54335678
22.239178 10.891406 0.55459988
22.329062 10.895375 0.57024997
22.084 10.968333 0.51666665
22.156515 10.915219 0.54978043
22.26025 10.907579 0.54671204
22.335865 10.918612 0.55941379
22.591269 10.946229 0.54663634
22.648844 10.944075 0.55074918
22.749523 10.950206 0.54934204
22.821798 10.946353 0.54920346
23.164738 10.949036 0.5599817
23.249405 10.941313 0.54951483
23.340992 10.940837 0.54109234
23.410456 10.947728 0.51018178
22.1175 11.01875 0.54750001
22.204 11.061 0.54000002
22.576406 11.040936 0.55509371
22.604 11.07 0.50700003
23.14633 11.031851 0.55209094
23.351 11.083 0.56900001
22.584835 11.116335 0.54050004
22.623669 11.1385 0.55516666
22.833 11.1545 0.53050005
22.183428 10.886287 0.6232571
22.251421 10.891039 0.64689434
22.335699 10.8938 0.6529001
22.448 10.898 0.69400001
22.186266 10.925733 0.62580001
22.250765 10.908739 0.65238887
22.352314 10.914338 0.64956039
22.425131 10.926591 0.66755891
22.590639 10.945067 0.65211374
22.649866 10.945064 0.64989787
22.74913 10.950215 0.64934331
22.820473 10.948387 0.64887911
23.068739 10.951989 0.6661101
23.14942 10.945563 0.64896327
23.242472 10.940328 0.64465719
23.310198 10.944468 0.61540008
22.175499 11.0175 0.64399999
22.242401 11.0294 0.67020005
22.575516 11.040483 0.64599997
22.601999 11.068 0.61199999
23.056269 11.034801 0.65466666
23.104336 11.029333 0.60266674
22.578444 11.121889 0.64633334
22.650749 11.141001 0.64674997
22.816 11.1665 0.64399999
22.268894 10.891342 0.73407894
22.332869 10.893914 0.75065941
22.431999 10.897 0.792
22.277742 10.912967 0.73381031
22.353371 10.911528 0.74990994
22.449682 10.923903 0.75122529
22.557024 10.944987 0.76040447
22.648785 10.943933 0.75035834
22.748163 10.949775 0.75072372
22.822168 10.951786 0.74733979
22.974087 10.949296 0.76957893
23.049742 10.94437 0.7500034
23.146688 10.944279 0.74636161
23.216734 10.949646 0.72073525
22.263 11.008 0.73500001
22.3085 11.0245 0.76749998
22.571239 11.034905 0.75161898
22.608999 11.073 0.73799998
22.829401 11.022401 0.778
22.964001 11.028241 0.75797296
23.007221 11.037 0.70944434
22.585835 11.129333 0.75383329
22.643667 11.144 0.75533336
22.834 11.168 0.74000001
22.350155 10.894387 0.83369231
22.442001 10.896456 0.85836369
22.369213 10.915886 0.84133118
22.450117 10.919019 0.84926629
22.546265 10.938359 0.850954
22.64863 10.945806 0.84989703
22.749821 10.949379 0.84918505
22.843355 10.953408 0.86112833
22.9506 10.946631 0.85055566
23.048111 10.942492 0.84796017
23.121828 10.950039 0.82550967
22.296 11.013 0.80299997
22.345251 11.03075 0.84449995
22.569859 11.036859 0.83435708
22.85553 11.034863 0.8560909
22.914158 11.025617 0.81653845
22.589001 11.117 0.83466673
22.608002 11.133667 0.88499999
22.809502 11.176001 0.83449996
22.384001 10.899 0.89999998
22.445402 10.895201 0.94910002
22.5275 10.896999 0.95899999
22.394169 10.909334 0.90933335
22.456804 10.919172 0.94154471
22.550806 10.927847 0.9483211
22.649361 10.947613 0.94970888
22.748737 10.952579 0.9493857
22.848938 10.948501 0.94931847
22.949001 10.942056 0.94806832
23.025963 10.94842 0.92888623
22.368 11.009 0.90600002
22.424833 11.025 0.94516671
22.646999 11.004 0.96200001
22.783001 11.0042 0.98359996
22.831373 11.026001 0.91012502
23.030001 11.013 0.96700001
22.586 11.124001 0.97150004
22.608 11.128 0.935
22.802 11.181 0.93000001
22.502001 10.888 1.031
22.627197 10.8887 1.08245
22.793335 10.893001 1.0806668
22.809248 10.89325 1.0717499
22.486053 10.927868 1.0187566
22.551739 10.92668 1.0468477
22.649813 10.932555 1.0466192
22.749168 10.944474 1.04904
22.851952 10.939528 1.0452112
22.93067 10.942888 1.0311636
22.465 11.026 1.016
22.525145 11.034857 1.0628573
22.747 11.002334 1.0146668
22.5765 11.13225 1.046
22.602001 11.1085 1.0475
22.577009 10.935296 1.1401428
22.651434 10.926763 1.1505861
22.749582 10.936639 1.149413
22.834143 10.940132 1.1379716
22.584299 11.046401 1.1501001
22.6 11.071 1.196
22.59375 11.126501 1.159
22.602001 11.127501 1.1595
22.587137 10.950262 1.2432153
22.649017 10.934904 1.2498333
22.748198 10.936458 1.2505107
22.812395 10.947763 1.2487627
22.580536 11.038135 1.2642667
22.601 11.07 1.234
22.830145 11.014928 1.2585715
22.5956 11.123401 1.2572001
22.604 11.107 1.2079999
22.587076 10.950131 1.3538115
22.647181 10.942663 1.3491592
22.750635 10.944436 1.3496435
22.811489 10.957623 1.3475333
22.576696 11.035384 1.348423
22.609501 11.035 1.3655
22.828001 11.0125 1.3128333
22.590248 11.108999 1.34525
22.624334 11.151335 1.3486667
22.586931 10.953684 1.449375
22.649549 10.942568 1.449445
22.749445 10.946749 1.4486532
22.808069 10.959045 1.4502727
22.57325 11.05025 1.4514999
22.601 11.052999 1.477
22.837614 11.065676 1.4602153
22.586334 11.116835 1.4475
22.613998 11.150499 1.4790001
22.849344 11.138827 1.4508621
22.587372 10.950125 1.5473335
22.647875 10.944857 1.5510087
22.749159 10.94973 1.5493435
22.816292 10.953816 1.5500848
22.573999 11.036239 1.5472858
22.602001 11.033 1.5355
22.840668 11.070168 1.5187666
22.5814 11.114 1.5554
22.618999 11.151501 1.5545
22.856913 11.138043 1.5357826
22.585983 10.952533 1.6496761
22.649284 10.944366 1.6499032
22.750782 10.947834 1.6487256
22.815166 10.950455 1.6512339
22.574751 11.053542 1.644875
22.6 11.035 1.646
22.579384 11.123385 1.6486152
22.617001 11.1415 1.6535001
22.586802 10.949572 1.7495538
22.648504 10.94214 1.7502667
22.748732 10.946886 1.7498462
22.814674 10.95193 1.7489156
22.572519 11.04048 1.7482399
22.612 11.038 1.7970001
22.573357 11.122786 1.7474287
22.585413 10.948012 1.8472363
22.648298 10.93957 1.8486592
22.748781 10.94684 1.8492584
22.814747 10.94766 1.847373
22.56846 11.041117 1.8506539
22.608 11.064001 1.8496666
22.575888 11.127335 1.8562222
22.606001 11.113 1.835
22.585489 10.953685 1.9498234
22.650778 10.939735 1.9485345
22.749937 10.94731 1.9477973
22.814169 10.948146 1.9524424
22.572716 11.031216 1.9477144
22.603001 11.079 1.9530001
22.813 11.04 1.949
22.577091 11.12709 1.9492728
22.584267 10.950315 2.0481839
22.648333 10.942178 2.0500276
22.748753 10.946376 2.0488834
22.814512 10.951176 2.0490322
22.56996 11.041084 2.045125
22.6056 11.0586 2.0604
22.580536 11.124462 2.055923
22.605 11.152 2.0610001
22.580885 10.951869 2.1531618
22.650604 10.943032 2.1488655
22.751917 10.947716 2.1502225
22.814283 10.951174 2.1507068
22.567097 11.044002 2.1373811
22.605335 11.032333 2.1383336
22.580374 11.125751 2.1620002
22.581144 10.874517 2.2768328
22.649429 10.878355 2.2776313
22.715195 10.879694 2.279731
22.575651 10.944475 2.2406371
22.648708 10.927218 2.2335203
22.748339 10.940584 2.2469344
22.810894 10.950091 2.2493753
22.559084 11.034344 2.248143
22.586834 11.143667 2.2446666
22.605667 11.128 2.2620001
22.581751 10.777143 2.3727782
22.644815 10.776633 2.3760629
22.713299 10.781967 2.3817337
22.578091 10.834597 2.3351347
22.651623 10.832288 2.3313501
22.714443 10.838576 2.3371918
22.57585 10.945951 2.3502502
22.763969 10.942725 2.3488879
22.811954 10.951298 2.3472977
22.576525 11.040428 2.3484285
22.629 11.013 2.3940001
22.581446 11.127334 2.3557777
22.613001 11.156 2.3640001
22.725 11.193 2.391
22.577438 10.67352 2.4741685
22.646942 10.675546 2.4765997
22.712431 10.682865 2.4764328
22.579559 10.737734 2.4339492
22.652153 10.730015 2.4297009
22.713104 10.7372 2.4319999
22.570683 10.845534 2.4409642
22.731834 10.829166 2.434
22.578461 10.945692 2.4430001
22.764723 10.942181 2.4481688
22.810444 10.953232 2.4518378
22.547813 11.063311 2.4614768
22.577364 11.14991 2.4489999
22.601 11.154 2.401
22.617001 11.211 2.4460001
22.577682 10.575023 2.574321
22.648609 10.57474 2.5760164
22.710461 10.57837 2.5796859
22.575722 10.632659 2.5325863
22.651121 10.629266 2.5272653
22.720703 10.640771 2.5437405
22.568129 10.750479 2.5366521
22.603001 10.746 2.5610001
22.725 10.705 2.5179999
22.577909 10.829364 2.529182
22.726999 10.886 2.5250001
22.583801 10.978601 2.5503001
22.629999 10.955 2.5525
22.763685 10.946321 2.5503035
22.81061 10.951941 2.5512154
22.572428 11.043501 2.5390716
22.601999 11.041 2.55
22.576708 11.150705 2.5469999
22.562729 11.235726 2.5664546
22.636999 11.237 2.52
22.574749 10.48445 2.662775
22.646553 10.486893 2.6610453
22.712183 10.489182 2.6647277
22.574587 10.530694 2.6323922
22.650358 10.526873 2.6276472
22.720142 10.547925 2.6450491
22.567652 10.650434 2.6410868
22.605 10.698 2.6960001
22.736176 10.622913 2.6200871
22.576714 10.73343 2.6348572
22.59 10.802 2.612
22.574749 10.97525 2.6575
22.652 10.964667 2.6393332
22.764107 10.948309 2.6488984
22.809813 10.955697 2.6527276
22.578547 11.036182 2.6468182
22.612 11.005 2.664
22.569231 11.147539 2.6585383
22.611 11.157 2.6289999
22.567202 11.2434 2.6441
22.614 11.273 2.632
22.555 11.312 2.681
22.58242 10.37475 2.7767501
22.645355 10.372765 2.7757647
22.7075 10.3805 2.7739999
22.571732 10.442116 2.7464616
22.652227 10.430228 2.7265458
22.718363 10.440365 2.7452726
22.565477 10.550567 2.7437394
22.737335 10.5425 2.7110002
22.573374 10.63975 2.7231252
22.571201 10.975901 2.7522001
22.656334 10.948168 2.7541666
22.76911 10.948611 2.7451026
22.807627 10.957845 2.7499378
22.571812 11.037562 2.7526252
22.571869 11.146667 2.744267
22.570545 11.256001 2.7341816
22.614 11.234 2.7449999
22.567501 11.327499 2.7160001
22.573729 10.277182 2.8806367
22.655432 10.269668 2.87481
22.7106 10.2672 2.8783998
22.571516 10.346656 2.8398278
22.645153 10.327899 2.8276501
22.720455 10.341545 2.8411818
22.563463 10.441385 2.8494616
22.730999 10.4125 2.8105001
22.563869 10.531734 2.8380001
22.614 10.549 2.846
22.566248 10.973186 2.8445001
22.666601 10.9473 2.8540001
22.770416 10.949495 2.8509691
22.807602 10.961959 2.83604
22.57489 11.045667 2.8517778
22.610001 11.043 2.8929999
22.57325 11.135375 2.8433747
22.569143 11.254429 2.8344285
22.612499 11.2155 2.859
22.552858 11.378572 2.8457143
22.554001 11.434 2.8730001
22.725 11.474 2.8870001
22.578308 10.174462 2.974154
22.645868 10.177176 2.9709997
22.706858 10.175858 2.9755716
22.568996 10.244297 2.9474816
22.648666 10.2308 2.9232004
22.712999 10.241625 2.94525
22.56675 10.346562 2.9467499
22.727333 10.317667 2.9293334
22.557003 10.441084 2.9408336
22.556726 10.969182 2.9595001
22.671751 10.9475 2.9581251
22.770739 10.939566 2.9494109
22.811737 10.960367 2.977
22.537054 11.051 2.9678423
22.816942 11.035796 2.9722357
22.567333 11.127334 2.9406669
22.561666 11.253 2.9343333
22.693001 11.262 2.95
22.5534 11.3548 2.9487998
22.554998 11.459999 2.9546669
0 0 0 1 0 0 0 1 0 0 0 1 0 0 0 0 0 509 1 0 0
