ply
format ascii 1.0
comment PCL generated
element vertex 691
property float x
property float y
property float z
element camera 1
property float view_px
property float view_py
property float view_pz
property float x_axisx
property float x_axisy
property float x_axisz
property float y_axisx
property float y_axisy
property float y_axisz
property float z_axisx
property float z_axisy
property float z_axisz
property float focal
property float scalex
property float scaley
property float centerx
property float centery
property int viewportx
property int viewporty
property float k1
property float k2
end_header
9.5725002 2.6965001 0.0079999994
9.6603336 2.6923332 0.0053333333
9.4639997 2.7179999 0.0040000002
9.551115 2.7583382 0.040816899
9.6643152 2.746314 0.052085713
9.7138462 2.7513847 0.042615391
9.5521564 2.8507831 0.050240964
9.6955996 2.8232 0.050999999
9.7089596 2.8467088 0.050416671
9.5644503 2.9484017 0.053586204
9.6601238 2.943125 0.04425
9.7761021 2.9434083 0.053836729
9.8025999 2.9542 0.058400001
9.5662165 3.0519395 0.050240967
9.6228018 3.0267999 0.054200001
9.7895336 3.0514004 0.054099999
9.8050776 3.0545382 0.046692308
9.5628462 3.1495297 0.051670603
9.6901665 3.1315 0.064500004
9.7263355 3.1504819 0.049111109
9.802 3.1029999 0.071999997
9.566143 3.24471 0.051724646
9.6648827 3.2616179 0.062382348
9.708786 3.2333572 0.030428573
9.5750914 3.3170002 0.026727274
9.6455336 3.314667 0.02086667
9.5568008 2.7898002 0.1098
9.6480007 2.791625 0.11337499
9.7069998 2.789 0.111
9.5531511 2.8541501 0.14306849
9.664876 2.8422809 0.15237498
9.7169333 2.8478003 0.14360002
8.8456087 2.9846826 0.14956099
8.9123335 2.9873333 0.17366666
9.5546989 2.9476898 0.14994253
9.691 2.9137499 0.1455
9.775588 2.9453261 0.14754349
9.8010006 2.9575 0.14300001
8.8755283 3.0460589 0.13729413
8.9138565 3.0499289 0.1757143
9.560853 3.0487475 0.15211496
9.6000004 3.0179999 0.12899999
9.7858324 3.0480554 0.15336111
9.8046265 3.0805001 0.14500003
10.504001 3.0543334 0.10700001
10.687 3.0579998 0.18400002
8.7456398 3.1351635 0.15501636
8.9198465 3.1278462 0.17861539
9.5603352 3.1489542 0.15048274
9.6747732 3.1638639 0.15722728
9.7401171 3.126353 0.15000001
10.374 3.112 0.185
10.459889 3.1100001 0.16150001
10.552479 3.1143916 0.14682612
9.5715151 3.2226365 0.13275759
9.6470375 3.224148 0.13737038
9.5618324 2.8915002 0.222
9.6538 2.8840001 0.21159999
9.7250004 2.8770001 0.20899999
8.8513613 2.9879718 0.25019443
8.9413548 2.9851933 0.25732261
9.0564995 2.9712501 0.26475
9.1528339 2.9571667 0.25433335
9.24825 2.9456251 0.25400001
9.3623333 2.9351668 0.25083333
9.451499 2.929625 0.25225002
9.5577717 2.9459455 0.24916305
9.6519547 2.9173634 0.25168186
9.7675552 2.939389 0.25218517
9.8234005 2.9615002 0.24080001
9.9503336 2.9326668 0.24200001
10.063334 2.9303336 0.24333334
10.143001 2.9322 0.2386
10.2425 2.9408753 0.238625
10.364028 2.9722285 0.25462857
10.440969 2.9629688 0.24340622
10.638419 2.9640002 0.24264516
10.743 2.9520001 0.24599999
8.7502089 3.0487428 0.25315249
8.8075724 3.0242858 0.278
8.9597502 3.0479059 0.24190626
9.0137997 3.043 0.28099999
9.5559654 3.0480585 0.24913955
9.7903461 3.0479996 0.25410345
9.8047781 3.0674446 0.2317778
10.36078 3.0426998 0.25905997
10.409819 3.0537274 0.21263637
10.590667 3.0628333 0.29383332
10.643055 3.0434325 0.24708107
8.6859999 3.138 0.208
8.7591991 3.1315262 0.24840792
8.8528786 3.1423905 0.25148782
8.9491472 3.1308041 0.24751216
9.0081244 3.1270001 0.27787501
9.5678186 3.1360652 0.23834422
9.6475029 3.1340835 0.25336114
9.7536669 3.1128056 0.25119448
9.8078003 3.1087997 0.24780002
10.36245 3.1171501 0.26640004
10.445591 3.1175911 0.24945454
10.553345 3.1147308 0.2542308
10.6257 3.1093001 0.2316
8.7910004 2.9990001 0.31400001
8.8670626 2.9931877 0.34037501
8.9554224 2.9890306 0.34545454
9.0272942 2.9866471 0.35911766
9.5597448 2.9521348 0.34996626
9.6463442 2.9239316 0.34782758
9.770916 2.9453197 0.35104254
9.8059998 2.9460001 0.34200001
10.274653 2.9788461 0.36411539
10.345599 2.9697433 0.34565717
10.445346 2.960731 0.34465387
10.537128 2.9661283 0.34438458
8.7922993 3.0558002 0.31440002
8.8387718 3.0469542 0.35567045
8.9489994 3.0019999 0.3425
9.0494051 3.0491664 0.35133332
9.5618973 3.0490685 0.34960911
9.7910461 3.0523901 0.34956095
9.8010006 3.0465002 0.33999997
10.268072 3.0448577 0.36747614
10.313886 3.046385 0.3183077
10.544849 3.0502427 0.35306063
8.7937508 3.1166251 0.3125
8.8502626 3.1348693 0.34907144
8.9521866 3.1429765 0.34804651
9.0459318 3.1321163 0.35739532
9.1079998 3.1329999 0.39700001
9.5716143 3.1195679 0.3513636
9.6487198 3.1202824 0.34774363
9.7564735 3.1136661 0.34550002
9.8084288 3.1162858 0.3451429
10.175 3.122 0.39199999
10.270563 3.1214375 0.36750001
10.349668 3.1241667 0.34703335
10.453157 3.1199999 0.35800001
10.531124 3.1160626 0.34012496
8.8979998 2.9920001 0.403
8.956233 2.9928672 0.43776667
9.0531387 2.9898968 0.44655171
9.1252499 2.9925001 0.46325004
9.5588255 2.9523377 0.44835004
9.6461382 2.9271724 0.44817245
9.7606182 2.9459052 0.44985709
9.8170004 2.9318333 0.4481667
10.1771 2.9831002 0.47529998
10.244413 2.9779024 0.44575602
10.360612 2.9651937 0.44696769
10.453323 2.9685881 0.44455886
10.503 2.9879999 0.41
8.8842716 3.0521517 0.42060602
8.9291639 3.0492947 0.46552458
9.075778 3.0307777 0.42966667
9.1340313 3.0474379 0.45890623
9.5609636 3.0482125 0.45036474
9.6140003 3.003 0.46399999
9.7883329 3.0487881 0.44981819
9.8041668 3.0379999 0.44433331
10.1805 3.0439587 0.4731667
10.221001 3.046931 0.42562068
10.459429 3.0504572 0.45445716
10.50525 3.0562501 0.41050002
8.8851118 3.1332223 0.41516668
8.9411001 3.1386757 0.45383093
9.0495663 3.1436217 0.44718924
9.1303949 3.1345456 0.45984852
9.2080002 3.1240001 0.48199999
9.5697546 3.1200004 0.44495559
9.6477499 3.1205361 0.45207134
9.7637348 3.1173668 0.45306668
9.8053999 3.1122003 0.42220002
10.171401 3.1238 0.4765
10.24488 3.1269693 0.44445455
10.355418 3.1279998 0.45029163
10.447264 3.117579 0.441421
8.9689999 2.9979999 0.523
9.0589294 2.9935715 0.53935719
9.1447706 2.9925773 0.55403852
9.2065001 2.9958334 0.55533338
9.5593891 2.9578714 0.54761416
9.6485844 2.9290419 0.5521667
9.7577085 2.9402919 0.55091667
9.8222504 2.934 0.53275001
10.093334 2.9856668 0.58266664
10.148128 2.9819489 0.54776919
10.251781 2.9704063 0.54740632
10.354714 2.9720004 0.54800004
10.411201 2.9714 0.50960004
8.9755087 3.0480647 0.53022224
9.0247498 3.0387704 0.57145828
9.1713581 3.0379999 0.52414292
9.2236471 3.0444705 0.56411767
9.5588884 3.0480111 0.54888642
9.7900391 3.0608799 0.54939997
9.8039999 3.0809999 0.57500005
10.083918 3.051167 0.58458334
10.127433 3.045892 0.53651351
10.36573 3.0490773 0.56623077
10.411547 3.0482731 0.51609093
8.9765272 3.1289213 0.52713162
9.0393877 3.1457314 0.55580586
9.147295 3.1427503 0.54695463
9.2283506 3.1303003 0.56140006
9.569458 3.1201429 0.54717135
9.6481676 3.1239998 0.54488891
9.7476673 3.1214814 0.55488884
9.8050003 3.1099999 0.51599997
10.083099 3.1224 0.58389997
10.144323 3.1283545 0.54474181
10.24161 3.1306958 0.54978257
10.347289 3.1232579 0.5493871
10.407 3.1040001 0.50300002
9.0640001 2.9955001 0.61150002
9.1443853 2.9953077 0.63676924
9.2365379 2.9931157 0.65273088
9.3080006 2.993 0.68099999
9.5623817 2.9582336 0.64872336
9.6456242 2.9339998 0.65108329
9.7515583 2.9412503 0.6503461
9.8000002 2.994 0.68000001
9.9799995 2.9990001 0.69499999
10.063044 2.9863749 0.64716673
10.149857 2.977572 0.64892864
10.252028 2.9717953 0.64864105
10.316999 2.9765 0.618375
9.0658979 3.0484872 0.64043593
9.1253548 3.0212576 0.67138708
9.2662497 3.0367501 0.62599987
9.3150005 3.0669999 0.67625004
9.5583467 3.044014 0.64647228
9.7854996 3.0584373 0.64281243
9.8649998 3.096 0.65100002
9.9886246 3.0487504 0.67624998
10.041352 3.0487838 0.63599998
10.277001 3.0473332 0.66823816
10.317751 3.0605831 0.62241668
9.0692453 3.1331408 0.63821048
9.1389637 3.1465845 0.65784907
9.2528601 3.1413999 0.64781994
9.3240013 3.1280911 0.67645454
9.5672922 3.1231248 0.6532917
9.6472731 3.1297271 0.65213633
9.7468081 3.1231925 0.65011549
9.8306675 3.1046667 0.65266669
9.9910002 3.1233335 0.68166673
10.043595 3.1329188 0.65297306
10.1474 3.1388502 0.65554994
10.247358 3.1273999 0.64895988
10.314144 3.1251428 0.62271428
9.1752005 2.9961998 0.72780007
9.2538671 2.9936666 0.73253345
9.3387642 2.9941766 0.76029414
9.564537 2.9570005 0.74782056
9.6411657 2.9406331 0.75103331
9.750349 2.9458838 0.74974424
9.8026676 2.9956665 0.74133337
9.9668884 2.9902222 0.76722223
10.045656 2.9850936 0.74399996
10.152702 2.9770002 0.75040543
10.224231 2.9753847 0.71946156
9.1542177 3.0497718 0.74633706
9.2484379 3.0074372 0.76849997
9.357501 3.036 0.7490499
9.4266663 3.0293331 0.77933329
9.5575361 3.0464387 0.74465847
9.7832499 3.032125 0.745875
9.8753338 3.0569999 0.74699998
9.9473572 3.0552504 0.74239278
10.173055 3.0424442 0.77788889
10.226056 3.0565553 0.72799999
9.1573238 3.1379116 0.74323529
9.2504444 3.1515555 0.75004447
9.3407249 3.142 0.75158608
9.4235001 3.1215 0.77249998
9.5660744 3.1276667 0.74962962
9.6485786 3.1329474 0.74794734
9.7491608 3.1254802 0.74379998
9.8401661 3.1085002 0.755
9.9555941 3.1323433 0.75371879
10.045159 3.1437368 0.75226319
10.154728 3.1342123 0.75272733
10.229401 3.1206999 0.72290003
9.260334 2.9973335 0.84300005
9.3639164 2.9944999 0.84333336
9.4283333 2.9949999 0.86466664
9.5626593 2.9641843 0.8497631
9.6470661 2.947161 0.84864503
9.7459993 2.9496861 0.85017139
9.8466663 2.9712222 0.85755557
9.9605236 2.9857621 0.85966665
10.05153 2.982059 0.85194123
10.121791 2.9794738 0.82489473
9.1903343 3.0686669 0.80500001
9.2440844 3.0454319 0.84826344
9.3438568 3.0033572 0.86014289
9.4344292 3.0098574 0.84800011
9.5548086 3.0278571 0.84414285
9.7765007 3.0107501 0.85325003
9.8570004 3.011375 0.84424996
9.9115 3.0479999 0.84799999
10.084777 3.0449998 0.88400006
10.126479 3.0512612 0.8390435
9.1945 3.128 0.80199999
9.24652 3.1398859 0.8440128
9.3464813 3.1497035 0.84737051
9.4450006 3.1326876 0.85443747
9.561903 3.1281612 0.85206455
9.6481905 3.137238 0.84428573
9.7452307 3.1335771 0.84853858
9.8602686 3.137346 0.85353857
9.9472151 3.144964 0.84489286
10.06075 3.1360004 0.8592
10.127191 3.128381 0.83647609
9.3505726 2.9950001 0.93428576
9.4644547 2.9959998 0.96500003
9.5639009 2.9669504 0.94655019
9.6568499 2.9515758 0.94984853
9.7479057 2.9541247 0.94468743
9.8537054 2.9816473 0.95017648
9.9594803 2.9841855 0.95644444
10.033611 2.9851108 0.93511117
10.1 2.9860001 0.90100002
9.2843056 3.0536954 0.91186965
9.3369713 3.040782 0.9561016
9.4407511 3.0045834 0.96583331
9.5427341 3.0154665 0.94339997
9.7980003 3.006 0.93199998
9.8450003 3.007 0.93799996
9.9934998 3.0525 0.98500001
10.035735 3.0514667 0.94653326
9.2872505 3.1283336 0.9121666
9.3368044 3.1407502 0.95305371
9.4484358 3.1477828 0.95021737
9.5544443 3.1389263 0.94696307
9.6498423 3.1411581 0.94405258
9.7568369 3.1436772 0.95587081
9.8418951 3.1528952 0.94584215
9.942317 3.1458182 0.94550008
10.033583 3.1283751 0.944875
9.3809996 2.994 1.006
9.4640007 2.9984999 1.0434999
9.5617905 2.9712791 1.0473253
9.6438684 2.9533341 1.0480332
9.7500486 2.959707 1.0496827
9.8538332 2.9903333 1.0519167
9.9306555 2.9861925 1.043154
9.3755131 3.0520256 1.025564
9.4292927 3.0347416 1.0659654
9.5285616 3.0054998 1.0565001
9.7600002 3 1.027
9.9493141 3.0517187 1.0456562
9.3777943 3.1355865 1.0227932
9.436059 3.1412547 1.0611178
9.5426359 3.149636 1.0474092
9.6513472 3.1482694 1.0536155
9.7437782 3.1575925 1.0445185
9.8472786 3.150389 1.0489444
9.9420338 3.1320691 1.043069
9.4790001 2.9960001 1.1195
9.5562801 2.9721005 1.15582
9.646698 2.9547877 1.1488788
9.7436829 2.9533184 1.1491137
9.8340673 2.9877334 1.1476001
9.8999996 2.9890001 1.114
9.4711332 3.0532308 1.1371925
9.5261621 3.0318377 1.1694593
9.8592892 3.0480323 1.1479355
9.9066677 3.0710001 1.1063334
9.4738188 3.1361816 1.134023
9.5417042 3.1517501 1.1615
9.6458569 3.1622856 1.1433333
9.761241 3.1686397 1.1452
9.8522606 3.1350434 1.1419567
9.9189997 3.115 1.1059999
9.5821543 3.2160003 1.1540769
9.6210012 3.2194002 1.1515999
9.7716255 3.2089999 1.1426251
9.5543842 2.9738078 1.2494615
9.6434145 2.9615171 1.2564481
9.7479153 2.9610648 1.2457827
9.5457668 3.0504541 1.2496629
9.7804394 3.0433202 1.2555599
9.8103752 3.05075 1.207
9.5543756 3.1410124 1.2512988
9.6528101 3.1576667 1.2462382
9.757082 3.1441889 1.2531892
9.8181248 3.1372502 1.2088749
9.5559263 2.9778149 1.3495369
9.6467495 2.9659288 1.3525001
9.7479782 2.9666665 1.3504001
9.5491199 3.052598 1.3474892
9.7765303 3.0466471 1.347
9.5540142 3.1412852 1.3513634
9.651041 3.1616395 1.3495998
9.7611265 3.1407232 1.3478082
9.5581961 2.9791522 1.4481523
9.6488628 2.9700692 1.448069
9.7445984 2.9682 1.451775
9.5476103 3.0496416 1.4491632
9.7769709 3.0499704 1.4507941
9.5529518 3.1448638 1.4509999
9.6479998 3.1633701 1.450148
9.762826 3.1444499 1.4531752
9.5596972 2.980587 1.5474565
9.6514835 2.9715519 1.5456898
9.7451248 2.9677501 1.550725
9.5472956 3.0502238 1.5489571
9.7729416 3.0474112 1.5510885
9.5540676 3.1483552 1.5504225
9.651391 3.1672614 1.5482174
9.7649612 3.1512744 1.5510981
9.802 3.1589999 1.596
9.5603962 2.9819164 1.6461873
9.6484451 2.9750369 1.6495553
9.743474 2.9717369 1.6473157
9.5444489 3.0488853 1.6496456
9.7734203 3.0505788 1.6515791
9.553587 3.1515365 1.647866
9.6526203 3.1733103 1.6531725
9.7610826 3.1540136 1.6514999
9.5639496 2.9828465 1.747795
9.6445007 2.9795768 1.7488848
9.7419758 2.9762561 1.7496923
9.5460024 3.0512502 1.7496363
9.7688713 3.048744 1.7538977
9.5547695 3.1529908 1.7485868
9.6480293 3.177382 1.7511469
9.7601137 3.1563482 1.7503047
9.5373335 3.2033334 1.7493334
9.5611391 2.9872775 1.8469445
9.651741 2.9818707 1.8508385
9.7433815 2.9785476 1.8485953
9.5452204 3.0499496 1.8497397
9.7682056 3.0479095 1.8475912
9.5545959 3.1543272 1.8505297
9.6514874 3.1817813 1.8504388
9.7616529 3.1586816 1.8469999
9.5604115 2.9911177 1.9530296
9.653698 2.9848185 1.9474849
9.7416439 2.9812443 1.9508448
9.5423155 3.0472622 1.9487375
9.6029997 3 1.926
9.7702866 3.0506423 1.9448335
9.5547676 3.1557894 1.9485246
9.6529989 3.1831939 1.9504194
9.7603092 3.1622026 1.9485674
9.560667 3.201 1.9616668
9.6420002 3.207 1.96
9.561307 2.9920557 2.0484724
9.655611 2.9891117 2.0431948
9.7406759 2.9816251 2.0507247
9.5417128 3.0469997 2.0492952
9.6480007 3.0015001 2.0599999
9.7655449 3.0486958 2.0469565
9.549818 3.1579618 2.0468047
9.6495934 3.1892812 2.0478437
9.7603912 3.1644552 2.0508227
9.5614443 3.2028892 2.0640004
9.6424999 3.2035 2.0479999
9.7690001 3.2065001 2.0650001
9.56141 2.9925594 2.1561761
9.6524296 2.9917142 2.1488571
9.7408447 2.9846895 2.1475334
9.5415192 3.0461404 2.1478159
9.6543999 3.0049999 2.1424
9.7642403 3.049283 2.1490219
9.5466452 3.1534948 2.1493037
9.6525164 3.1918385 2.1504838
9.7614861 3.1655722 2.151443
9.5613756 3.2038753 2.1599584
9.6420002 3.2045 2.1498001
9.7495995 3.2035999 2.1434
9.549099 2.9890504 2.2601001
9.6480751 2.9849746 2.2561002
9.7416677 2.9880002 2.2449722
9.538166 3.0479741 2.2489212
9.637001 3.0033336 2.2458334
9.7650242 3.0499096 2.2480457
9.5371733 3.1490984 2.2506957
9.6566105 3.194 2.2400556
9.7641144 3.166934 2.2465079
9.8129997 3.1949999 2.2550001
9.5553627 3.2207589 2.2633104
9.6462078 3.2211378 2.2655172
9.7434998 3.2081668 2.2536669
9.5389996 2.8865004 2.389667
9.6273088 2.8874617 2.3857694
9.535574 2.9516244 2.350723
9.64431 2.9423456 2.3498902
9.7342005 2.9848998 2.3394501
9.4952002 3.0396001 2.345
9.5328522 3.0477371 2.3513126
9.6566668 3.0031669 2.3646667
9.7605 3.0438809 2.3507602
9.4866667 3.1863334 2.3353333
9.5334702 3.1506736 2.3488915
9.6875 3.1952498 2.35975
9.7703266 3.15453 2.346673
9.4890003 3.2033334 2.3390002
9.5414286 3.2524545 2.3471446
9.6646042 3.2650628 2.3432505
9.7266674 3.2409999 2.3393333
9.5544386 3.3259027 2.3756588
9.6461287 3.3271933 2.3769677
9.7023335 3.3153331 2.3753335
9.5672503 2.7940001 2.497
9.6237497 2.7893751 2.4917498
9.4976673 2.8653336 2.428
9.5315857 2.8527277 2.4568286
9.6343508 2.8478253 2.4515557
9.5276241 2.9480414 2.4463332
9.657445 2.9444439 2.4523337
9.7357779 2.9855559 2.4472222
9.5407743 3.0507114 2.4527316
9.6718006 3.0046 2.4582002
9.7578945 3.0483189 2.4516811
9.5445099 3.151329 2.4501593
9.68575 3.19625 2.4579999
9.7694902 3.1538668 2.4492667
9.538949 3.2506423 2.4506934
9.6782398 3.2607203 2.4524801
9.6999998 3.2649999 2.4635
9.5460854 3.3501165 2.4487996
9.6666107 3.362457 2.4402876
9.7034283 3.3742859 2.4455714
9.5618429 3.4220521 2.4749742
9.6511612 3.4250646 2.4765806
9.7103338 3.4320002 2.48
9.6269999 2.698 2.586
9.493556 2.7476666 2.5575554
9.5350904 2.7572656 2.5581832
9.6319208 2.7557001 2.5528595
9.5208578 2.847755 2.5499079
9.649127 2.8467996 2.5473752
9.5304041 2.9488916 2.5484407
9.6577387 2.9440787 2.545763
9.7360001 2.9960001 2.5653334
9.5413589 3.0493476 2.5500741
9.665555 3.0053334 2.5584445
9.7575102 3.0495102 2.5519998
9.5424862 3.1454539 2.5499582
9.6873341 3.1983333 2.5433335
9.7682705 3.1507027 2.550297
9.553854 3.2446744 2.5478673
9.6485987 3.2576396 2.5549998
9.7667503 3.2101252 2.560375
9.5404329 3.3495538 2.5498476
9.6844616 3.3519487 2.547256
9.5484753 3.4485354 2.5470097
9.6724625 3.4575965 2.5379419
9.7043343 3.4555552 2.5548334
9.5603065 3.5201542 2.57359
9.6474285 3.5214999 2.5734284
9.7066669 3.5200002 2.5787501
9.4967785 2.6643333 2.6652222
9.5335569 2.6658678 2.6582651
9.6294584 2.6613336 2.6598339
9.5160599 2.747632 2.646276
9.6440907 2.7469542 2.6471138
9.522728 2.8486598 2.6505713
9.6534042 2.8417377 2.6426666
9.5399551 2.9368844 2.6416235
9.6355629 2.9341877 2.6373751
9.5440512 3.0450857 2.6517112
9.6443901 3.0080557 2.6519444
9.7564182 3.0479398 2.6512396
9.5403833 3.1471524 2.6478586
9.6859999 3.1989999 2.642
9.767807 3.1515002 2.6472776
9.5562639 3.2149992 2.6512458
9.6471491 3.2131479 2.6525557
9.7560625 3.2103126 2.6609998
9.5496655 3.361645 2.6386664
9.6650572 3.3631432 2.6442573
9.6999998 3.348 2.6329999
9.5446138 3.4473565 2.6480503
9.6901846 3.4415557 2.6536295
9.7034626 3.4547694 2.643539
9.5553503 3.5505114 2.6475902
9.6602449 3.5631623 2.6292431
9.7110739 3.5519505 2.6528997
9.5679998 3.6191072 2.6763213
9.6497984 3.6221995 2.67716
9.717001 3.6275342 2.6812003
9.4939375 2.5635624 2.7732499
9.5383778 2.5711889 2.7626414
9.6228237 2.569412 2.7658825
9.4956665 2.6355555 2.7424445
9.5158691 2.6454804 2.7452898
9.6364479 2.6461701 2.7497869
9.4989996 2.7019999 2.743
9.5186014 2.7493877 2.7487042
9.6466665 2.7448575 2.7479997
9.5346079 2.8452444 2.7425115
9.6313095 2.833885 2.7413847
9.5430002 2.9226003 2.7151999
9.544837 3.0439913 2.7504182
9.6470709 3.0122752 2.7492757
9.7485275 3.0423815 2.7493272
9.5385256 3.1491644 2.7460415
9.7661867 3.1516275 2.7446046
9.5551491 3.215759 2.7517407
9.6443262 3.2165289 2.7513235
9.7530918 3.2128437 2.7522814
9.5558739 3.4615095 2.736146
9.6698923 3.4520001 2.743027
9.706625 3.4794998 2.740375
9.5526094 3.5481956 2.7484238
9.6927137 3.5333571 2.7658572
9.7085829 3.5523748 2.7410836
9.5606337 3.6498058 2.7489326
9.6518497 3.6726363 2.7323937
9.7177143 3.6496329 2.7488775
9.573761 3.7209525 2.7808096
9.6432867 3.719857 2.7780478
9.7192316 3.7190771 2.7852309
9.4900999 2.4794998 2.8722999
9.5399551 2.4765911 2.8697956
9.6185665 2.4729133 2.8720005
9.4922895 2.5436449 2.8508384
9.5223999 2.5438497 2.8406999
9.6327343 2.5467346 2.8432653
9.4964495 2.6252003 2.8454998
9.5138979 2.6547103 2.8507102
9.6442862 2.6467142 2.8525
9.53088 2.7466083 2.8446198
9.6311808 2.7414241 2.8461514
9.5477772 2.8126669 2.8123333
9.6205006 2.8069999 2.8060002
9.5550003 2.9879999 2.8699999
9.6719999 2.9979999 2.8510001
9.5440693 3.0436194 2.8495049
9.647562 3.0180933 2.8526878
9.7474022 3.0401051 2.8476667
9.5364857 3.1498992 2.8490198
9.7646484 3.1436484 2.8442705
9.5571785 3.2195797 2.8546801
9.64223 3.2227952 2.845
9.7474051 3.2138095 2.851238
9.8009996 3.2260001 2.8139999
9.5620003 3.494 2.8080001
9.6969995 3.4890001 2.816
9.5657225 3.5614445 2.8364444
9.6598654 3.5475948 2.8467035
9.7067652 3.5656469 2.8343527
9.5589008 3.6477127 2.8508894
9.6960011 3.6150002 2.8476667
9.714282 3.6501536 2.846385
9.565979 3.7459238 2.8522751
9.6419449 3.7660832 2.8297503
9.7216206 3.7515199 2.8520999
9.5798464 3.8126929 2.8789999
9.6461496 3.8123505 2.8804498
9.7166672 3.8243332 2.8930001
9.491889 2.3856668 2.9797776
9.5438671 2.3782666 2.9771333
9.6104002 2.3789999 2.9732003
9.492734 2.448755 2.9517331
9.5260601 2.4410892 2.9415224
9.6257248 2.4484513 2.9460981
9.494381 2.5347142 2.9445243
9.510479 2.5560873 2.9524057
9.6379251 2.5474617 2.9458973
9.4980001 2.6689999 2.938
9.5222759 2.6481564 2.9469872
9.6291428 2.6396575 2.9499145
9.5405788 2.7163687 2.9170525
9.6159992 2.7065001 2.9219999
9.5429802 3.0469296 2.9512017
9.6497612 3.0208809 2.9478574
9.7447729 3.0390475 2.9509518
9.5357485 3.1507831 2.9500546
9.7649555 3.1446667 2.9449782
9.8719997 3.1889999 2.915
9.5549517 3.2248299 2.9513054
9.6505375 3.2307072 2.957293
9.7517881 3.2175105 2.945085
9.6486664 3.594667 2.9099998
9.7110004 3.589 2.908
9.5692282 3.6661515 2.9415467
9.6576071 3.6455457 2.9497881
9.7126894 3.6630001 2.9382064
9.5645294 3.7485516 2.9485514
9.7183399 3.752171 2.9489024
9.5729761 3.8411932 2.9512045
9.6498909 3.8658919 2.9370658
9.7194328 3.8449335 2.9559002
9.5821114 3.9141109 2.9842219
9.6383343 3.9111431 2.9842384
9.7110004 3.908 2.9914999
0 0 0 1 0 0 0 1 0 0 0 1 0 0 0 0 0 691 1 0 0
