ply
format ascii 1.0
comment PCL generated
element vertex 678
property float x
property float y
property float z
element camera 1
property float view_px
property float view_py
property float view_pz
property float x_axisx
property float x_axisy
property float x_axisz
property float y_axisx
property float y_axisy
property float y_axisz
property float z_axisx
property float z_axisy
property float z_axisz
property float focal
property float scalex
property float scaley
property float centerx
property float centery
property int viewportx
property int viewporty
property float k1
property float k2
end_header
-14.207666 -2.4095001 0.0038333335
-14.14642 -2.4143851 0.013084341
-14.08178 -2.4135656 0.016326088
-13.2075 -2.4029999 0.082999997
-13.131173 -2.4120491 0.058580443
-13.050824 -2.4289889 0.048289627
-14.211114 -2.3486793 0.03721698
-14.154237 -2.3608503 0.059471067
-14.046517 -2.3501341 0.052588403
-13.972923 -2.3361871 0.049368132
-13.217041 -2.3556714 0.079886049
-13.165684 -2.3688526 0.041571446
-13.023847 -2.3222311 0.05873077
-14.208701 -2.2891004 0.071900003
-14.19033 -2.2407506 0.050590008
-13.939925 -2.2441905 0.040090904
-13.9 -2.21 0.0099999998
-13.218537 -2.2793715 0.082767449
-13.149861 -2.27829 0.053524528
-13.054374 -2.2867014 0.049137723
-12.98177 -2.2948205 0.047666673
-14.918666 -2.1043334 0.064000003
-14.891 -2.1029999 0.085000001
-14.170075 -2.1476204 0.049437948
-14.022717 -2.122143 0.069285713
-13.95332 -2.1494753 0.049811315
-15.137564 -2.042865 0.040101379
-15.050403 -2.0674162 0.049884953
-14.950585 -2.0681183 0.049036574
-14.887794 -2.0422051 0.081153862
-14.133705 -2.059649 0.043932978
-14.06575 -2.065516 0.042484652
-13.999 -2.0780001 0.0049999999
-15.128827 -1.9407455 0.03307879
-15.048882 -1.9459733 0.050249342
-14.949945 -1.9648919 0.048375335
-14.881258 -1.9768866 0.07486596
-13.217351 -2.4056001 0.15425001
-13.142622 -2.4125197 0.14761673
-13.067638 -2.421134 0.12603335
-14.2085 -2.3128128 0.15875001
-14.151319 -2.3154645 0.14825089
-14.051451 -2.3267884 0.15030618
-13.974755 -2.3347516 0.14864364
-13.314444 -2.3301945 0.18519446
-13.248908 -2.363317 0.15145332
-13.167368 -2.3919809 0.15415095
-13.053891 -2.3621316 0.15356047
-14.209878 -2.2824852 0.13972729
-14.184153 -2.2520158 0.15383865
-13.94746 -2.2529263 0.15084143
-13.313028 -2.2673886 0.18794441
-13.2513 -2.2618163 0.15383767
-13.150836 -2.2685661 0.14991532
-13.059078 -2.2847676 0.14137606
-12.991333 -2.2943332 0.10600001
-14.907667 -2.106667 0.17866668
-14.843001 -2.1059396 0.1688485
-14.148636 -2.1359847 0.15063465
-14.050271 -2.1276972 0.15014733
-13.95392 -2.1469998 0.14932975
-15.1028 -2.0388 0.10880001
-15.040549 -2.0574536 0.14344247
-14.949726 -2.0783224 0.14849997
-14.853688 -2.0672755 0.14900869
-14.786762 -2.0360529 0.18731578
-14.14259 -2.0953076 0.13461536
-14.079333 -2.095 0.10133334
-15.1045 -1.9645 0.105
-15.034675 -1.9515313 0.13725841
-14.949595 -1.959224 0.14996254
-14.85264 -1.9795202 0.15046987
-14.784661 -1.9871075 0.18167852
-13.222891 -2.4066482 0.26021618
-13.171444 -2.4092462 0.2272459
-14.21677 -2.3076925 0.22746156
-14.15288 -2.3122995 0.24950376
-14.0503 -2.3230424 0.25025895
-13.974631 -2.3323448 0.24775143
-13.410211 -2.3167369 0.29115787
-13.344576 -2.3500466 0.25444669
-13.254708 -2.3820488 0.24825612
-13.158341 -2.3743651 0.24609615
-13.094556 -2.3598888 0.20744446
-14.210222 -2.2803891 0.25650001
-14.180899 -2.2591176 0.249375
-14.1 -2.3 0.25600001
-13.946771 -2.2486663 0.24936906
-13.4082 -2.2537601 0.29024002
-13.350975 -2.2454762 0.25373226
-13.25209 -2.2469044 0.2503764
-13.159286 -2.2630067 0.24388623
-13.088999 -2.2793334 0.21088889
-14.93 -2.1029999 0.278
-14.828023 -2.1070912 0.24313638
-14.761563 -2.1109736 0.26693866
-14.149555 -2.1333001 0.24923055
-14.050991 -2.1250486 0.24849808
-13.955274 -2.1420462 0.24976325
-15.007802 -2.0520668 0.2088
-14.945725 -2.0654356 0.2447416
-14.854243 -2.0881541 0.25063074
-14.744997 -2.040184 0.24947599
-14.691065 -2.0187418 0.28287098
-14.154786 -2.0947876 0.2539697
-15.010333 -1.9860001 0.20899999
-14.936604 -1.9586799 0.23945023
-14.850592 -1.9721035 0.25004664
-14.760043 -1.9876721 0.25436315
-14.691571 -1.9952857 0.28357145
-13.254142 -2.4025714 0.31599998
-14.201 -2.309 0.37599999
-14.142157 -2.3090656 0.3470943
-14.049118 -2.3210301 0.34915647
-13.974973 -2.3287721 0.35074687
-13.504499 -2.3099999 0.39749998
-13.436315 -2.3271136 0.35779035
-13.350876 -2.3668549 0.34973904
-13.258056 -2.3724911 0.34199145
-13.189074 -2.3539286 0.30714288
-14.208872 -2.2742906 0.35183868
-14.179661 -2.2686086 0.3496142
-14.0566 -2.2997999 0.33660001
-13.947668 -2.2494612 0.34516662
-13.507451 -2.2539501 0.3942
-13.449507 -2.237592 0.35305107
-13.351872 -2.2241986 0.34852329
-13.255365 -2.2449069 0.34491721
-13.1883 -2.2555501 0.31319997
-14.820261 -2.1044784 0.35265222
-14.742741 -2.1120558 0.34617963
-14.670487 -2.1207891 0.36499125
-14.150723 -2.1334939 0.3484107
-14.051528 -2.1186094 0.34930101
-13.953549 -2.1423016 0.34872794
-13.505 -2.197 0.38800001
-13.457474 -2.1968949 0.37926319
-13.377501 -2.198 0.35699999
-14.912125 -2.0550628 0.31609374
-14.850284 -2.0782034 0.34900016
-14.756198 -2.0659432 0.35219312
-14.65246 -2.0318875 0.35426816
-14.594001 -2.0212998 0.39250001
-14.148823 -2.0947366 0.35452628
-14.085601 -2.0956001 0.34919998
-14.90575 -1.9589999 0.3055
-14.84087 -1.969702 0.34129414
-14.753825 -1.9836892 0.35137931
-14.670179 -1.9943179 0.35926136
-14.203445 -2.3052225 0.47233334
-14.142732 -2.3094561 0.44695607
-14.050615 -2.3189127 0.44905874
-13.977268 -2.3257196 0.4502942
-13.527352 -2.3177903 0.46355647
-13.451249 -2.3407233 0.44904131
-13.357491 -2.3522229 0.44385833
-13.288926 -2.3409259 0.41092589
-14.208652 -2.2767346 0.4497551
-14.175715 -2.2708321 0.45094049
-14.072668 -2.29725 0.45375001
-13.94897 -2.2507496 0.45040792
-13.6062 -2.2672002 0.49180004
-13.54847 -2.2506983 0.4512285
-13.442059 -2.2100155 0.44341534
-13.351046 -2.2243645 0.44705701
-13.283725 -2.2402253 0.41634998
-14.816571 -2.1042857 0.41485718
-14.735358 -2.1102946 0.44554627
-14.649327 -2.1221409 0.44737178
-14.573787 -2.1292133 0.46829638
-14.154266 -2.1324499 0.44772744
-14.051349 -2.1164851 0.45038557
-13.955676 -2.1401234 0.44980159
-13.533603 -2.1919091 0.46602276
-13.46328 -2.1945901 0.45472002
-13.38525 -2.1972501 0.45500001
-14.817677 -2.0606792 0.4244906
-14.763928 -2.0748832 0.45673931
-14.63755 -2.016989 0.4431293
-14.560425 -2.0317295 0.45810381
-14.495 -2.0339999 0.49700001
-14.218 -2.085 0.48300001
-14.144716 -2.0948243 0.45262167
-14.064667 -2.0977502 0.43124998
-14.810555 -1.9699998 0.41061109
-14.744647 -1.9794419 0.44308412
-14.665196 -1.9903194 0.45435479
-14.555455 -1.9987273 0.45654544
-14.205875 -2.3078752 0.52974999
-14.142795 -2.3065283 0.54576415
-14.048882 -2.3160243 0.55002809
-13.975013 -2.3228068 0.55000693
-13.617083 -2.3093789 0.57097292
-13.547293 -2.3230844 0.5503332
-13.455269 -2.3361039 0.54410368
-13.383532 -2.3270938 0.51468754
-14.208797 -2.2781694 0.55583054
-14.167404 -2.276711 0.55001181
-14.070707 -2.2968335 0.55337501
-13.951242 -2.2519827 0.5471034
-13.640448 -2.2612848 0.5552851
-13.582191 -2.2618937 0.52691483
-13.436358 -2.2167389 0.5492
-13.380906 -2.231173 0.51978856
-14.718676 -2.1079032 0.52451611
-14.647313 -2.1178706 0.54719907
-14.549407 -2.1342492 0.55018967
-14.476009 -2.1332474 0.57490122
-14.157764 -2.1353676 0.54928052
-14.04821 -2.1145394 0.54792458
-13.955143 -2.1346729 0.55076903
-13.636141 -2.1820524 0.56509864
-13.552153 -2.1841342 0.55019516
-13.463621 -2.1920655 0.54946721
-13.385668 -2.1973333 0.51866668
-14.729308 -2.0634806 0.52987009
-14.650466 -2.0295796 0.55091274
-14.540907 -2.0212409 0.54455292
-14.467703 -2.0400565 0.56152821
-14.141854 -2.0938528 0.55129415
-14.072811 -2.0959044 0.5705238
-14.713248 -1.9770311 0.51653129
-14.650208 -1.9893186 0.54697061
-14.580629 -1.9925885 0.55794126
-14.496 -1.999 0.59100002
-14.206667 -2.3066669 0.63633335
-14.13269 -2.3064489 0.65572417
-14.047876 -2.31512 0.6482811
-13.976194 -2.3208206 0.6498481
-13.7082 -2.3113999 0.67340004
-13.635201 -2.3079681 0.64923996
-13.554879 -2.3200555 0.64232272
-13.480849 -2.3155248 0.61774999
-14.209026 -2.2781579 0.64977634
-14.163289 -2.2769618 0.64802629
-14.064156 -2.296423 0.66023082
-13.950073 -2.2490172 0.64971942
-13.815 -2.2309999 0.699
-13.736599 -2.255594 0.66048193
-13.663032 -2.2843816 0.64429885
-13.535441 -2.2740462 0.67134887
-13.473722 -2.2451947 0.62705541
-14.625032 -2.1170363 0.63149995
-14.550461 -2.1299248 0.64969856
-14.449622 -2.1440463 0.64944869
-14.373054 -2.1371975 0.67900008
-14.161415 -2.1349769 0.64971501
-14.044398 -2.1100512 0.64718848
-13.954092 -2.1333988 0.64880478
-13.732219 -2.1669998 0.66516763
-13.651793 -2.1633646 0.64796871
-13.551544 -2.1751237 0.64849091
-13.482101 -2.1870999 0.6236999
-14.635162 -2.0611351 0.63528377
-14.546347 -2.0140357 0.64841014
-14.446431 -2.0301685 0.64626598
-14.370756 -2.0519221 0.66771138
-14.140263 -2.089896 0.64775997
-14.067415 -2.0953472 0.65558326
-13.973666 -2.0996666 0.67200005
-14.620909 -1.9877731 0.62127274
-14.56235 -1.9959096 0.65213645
-14.478 -2 0.62800002
-14.201 -2.3015001 0.713
-14.131031 -2.3072503 0.75376469
-14.048146 -2.3141086 0.74889094
-13.977375 -2.3202276 0.74942654
-13.725708 -2.3049169 0.75112498
-13.644244 -2.3086436 0.74311292
-13.578955 -2.3073475 0.71165228
-14.209603 -2.2667358 0.75131577
-14.164016 -2.2755508 0.74766672
-14.065424 -2.2955749 0.75514996
-13.954881 -2.2586868 0.75115687
-13.832861 -2.2498639 0.76291096
-13.7559 -2.2743287 0.74637699
-13.65665 -2.2849681 0.75047052
-13.576077 -2.2742188 0.72848433
-14.534648 -2.1284173 0.73573399
-14.451333 -2.1449559 0.74866563
-14.350099 -2.1537461 0.74972731
-14.283627 -2.1338511 0.76913422
-14.164692 -2.1386845 0.74884903
-14.0368 -2.1088159 0.74423194
-13.953706 -2.13146 0.74784261
-13.831521 -2.1651483 0.76836312
-13.752927 -2.1486161 0.74771786
-13.650906 -2.1555476 0.74959165
-13.575408 -2.1690128 0.72483951
-14.532507 -2.0371506 0.73528314
-14.450459 -2.0216897 0.74805439
-14.348222 -2.0429492 0.74677199
-14.278684 -2.0670943 0.77068406
-14.137501 -2.090028 0.75090086
-14.065223 -2.0937703 0.75423771
-13.979668 -2.0973334 0.74599999
-14.524107 -1.995158 0.72615796
-14.480287 -1.9987144 0.76014292
-14.129406 -2.3077719 0.84165812
-14.05003 -2.3134148 0.8486973
-13.977269 -2.3173859 0.84886616
-13.717751 -2.306875 0.84512502
-13.6815 -2.3035002 0.81024998
-14.209256 -2.2566128 0.83803225
-14.165154 -2.2797816 0.84780699
-14.05587 -2.2952628 0.85428953
-13.93509 -2.2571962 0.85911477
-13.850872 -2.2615774 0.8489328
-13.752452 -2.2760522 0.85036534
-13.674002 -2.2710226 0.82825547
-14.502 -2.1259999 0.801
-14.440002 -2.1412501 0.84023398
-14.350518 -2.1608312 0.85005534
-14.260098 -2.1656942 0.85069507
-14.168602 -2.1408799 0.84101701
-14.032938 -2.1073008 0.84486729
-13.946515 -2.1289594 0.84861952
-13.854352 -2.1358969 0.84583825
-13.749676 -2.1404984 0.84883428
-13.671204 -2.1555622 0.82698745
-14.504 -2.0439999 0.80199999
-14.43244 -2.032192 0.83672607
-14.350004 -2.0344257 0.84802198
-14.254776 -2.0548601 0.8505674
-14.143236 -2.0848241 0.85321426
-14.061284 -2.0909233 0.85317826
-13.98091 -2.0955453 0.86627269
-14.441 -1.999 0.80500001
-14.125508 -2.3068643 0.94918644
-14.051561 -2.3114245 0.9486832
-13.975334 -2.3158751 0.94799989
-13.877 -2.309 0.91500002
-14.20858 -2.2523685 0.95268422
-14.158117 -2.2871599 0.94854629
-14.04551 -2.2955103 0.94670594
-13.933137 -2.2581561 0.94814354
-13.851257 -2.2592492 0.94972903
-13.772265 -2.2595963 0.92950881
-14.407134 -2.1486669 0.91506666
-14.344127 -2.157779 0.9434731
-14.259969 -2.1735792 0.95040584
-14.116868 -2.1202667 0.95193332
-14.038868 -2.1099808 0.96071166
-13.948243 -2.1103041 0.94363201
-13.849504 -2.1195285 0.9483633
-13.77277 -2.1398458 0.93241769
-14.41025 -2.08025 0.90849996
-14.337937 -2.0397038 0.93644977
-14.251605 -2.0460663 0.94821995
-14.153378 -2.0709352 0.94967669
-14.056812 -2.08775 0.94750547
-13.959692 -2.0940309 0.9661231
-13.891876 -2.09675 0.95712507
-14.130769 -2.3047228 1.0473692
-14.047708 -2.3104167 1.047226
-13.977329 -2.3128064 1.0466304
-14.2145 -2.2568436 1.048375
-14.154978 -2.2884836 1.0494133
-14.055741 -2.2955432 1.0551286
-13.937365 -2.2531207 1.0512617
-13.870242 -2.2418108 1.031885
-14.313568 -2.1645684 1.0219609
-14.262416 -2.1697538 1.0516145
-14.037724 -2.1088622 1.029862
-13.932605 -2.1109414 1.0446732
-13.866099 -2.122869 1.0368307
-14.309 -2.06075 1.0039999
-14.239491 -2.048017 1.0402131
-14.149468 -2.0612509 1.0502787
-14.052162 -2.0821939 1.0531044
-13.966139 -2.0841687 1.0565948
-13.881267 -2.0941999 1.0513333
-14.116783 -2.3041298 1.1371739
-14.045523 -2.3087654 1.1457601
-13.981187 -2.3128307 1.1482265
-14.218386 -2.2489548 1.1490455
-14.15616 -2.2830462 1.1528313
-14.058705 -2.2920003 1.1543304
-13.955241 -2.2559729 1.1447364
-14.23303 -2.166353 1.1167647
-14.186487 -2.1480002 1.1771706
-14.069 -2.1029999 1.14
-13.938356 -2.1394382 1.1558981
-13.898 -2.1110001 1.114
-14.212333 -2.0601113 1.1102223
-14.146504 -2.0648026 1.1479552
-14.049688 -2.0758176 1.1511352
-13.963617 -2.0873885 1.1482362
-14.105 -2.3025 1.224
-14.040068 -2.3068664 1.243078
-13.980462 -2.30969 1.2440703
-14.205963 -2.2457776 1.245815
-14.156604 -2.273519 1.2490907
-14.055852 -2.2917168 1.251476
-13.963186 -2.2640445 1.2529643
-14.182868 -2.1473362 1.251202
-14.003751 -2.11075 1.25725
-13.944213 -2.1336088 1.2474196
-14.141472 -2.0709262 1.2491575
-14.051849 -2.0750854 1.2485607
-13.966966 -2.0910997 1.252425
-14.041666 -2.3053339 1.3540499
-13.984141 -2.3062398 1.34692
-14.206423 -2.2492373 1.3462106
-14.155432 -2.2722523 1.3495898
-14.051783 -2.2909954 1.3477902
-13.968393 -2.2678318 1.3501123
-14.203 -2.187 1.3099999
-14.186003 -2.1490312 1.3479998
-14.03675 -2.1045001 1.35075
-13.944601 -2.1386788 1.3469999
-14.211 -2.0599999 1.312
-14.143354 -2.0707784 1.3486885
-14.05125 -2.0769691 1.3497638
-13.965216 -2.0909095 1.3495973
-14.108 -2.303 1.4119999
-14.034462 -2.3056412 1.4399233
-13.978358 -2.3057859 1.4605356
-14.206537 -2.2463331 1.4585128
-14.15712 -2.2706892 1.4492794
-14.053658 -2.2898939 1.4516544
-13.971888 -2.2721877 1.4458659
-14.202499 -2.1865001 1.4245
-14.185827 -2.1496525 1.4469182
-14.0232 -2.1070001 1.4726001
-13.94958 -2.1403549 1.4477384
-14.144492 -2.067941 1.4491078
-14.050923 -2.0755064 1.44947
-13.966436 -2.0890946 1.4502482
-14.129333 -2.3023334 1.5403333
-14.030158 -2.3041201 1.5426401
-13.981224 -2.3060968 1.551387
-14.206654 -2.24652 1.5511732
-14.153422 -2.2724023 1.5484401
-14.051099 -2.2873876 1.5502702
-13.971264 -2.2692995 1.5494335
-14.202499 -2.1914999 1.5320001
-14.187276 -2.1467755 1.5509287
-14.015666 -2.1080003 1.5623335
-13.94967 -2.1422555 1.5486168
-14.144752 -2.0632479 1.5499361
-14.051497 -2.070092 1.5488853
-13.965884 -2.0862598 1.550886
-14.030286 -2.3028576 1.6401429
-13.975 -2.303 1.6240001
-14.206426 -2.2458129 1.6490624
-14.152405 -2.2691648 1.6500777
-14.050317 -2.2856393 1.6489967
-13.974612 -2.2699184 1.6514289
-14.204 -2.1819999 1.615
-14.189537 -2.147835 1.6482707
-14.026333 -2.1053333 1.671
-13.951547 -2.1437864 1.6496401
-14.14584 -2.0586615 1.6500907
-14.052073 -2.0663016 1.6498255
-13.964193 -2.0823998 1.651091
-14.016 -2.303 1.7225001
-13.986501 -2.3027501 1.7375
-14.206872 -2.2402105 1.7541691
-14.15211 -2.2677448 1.7493981
-14.051804 -2.2804325 1.7489786
-13.975763 -2.2673969 1.7504328
-14.201 -2.1859999 1.7715001
-14.189821 -2.1505668 1.7486446
-13.955269 -2.1497908 1.7492685
-14.147076 -2.055898 1.750773
-14.050525 -2.062505 1.7498
-13.96272 -2.080261 1.7499568
-14.018 -2.3010001 1.849
-13.972 -2.3010001 1.857
-14.208094 -2.2389877 1.8521627
-14.152477 -2.2663529 1.8498905
-14.050112 -2.2782094 1.8484291
-13.976737 -2.266511 1.8493937
-14.202 -2.1853335 1.8723334
-14.191108 -2.1488595 1.8501178
-13.955286 -2.1437118 1.8482881
-14.147993 -2.0507314 1.8495858
-14.050298 -2.0587313 1.850096
-13.967021 -2.0735242 1.8491123
-14.003 -2.3039999 1.9220001
-14.208013 -2.2380261 1.9459865
-14.151005 -2.2636895 1.9488808
-14.0497 -2.2738445 1.9483066
-13.978717 -2.2631037 1.9517494
-14.201999 -2.1926 1.9514
-14.19189 -2.1447949 1.9500822
-13.958819 -2.1455817 1.9465634
-14.148576 -2.0481851 1.9510044
-14.05093 -2.0529158 1.9484628
-13.967294 -2.0707247 1.9490721
-14.208981 -2.2229829 2.0445759
-14.150898 -2.2614031 2.047977
-14.0502 -2.2698958 2.0488322
-13.980433 -2.2602496 2.0507588
-14.207552 -2.1853001 2.0674002
-14.192803 -2.1432824 2.0467041
-13.959622 -2.1428797 2.0499139
-14.147372 -2.0436854 2.0483816
-14.049051 -2.0511308 2.0497644
-13.969578 -2.067683 2.050818
-14.211585 -2.2134829 2.1556897
-14.151829 -2.2574201 2.1496937
-14.051763 -2.2680333 2.1489859
-13.980736 -2.2577543 2.148082
-14.211504 -2.1633294 2.1512499
-14.191854 -2.1202297 2.134083
-13.961779 -2.1386349 2.1483653
-14.203 -2.0834999 2.1849999
-14.150947 -2.0426247 2.1501555
-14.049816 -2.048224 2.1482704
-13.968935 -2.0643303 2.1517341
-14.209475 -2.2199745 2.2502253
-14.149797 -2.2561724 2.2498181
-14.049532 -2.2643499 2.2482772
-13.980588 -2.2549694 2.249928
-14.210756 -2.1501281 2.2455001
-14.2 -2.138 2.2704999
-13.963107 -2.1396489 2.2557895
-14.212043 -2.0653913 2.2747393
-14.157928 -2.0315135 2.2405665
-14.049859 -2.0407004 2.2461352
-13.968354 -2.06428 2.2503929
-14.14868 -1.9796016 2.2802601
-14.085423 -1.9825003 2.2863464
-14.209158 -2.217778 2.3477113
-14.149462 -2.2529149 2.35096
-14.049817 -2.2619953 2.3494747
-13.982836 -2.2496338 2.3491888
-14.209879 -2.1618292 2.3356829
-14.196501 -2.1185 2.3705001
-13.9645 -2.1400537 2.3524468
-14.220573 -2.0679288 2.319
-14.195001 -2.040961 2.3489997
-14.031876 -2.0429213 2.3405282
-13.972845 -2.0595088 2.3490086
-14.15137 -1.9391788 2.3388577
-14.070862 -1.9458781 2.344893
-14.144913 -1.8813263 2.3796136
-14.081769 -1.8854188 2.3826742
-14.211487 -2.2179229 2.4547694
-14.151614 -2.2500622 2.4487779
-14.052025 -2.2589276 2.450207
-13.98391 -2.2497807 2.4470437
-14.209713 -2.179476 2.4474761
-14.193271 -2.1363783 2.4543514
-13.967272 -2.1475966 2.4514041
-14.190776 -2.0510445 2.4567778
-14.032366 -2.0426941 2.4406734
-13.971347 -2.0576134 2.4508743
-14.185321 -1.9471432 2.4443502
-14.052946 -1.9471898 2.4437842
-14.147436 -1.8418198 2.4399149
-14.06813 -1.8400948 2.4425347
-14.139014 -1.7814004 2.4817581
-14.069293 -1.7831379 2.4858449
-14.211379 -2.2208672 2.5436447
-14.15172 -2.2414424 2.5487483
-14.049802 -2.2556105 2.5487101
-13.984051 -2.2436974 2.5493159
-14.208028 -2.1700859 2.5581996
-14.1966 -2.1474855 2.5429144
-13.968366 -2.1427143 2.5529997
-14.186299 -2.0515184 2.5556264
-14.044517 -2.0466895 2.5456548
-13.965424 -2.0563812 2.5451128
-14.178303 -1.9493001 2.5383
-14.050049 -1.9437002 2.5381501
-14.176764 -1.8456254 2.5459373
-14.046498 -1.8509499 2.549175
-14.1428 -1.7423995 2.5432918
-14.061223 -1.7408915 2.5404084
-14.130352 -1.6822027 2.5832829
-14.064281 -1.6840122 2.5820119
-14.210055 -2.231019 2.658077
-14.149484 -2.2465103 2.6540473
-14.05172 -2.2552714 2.6503434
-13.985509 -2.2366118 2.6468954
-14.214653 -2.1508081 2.6581314
-14.198251 -2.1092501 2.6454999
-13.971734 -2.1432505 2.6504617
-14.202375 -2.08675 2.66925
-14.179139 -2.0340362 2.6501441
-14.044951 -2.0496502 2.6487503
-13.960852 -2.0630925 2.642889
-14.16753 -1.9557648 2.6351178
-14.047001 -1.9225 2.6055
-14.173126 -1.839625 2.6409061
-14.041334 -1.8441004 2.6367667
-14.16658 -1.7465947 2.6467836
-14.033579 -1.7495806 2.6494193
-14.135105 -1.645978 2.6368377
-14.053947 -1.6396756 2.6372325
-14.118999 -1.5940001 2.677
-14.055321 -1.5952001 2.6692798
-14.219376 -2.308125 2.7871249
-14.147673 -2.309886 2.777657
-14.084466 -2.3105667 2.7683668
-14.219397 -2.2606394 2.7512782
-14.151145 -2.281934 2.7383683
-14.049229 -2.2598219 2.7454944
-13.987238 -2.227839 2.7507577
-14.214043 -2.1486306 2.7493999
-14.1952 -2.1094 2.7744
-13.972152 -2.1451888 2.7496984
-14.2042 -2.0924001 2.7178001
-14.173446 -2.0301974 2.7504296
-14.04478 -2.0451741 2.7513046
-13.963475 -2.0639286 2.7509286
-14.154 -1.9910908 2.7594545
-14.164667 -1.8411669 2.7168336
-14.0435 -1.816 2.70925
-14.165726 -1.7529 2.7375255
-14.033521 -1.7421739 2.7465219
-14.156454 -1.6723636 2.7153637
-14.022462 -1.6565768 2.7513463
-14.121286 -1.5352857 2.7517145
-14.040002 -1.5497392 2.7432177
-13.993 -1.5039999 2.7969999
-14.1135 -1.4779999 2.7880001
-14.0394 -1.4869999 2.7917998
-14.238086 -2.3259714 2.8442287
-14.136168 -2.332 2.8326671
-14.080699 -2.3299 2.8534
-14.227735 -2.2554417 2.8459265
-14.188499 -2.296 2.8109999
-14.035089 -2.2499876 2.8299518
-13.986898 -2.2185667 2.8382003
-14.210228 -2.1551147 2.8520324
-14.198 -2.128 2.8323333
-13.973868 -2.1474073 2.8494446
-14.202001 -2.0792 2.845
-14.172639 -2.0274122 2.8468533
-14.040042 -2.0346251 2.8472919
-13.962488 -2.0634613 2.8503592
-14.150339 -1.9966346 2.8629997
-14.163 -1.778 2.803
-14.026668 -1.7093334 2.8143334
-14.021049 -1.64785 2.8377497
-14.1395 -1.54 2.8555
-14.012929 -1.5511429 2.8464284
-13.995 -1.5215 2.8940001
-14.1145 -1.4432499 2.8192501
-14.03511 -1.4400002 2.8468335
-13.994 -1.432 2.8540001
-14.1086 -1.3823999 2.8742001
-14.049859 -1.3814286 2.8835719
-14.225 -2.4449999 2.957
-14.105199 -2.4102001 2.9812
-14.1 -2.401 2.954
-14.242418 -2.3468964 2.9532707
-14.106501 -2.3664999 2.9445
-14.0848 -2.3513005 2.9466999
-14.229969 -2.2503653 2.9541588
-14.056182 -2.2701817 2.9408181
-13.988301 -2.2219999 2.9554002
-14.211456 -2.1482058 2.9466021
-14.2 -2.119 2.9790001
-13.9738 -2.1388748 2.9426751
-14.20704 -2.0640001 2.9754801
-14.167856 -2.025562 2.9459469
-14.038046 -2.0308638 2.9447727
-13.965622 -2.0571668 2.9517505
-14.206 -1.9936666 2.9846668
-14.15489 -1.9937022 2.9527447
-14.026 -1.6235 2.9035001
-14.138 -1.5039999 2.9289999
-14.019444 -1.5502222 2.9429998
-13.998 -1.505 2.9890001
-14.137 -1.469 2.9714999
-14.0086 -1.4308 2.9504001
-13.99375 -1.4485 2.9514999
-14.118999 -1.336 2.9200001
-14.041002 -1.3378571 2.938786
-13.985144 -1.3487144 2.9567142
-14.11 -1.296 2.9630001
-14.051091 -1.283 2.9786367
-13.993 -1.285 2.9890001
0 0 0 1 0 0 0 1 0 0 0 1 0 0 0 0 0 678 1 0 0
