ply
format ascii 1.0
comment PCL generated
element vertex 620
property float x
property float y
property float z
element camera 1
property float view_px
property float view_py
property float view_pz
property float x_axisx
property float x_axisy
property float x_axisz
property float y_axisx
property float y_axisy
property float y_axisz
property float z_axisx
property float z_axisy
property float z_axisz
property float focal
property float scalex
property float scaley
property float centerx
property float centery
property int viewportx
property int viewporty
property float k1
property float k2
end_header
26.0576 4.0960002 0.043999996
26.128166 4.0923338 0.080333337
25.988609 4.1441107 0.010499999
26.049765 4.1533327 0.045015085
26.140249 4.1215 0.057083342
26.234776 4.182519 0.04403704
26.071987 4.2506313 0.048061538
26.12875 4.2492499 0.038249999
26.249201 4.2063003 0.0208
26.073502 4.3464742 0.048277371
26.154898 4.3683057 0.051787041
26.222652 4.3715711 0.044571422
26.154333 4.0916667 0.11333334
26.221668 4.099 0.15200001
26.090483 4.1623549 0.12835482
26.146593 4.1353335 0.14924242
26.241179 4.1174884 0.1583111
26.308001 4.1090002 0.197
26.071545 4.2487893 0.15049635
26.116169 4.2296667 0.13900001
26.074177 4.3437243 0.14640579
26.151171 4.3732696 0.15270589
26.223888 4.3748407 0.15347728
26.237 4.4089999 0.141
26.273335 4.0970001 0.24866667
26.3085 4.0974998 0.26749998
26.083513 4.1759658 0.24796551
26.142439 4.1648698 0.2456522
26.250454 4.1385584 0.24677919
26.340374 4.1126966 0.2617442
26.412001 4.119 0.29800001
26.071264 4.2491674 0.24922906
26.122145 4.2168574 0.23442858
26.238249 4.2020001 0.25874999
26.075542 4.3424964 0.2482556
26.149647 4.3730664 0.24850847
26.231379 4.3748865 0.24988684
26.245499 4.4110003 0.249
25.257128 3.2042258 0.33925802
25.34021 3.2041063 0.35519153
26.067644 4.1895719 0.35282147
26.130667 4.164 0.33449998
26.253353 4.1713529 0.32747057
26.356419 4.1259699 0.34390911
26.071623 4.2487597 0.35103008
26.139402 4.2238002 0.31580001
26.24 4.2030001 0.352
26.075535 4.3465219 0.34797603
26.151699 4.3738241 0.34780008
26.230358 4.375042 0.35010418
26.267 4.4089999 0.35699999
25.283743 3.0575142 0.41460004
25.286886 3.1485 0.41273531
25.291 3.2048335 0.41016668
26.060501 4.1881666 0.45270008
26.174 4.1943336 0.41033334
26.240778 4.187223 0.42711112
26.3888 4.1400003 0.40400001
26.072495 4.2445183 0.44921169
26.248751 4.2059999 0.46350002
26.477333 4.2036667 0.43833336
26.5065 4.2034998 0.44350001
26.076599 4.3427763 0.44897768
26.148972 4.3756447 0.44984737
26.232243 4.3743277 0.45105171
26.273001 4.4109998 0.42899999
26.061178 4.1918178 0.54430306
26.141001 4.198 0.574
26.254749 4.18925 0.53250003
26.488333 4.1326671 0.50566667
26.070799 4.2474976 0.55285156
26.188 4.204 0.57499999
26.274 4.2160001 0.5
26.072916 4.3444433 0.54880548
26.147865 4.3758774 0.54978681
26.241453 4.3710313 0.54945308
26.303001 4.348 0.51600003
26.285 4.4115 0.53750002
26.06571 4.1908431 0.650451
26.127365 4.1916361 0.67272729
26.264 4.1859999 0.6505
26.071604 4.2478466 0.65028995
26.110001 4.2065001 0.66400003
26.073385 4.3437271 0.64883661
26.149635 4.3758163 0.64893848
26.23983 4.3712654 0.6491406
26.07708 4.1856198 0.74485993
26.139061 4.1801052 0.75722921
26.226833 4.1933336 0.76550001
26.070421 4.2505612 0.7502293
26.12867 4.2106667 0.76120007
26.224001 4.2020001 0.78799999
26.074659 4.341681 0.75039476
26.149178 4.3745041 0.74948764
26.237761 4.3682208 0.75089985
26.073967 4.1864548 0.8500182
26.142727 4.1842928 0.85119504
26.239416 4.1870275 0.85072213
26.071705 4.2484283 0.85070801
26.144859 4.2137146 0.84457141
26.241428 4.2032857 0.85499996
26.33 4.2379999 0.898
26.074511 4.3404593 0.85005438
26.147924 4.3752208 0.85123742
26.233585 4.3724833 0.84920675
26.070875 4.186965 0.94996494
26.146864 4.1855335 0.94782233
26.245617 4.1825747 0.94906384
26.299999 4.1939998 0.98400003
26.07271 4.247786 0.94945288
26.141003 4.2258334 0.92974997
26.226501 4.2027502 0.95249999
26.076136 4.3428864 0.9489733
26.147896 4.3759341 0.9490093
26.228655 4.3735266 0.95112723
26.124001 4.401 0.93199998
26.073462 4.1882224 1.0496033
26.149883 4.1828041 1.0462747
26.248131 4.1792893 1.0502888
26.07575 4.2526946 1.0483701
26.119537 4.2383332 1.0448666
26.251287 4.2038569 1.0568571
26.079508 4.343174 1.050902
26.147533 4.3728528 1.0481391
26.23106 4.3739018 1.0493934
26.307003 4.342 1.0880001
26.132 4.4029999 1.04
26.073814 4.1882496 1.1491719
26.146959 4.1832504 1.1501731
26.241257 4.1756678 1.1493139
26.07667 4.2515287 1.1497059
26.111399 4.2508006 1.1569999
26.080364 4.3421264 1.1493477
26.150887 4.3720436 1.1491128
26.239355 4.3733673 1.1522795
26.307835 4.3433332 1.1311667
26.074171 4.1895437 1.247579
26.146435 4.1802273 1.2501935
26.250374 4.17696 1.2464118
26.077913 4.250597 1.2497922
26.1052 4.2637997 1.2555
26.082911 4.3414221 1.2514071
26.149809 4.3712373 1.2476577
26.242409 4.3730917 1.2483422
26.177999 4.4000001 1.293
26.076902 4.1876583 1.3500731
26.152546 4.1847553 1.3466936
26.252073 4.180284 1.3483773
26.080368 4.2456212 1.3496995
26.110847 4.2560768 1.344923
26.219 4.2060003 1.3645
26.084227 4.3409104 1.3500521
26.146502 4.3722243 1.3483912
26.240103 4.3716331 1.3483385
26.078653 4.1901245 1.4502499
26.146215 4.1851077 1.4470003
26.244232 4.1784801 1.4446249
26.08412 4.2473903 1.4489864
26.110411 4.2423639 1.4500908
26.216 4.2010002 1.449
26.08663 4.3403049 1.4476613
26.147493 4.3676028 1.4512929
26.232058 4.3732162 1.4490837
26.081421 4.190485 1.5450605
26.143663 4.1831069 1.5500356
26.242727 4.179626 1.5466669
26.314335 4.1893334 1.5373334
26.085443 4.2467318 1.5496876
26.108433 4.2592859 1.5563571
26.089264 4.3357792 1.5459499
26.136541 4.3663244 1.5512278
26.230438 4.3713937 1.5511688
26.302999 4.3829999 1.534
26.084202 4.1910667 1.6432668
26.146179 4.1841464 1.6531638
26.241608 4.1804996 1.6496955
26.320999 4.1890001 1.66
26.08535 4.2491264 1.65066
26.122911 4.2402725 1.6419547
26.262669 4.2013335 1.6646669
26.090611 4.3391523 1.648991
26.141045 4.3674664 1.6483032
26.232674 4.3735166 1.6489334
26.322001 4.382 1.613
26.323593 3.2274091 1.7492273
26.083544 4.1917729 1.7514091
26.15122 4.1870675 1.7518812
26.24576 4.1850867 1.7516087
26.302 4.198 1.79
26.085529 4.2446461 1.7500628
26.127613 4.2395391 1.7542692
26.257444 4.2033334 1.7532221
26.091248 4.3352728 1.7469592
26.141592 4.3658004 1.7506609
26.235233 4.3722463 1.7531843
26.233 4.4029999 1.728
26.089306 2.9892609 1.8446088
26.144722 2.9773912 1.8481016
26.330973 2.9809713 1.8510284
26.083841 3.0489683 1.8501126
26.108332 3.0481434 1.854238
26.357 3 1.844
26.116415 3.1487083 1.85225
26.087364 3.2210002 1.8558787
26.145882 3.2221377 1.8525213
26.249537 3.2299895 1.8503332
26.326401 3.2263336 1.8423998
26.071045 3.3570907 1.8955454
26.111668 3.3353336 1.895
26.067162 3.4545407 1.8954864
26.067932 3.5551958 1.8922393
26.107 3.523 1.896
26.065243 3.6484716 1.890264
26.106998 3.6245 1.8870001
26.066191 3.7501581 1.8881754
26.101999 3.757 1.888
26.061855 3.8465478 1.8870813
26.065182 3.9495323 1.884532
26.105999 3.9679999 1.8839999
26.062777 4.0495553 1.8848569
26.109333 4.0443335 1.886
26.068365 4.1614332 1.8729396
26.148579 4.1852698 1.8497502
26.241217 4.187695 1.8489132
26.332001 4.1950002 1.8099999
26.079916 4.2482147 1.8530056
26.129114 4.2348151 1.8414448
26.252417 4.2068338 1.85575
26.302999 4.2176666 1.8500001
25.886972 4.3785939 1.8746874
25.947935 4.3752861 1.8714445
26.069733 4.3545098 1.8582621
26.139294 4.3704791 1.8483584
26.242933 4.3780246 1.8536503
26.349499 4.3836846 1.8756051
26.448608 4.3730588 1.8794705
26.547981 4.3737545 1.8823019
26.651731 4.3685627 1.8847498
26.754942 4.3644066 1.8878921
25.884888 4.4063334 1.8787779
25.943415 4.4056416 1.8793585
26.044611 4.4032779 1.8796667
26.154167 4.4030838 1.8804168
26.253901 4.4026999 1.8832
26.358 4.4013333 1.8833334
26.426666 4.402 1.8883333
26.662001 4.4050002 1.888
26.746 4.408 1.893
26.086195 2.9897418 1.9443222
26.146954 2.9815619 1.950922
26.246607 2.9837852 1.9499642
26.32332 2.9820969 1.9512256
26.082872 3.0495796 1.9478409
26.111946 3.0447781 1.9586111
26.075819 3.1517284 1.9461359
26.1145 3.1400833 1.9649167
26.063671 3.2405477 1.9257145
26.139271 3.2381878 1.9403124
26.259108 3.2363596 1.9400934
26.313704 3.2419 1.9445
26.055368 3.3446114 1.9158337
26.111288 3.3364286 1.9278572
26.048502 3.4451997 1.9134502
26.115334 3.4373336 1.9056667
26.049097 3.5415812 1.9123549
26.05797 3.6403236 1.9194709
26.1245 3.6324999 1.944
26.04884 3.7468398 1.9094399
26.050003 3.854286 1.9085238
26.06612 3.9310396 1.9178802
26.139 3.9519999 1.9450001
26.051079 4.0446153 1.9063077
26.070446 4.1580005 1.9246665
26.144367 4.1869087 1.9611821
26.249186 4.1873636 1.9347273
26.082069 4.2410979 1.9389293
26.129869 4.2423043 1.9678696
26.265499 4.2075005 1.9524999
26.3465 4.2229996 1.9395
25.891203 4.3860002 1.9067999
25.956198 4.3719001 1.9112999
26.080214 4.3507323 1.9512265
26.142508 4.3662357 1.9591998
26.242331 4.3776369 1.9519712
26.354237 4.386333 1.9161904
26.453516 4.3766227 1.9126756
26.553633 4.3738947 1.9161845
26.654154 4.3715129 1.9165899
26.752129 4.3638973 1.9191027
26.84943 4.3618813 1.9218811
26.951937 4.3567348 1.925347
25.958 4.4014997 1.906
26.044498 4.4022498 1.901
26.16543 4.403429 1.9072858
26.296 4.402 1.92
26.3335 4.402 1.9070001
26.423 4.4158573 1.9131429
26.596001 4.4109998 1.9170001
26.678333 4.415 1.9193333
26.739 4.4120002 1.942
27.018002 4.4043341 1.9146667
26.090227 2.988409 2.0461361
26.149887 2.9832263 2.0508707
26.247059 2.985944 2.0493333
26.325148 2.9861512 2.0470607
26.084925 3.0488231 2.0489998
26.109667 3.0459526 2.0579047
26.3235 3.0015001 2.0864999
26.083677 3.1480637 2.0495474
26.117104 3.1426845 2.0519476
26.089293 3.2227805 2.0557806
26.139864 3.2355192 2.0597317
26.247492 3.2331266 2.0660639
26.320398 3.2388 2.0722003
26.090786 4.192286 2.0487857
26.15177 4.1892047 2.049082
26.235271 4.1884851 2.0483639
26.090244 4.2512875 2.0530233
26.124214 4.2339463 2.0539458
26.251432 4.2081423 2.0593808
26.091524 4.3376737 2.0498569
26.141537 4.3620844 2.0481977
26.24144 4.3672609 2.0501232
26.302 4.3520002 2.0569999
26.092474 2.9916317 2.1607897
26.149595 2.9840708 2.1490836
26.248396 2.9868116 2.1506979
26.329334 2.9884851 2.1465151
26.084221 3.0530086 2.1497638
26.115755 3.0343101 2.150517
26.229 3.003 2.1600001
26.318001 3.003 2.1530001
26.082636 3.1477227 2.1498406
26.111582 3.1473684 2.150737
26.088875 3.2268212 2.1443753
26.140011 3.2455971 2.1467679
26.259512 3.2408972 2.1499209
26.315184 3.251091 2.1572728
26.091249 4.1922503 2.143625
26.14624 4.1910005 2.1473911
26.235846 4.1906877 2.1464374
26.089659 4.2463422 2.1481235
26.124973 4.2384119 2.1544564
26.256071 4.2116561 2.1551034
26.091881 4.3373218 2.1520479
26.137712 4.3594565 2.151325
26.239111 4.3643575 2.1490145
26.243746 2.9868 2.2507665
26.327774 2.9870961 2.2475808
26.083363 3.0513551 2.249275
26.128401 3.0267196 2.2420001
26.250799 3.0033998 2.2654002
26.322668 3.0023334 2.2106667
26.081644 3.150017 2.2494998
26.111002 3.1628463 2.2443848
26.085188 3.2183487 2.251884
26.146046 3.2263415 2.2478709
26.253782 3.2380586 2.2456834
26.309111 3.2590001 2.2342222
26.093502 4.1935 2.2410002
26.150723 4.1926508 2.2494884
26.235785 4.1928263 2.2467391
26.091276 4.2461667 2.2492895
26.121553 4.2417846 2.2523384
26.25761 4.2107501 2.25225
26.09362 4.3346291 2.2473228
26.137327 4.3572903 2.2511239
26.240334 4.3619523 2.2478414
26.093502 2.9889998 2.3640003
26.148907 2.9838591 2.3498123
26.246632 2.9878888 2.3480158
26.32111 2.9855719 2.35025
26.075254 3.0507798 2.348372
26.129421 3.0124187 2.3473547
26.246168 3.0072498 2.3540001
26.311666 3.0026665 2.3573337
26.076382 3.1514776 2.3497989
26.113401 3.1556001 2.3486001
26.086254 3.2232864 2.3564107
26.148216 3.2369602 2.3533463
26.248152 3.2324371 2.3478751
26.325258 3.2308719 2.3486409
26.089001 4.1960001 2.329
26.148144 4.1885004 2.3478093
26.236324 4.1930714 2.3514643
26.092548 4.2496729 2.3506362
26.120932 4.2361135 2.3491001
26.25828 4.2097721 2.3513145
26.095293 4.3318276 2.3461552
26.132936 4.3555131 2.3481796
26.245907 4.3574867 2.3510437
26.138908 2.889545 2.4871819
26.079319 2.9622493 2.4560297
26.14115 2.9395375 2.4418602
26.258833 2.9857142 2.4418809
26.321438 2.989435 2.451565
26.063269 3.0489266 2.4488034
26.104 3.0504999 2.4275
26.271626 3.009125 2.461
26.332001 3.0040834 2.4421668
25.997 3.1689999 2.4630001
26.065599 3.1546643 2.449321
26.10825 3.1574998 2.4425001
26.072321 3.2440081 2.4517901
26.146196 3.2756844 2.4227016
26.257292 3.2525778 2.4336889
26.320412 3.2341723 2.4509654
26.083736 3.3194196 2.4781291
26.145739 3.3281052 2.4693024
26.211666 3.326 2.4691665
26.086 4.1880002 2.45
26.147491 4.1887994 2.4524665
26.245001 4.190896 2.4530344
26.093428 4.2492266 2.4475667
26.124155 4.2388334 2.4516668
26.256433 4.2090626 2.4497502
26.368999 4.23 2.4059999
26.095213 4.3313422 2.4432635
26.133953 4.3510571 2.4502766
26.247999 4.3594079 2.4466903
26.302999 4.3496671 2.4576669
26.129751 2.7865834 2.5934169
26.081917 2.8620725 2.5617316
26.144005 2.8404577 2.5483179
26.222834 2.8543334 2.5561666
26.0725 2.9485233 2.5486298
26.103622 2.9597502 2.5447502
26.265888 2.9635556 2.5177779
26.323532 2.9896002 2.5373335
26.0725 3.046891 2.5503912
26.113363 3.0532727 2.5649092
26.289501 3.006 2.5320001
26.325775 3.0054448 2.5450001
26.079304 3.1489999 2.5532393
26.11425 3.1521668 2.5491667
26.072971 3.2495556 2.5513194
26.104557 3.2279999 2.5658886
26.285 3.2509999 2.5020001
26.32494 3.2362943 2.5342941
26.073236 3.3485613 2.5486996
26.144531 3.3731973 2.5236509
26.220669 3.3615835 2.5180836
26.07737 3.4218266 2.5790868
26.147903 3.4287374 2.5676005
26.211615 3.4237692 2.5670769
26.091667 4.1943336 2.5493333
26.151409 4.1891365 2.5512729
26.238228 4.1918888 2.5576112
26.094204 4.2451892 2.5492141
26.118372 4.2439437 2.5495055
26.262932 4.2111077 2.5509286
26.095432 4.326087 2.5422611
26.130884 4.3504524 2.5504522
26.249184 4.3578591 2.5480001
26.333 4.3270001 2.5079999
26.099001 2.688 2.6930001
26.125751 2.6905003 2.6890001
26.083515 2.769906 2.6631758
26.140417 2.742888 2.6536474
26.217833 2.7724166 2.6526668
26.071558 2.8487473 2.649816
26.114601 2.8469334 2.6484668
26.231998 2.8198001 2.6246002
26.074448 2.9512787 2.6472015
26.11437 2.9650528 2.6696315
26.309999 2.9949999 2.6370001
26.077 3.0491247 2.6489909
26.115 3.0391998 2.6555002
26.334667 3.0103335 2.6253335
26.077442 3.1510398 2.6470864
26.108557 3.1411111 2.6566665
26.076994 3.248785 2.6454113
26.109144 3.2454288 2.6514287
26.070175 3.3498602 2.6481967
26.103333 3.3436668 2.6631668
26.067953 3.4508615 2.6490834
26.147566 3.4775505 2.6221666
26.213001 3.4767144 2.6274288
26.073246 3.5202227 2.6769109
26.148056 3.5277834 2.6687436
26.208502 3.5225 2.6721666
26.095999 4.1947999 2.6372001
26.150417 4.1892395 2.6547801
26.240227 4.1904287 2.654057
27.377001 4.112 2.6889999
26.094088 4.2439861 2.6457882
26.116943 4.2472148 2.649262
26.258001 4.206696 2.649826
26.307667 4.2166667 2.6620002
26.096823 4.332294 2.6434119
26.129925 4.3467484 2.6499038
26.2453 4.3569508 2.6501145
26.324575 4.3275719 2.6505713
26.072674 2.7490602 2.7487016
26.124947 2.7245557 2.7299445
26.221334 2.7223334 2.7320001
26.075296 2.8408911 2.7423136
26.129652 2.86555 2.7640998
26.209999 2.895 2.7509999
26.084145 2.9736295 2.7408888
26.128515 2.9766898 2.7590001
26.202 2.9949999 2.7465
26.077518 3.049068 2.748879
26.112738 3.0283334 2.7507336
26.249334 3.0043333 2.7563338
26.362 3.01 2.786
26.076187 3.1509829 2.7482498
26.10585 3.1434617 2.7549231
26.079857 3.2245562 2.7457304
26.11775 3.244225 2.7549255
26.249832 3.2423334 2.7573333
26.075504 3.3656394 2.7364261
26.120258 3.3465807 2.7509673
26.2145 3.382 2.7839999
26.066322 3.4514642 2.7493067
26.105335 3.4206667 2.7506666
26.064568 3.5475214 2.7483144
26.143793 3.576031 2.7237039
26.218699 3.5700002 2.74
26.069189 3.6185477 2.7754524
26.150249 3.6264865 2.7723329
26.207716 3.6210003 2.7648575
26.092251 4.1903753 2.7513747
26.14274 4.1870003 2.7487741
26.244539 4.1885638 2.7519226
26.095949 4.2469234 2.7513843
26.115604 4.25178 2.7509904
26.259592 4.2067728 2.7533641
26.098 4.3235002 2.7507501
26.129648 4.3458614 2.7501915
26.241997 4.3563666 2.7469163
26.312168 4.3336668 2.7563334
26.073444 2.7432444 2.842638
26.135389 2.7640772 2.8578846
26.209999 2.7460001 2.8900001
26.086668 2.8121669 2.8141665
26.151999 2.8187857 2.8195715
26.204666 2.8346667 2.8283336
26.083921 2.9936154 2.8446927
26.150702 2.9944327 2.8471081
26.211668 2.9976668 2.8699999
26.325001 2.9960001 2.8310001
26.076349 3.0489912 2.8489223
26.132202 3.0199142 2.8495996
26.229336 3.007 2.8625002
26.325001 3.006 2.8824999
26.07519 3.1506257 2.8504264
26.108309 3.1497695 2.8374617
26.079576 3.2237415 2.8501933
26.137703 3.2397459 2.8513582
26.234333 3.2466667 2.8588333
26.333 3.247 2.8525
26.087667 3.3903332 2.8143334
26.12875 3.3807502 2.8045001
26.074335 3.4594667 2.83868
26.150454 3.4450967 2.8491936
26.224001 3.4879999 2.878
26.062302 3.5503929 2.8470156
26.1035 3.5039999 2.872
26.25 3.5020001 2.8740001
26.061457 3.6513231 2.8483241
26.149635 3.6728265 2.824522
26.218 3.66625 2.84025
26.070791 3.7220697 2.8753722
26.153791 3.7259014 2.8731265
26.200668 3.7223334 2.8723335
26.094 4.1907997 2.8580003
26.148119 4.1861901 2.8476727
26.2372 4.1881666 2.8466945
26.095999 4.2478828 2.8414512
26.116203 4.2459788 2.8586662
26.265997 4.2057896 2.8581052
26.304501 4.2094998 2.86025
26.096001 4.309 2.849
26.132282 4.3444657 2.8488071
26.243534 4.3557758 2.847069
26.305403 4.3366003 2.8664002
26.142263 2.6727893 2.9725792
26.080999 2.7149999 2.9149997
26.146706 2.7198822 2.9265881
26.214001 2.7360001 2.9383333
26.081717 2.991714 2.9578574
26.141886 2.9895928 2.9492593
26.241001 2.9951665 2.9598331
26.077494 3.0456376 2.9483223
26.14637 3.0123332 2.9444506
26.227501 3.0059648 2.9537139
26.33375 3.00825 2.95525
26.074757 3.1479928 2.9502978
26.107203 3.1486001 2.9389999
26.078127 3.2263396 2.949322
26.147575 3.2408147 2.9504445
26.212345 3.2544138 2.9594483
26.348999 3.243 2.9475002
26.179001 3.3 2.9100001
26.087666 3.4854443 2.926667
26.113503 3.492167 2.944
26.068687 3.5580571 2.93925
26.1444 3.5474799 2.9540799
26.211573 3.554286 2.939286
26.055634 3.6514871 2.9483249
26.133667 3.6443336 2.969667
26.2155 3.6025 2.993
26.056772 3.7524877 2.9456484
26.146944 3.7732353 2.9254584
26.210751 3.7840002 2.9595003
26.066298 3.8218398 2.9787796
26.14831 3.8228354 2.9732387
26.222 3.802 2.993
26.095001 4.1900001 2.9536667
26.145769 4.18297 2.9504211
26.243895 4.1878719 2.9474363
26.096193 4.2390776 2.939692
26.113224 4.2492814 2.952491
26.253559 4.2091875 2.9451876
26.304001 4.2059999 2.9030001
26.096334 4.3286667 2.9520004
26.132042 4.3431215 2.9482167
26.246363 4.3554902 2.9476416
26.321667 4.322 2.9300001
0 0 0 1 0 0 0 1 0 0 0 1 0 0 0 0 0 620 1 0 0
