ply
format ascii 1.0
comment PCL generated
element vertex 776
property float x
property float y
property float z
element camera 1
property float view_px
property float view_py
property float view_pz
property float x_axisx
property float x_axisy
property float x_axisz
property float y_axisx
property float y_axisy
property float y_axisz
property float z_axisx
property float z_axisy
property float z_axisz
property float focal
property float scalex
property float scaley
property float centerx
property float centery
property int viewportx
property int viewporty
property float k1
property float k2
end_header
-24.156502 -0.5115 0.0089999996
-24.071501 -0.51450002 0.0125
-23.306667 -0.54233336 0.066
-23.239626 -0.55387503 0.061124999
-23.138973 -0.54402626 0.065131575
-23.074139 -0.53981084 0.023837838
-24.137123 -0.46975002 0.050250001
-24.06892 -0.46958333 0.045500003
-23.945683 -0.44215941 0.049289845
-23.361 -0.403 0.043000001
-23.236 -0.40099999 0.02
-23.12084 -0.44840541 0.072783791
-23.069715 -0.44966081 0.03376786
-23.931053 -0.34774998 0.048487488
-23.899 -0.36700001 0.052000001
-23.402 -0.36500001 0.075999998
-23.3365 -0.3725 0.066375002
-23.25662 -0.37928572 0.046000008
-23.155748 -0.39293751 0.056812495
-24.13381 -0.24195237 0.052380953
-24.037775 -0.25022224 0.044916663
-23.949944 -0.27296358 0.052727275
-23.898001 -0.29100001 0.016000001
-25.189167 0.18233334 0.071666673
-25.168514 0.24735554 0.048799999
-25.229666 0.39033335 0.075000003
-25.155411 0.34870458 0.051818177
-25.3395 0.44090006 0.052950002
-25.252079 0.42376924 0.047000002
-25.164 0.4101111 0.037444443
-23.429001 -0.52499998 0.185
-23.346001 -0.53409094 0.14672728
-23.231037 -0.53046161 0.16515385
-23.176607 -0.52804345 0.13060871
-24.1306 -0.45750004 0.15470001
-24.050714 -0.46828574 0.147
-23.948866 -0.44099998 0.14610173
-23.213688 -0.45458624 0.17786206
-23.163916 -0.44808617 0.13444829
-23.934505 -0.35163745 0.14940001
-23.443501 -0.35375002 0.17037499
-23.343166 -0.36311114 0.14933333
-23.242393 -0.37592861 0.15235716
-23.173288 -0.39042863 0.13657142
-24.141253 -0.2468572 0.14682144
-24.052469 -0.25864705 0.14552942
-23.945242 -0.27530003 0.14992003
-25.205334 0.17199999 0.15333334
-25.186388 0.17738886 0.1516111
-25.202 0.208 0.185
-25.174759 0.25066665 0.14881818
-25.363165 0.38833332 0.169
-25.248468 0.37793332 0.169
-25.164864 0.34383339 0.15047222
-25.330299 0.41349998 0.14670001
-25.2572 0.40739998 0.12100001
-23.447109 -0.50933331 0.25655556
-23.340763 -0.5165714 0.26095238
-23.264229 -0.52481824 0.22722729
-24.131891 -0.45777777 0.25299999
-24.062626 -0.46337497 0.24687499
-23.951601 -0.44048887 0.24619998
-23.530499 -0.48750001 0.27149999
-23.317333 -0.44957143 0.28723809
-23.26569 -0.44794115 0.23738231
-23.936783 -0.35183784 0.24925676
-23.526333 -0.33333334 0.27211109
-23.444 -0.34071425 0.25357148
-23.331545 -0.36529028 0.26809677
-23.263474 -0.37841171 0.2368235
-24.141886 -0.24651851 0.24807407
-24.048025 -0.257 0.24963893
-23.947208 -0.27820376 0.24562968
-25.405001 0.148 0.28799999
-25.208076 0.15338461 0.25815386
-25.193375 0.16249999 0.24650002
-25.202335 0.21800002 0.26466668
-25.181877 0.25057504 0.24765003
-25.337236 0.37117645 0.25229415
-25.24786 0.35464284 0.2487143
-25.175459 0.32604167 0.24429166
-25.351 0.4005 0.222
-23.438574 -0.50485712 0.34514287
-23.359182 -0.50899994 0.32772732
-24.13825 -0.45008335 0.34925005
-24.0522 -0.4598 0.3486
-23.956676 -0.44652939 0.34626472
-23.547728 -0.48600003 0.35618186
-23.422209 -0.4650417 0.38216671
-23.364868 -0.44977418 0.34148395
-23.941132 -0.34599999 0.34911597
-23.625799 -0.3163 0.36289999
-23.553633 -0.32345718 0.34939998
-23.448608 -0.33711115 0.35763884
-23.361444 -0.3679111 0.34542227
-23.299999 -0.377 0.30899999
-24.135302 -0.24210005 0.3514334
-24.047028 -0.2525143 0.35494283
-23.949661 -0.27445456 0.34895462
-25.211334 0.09533333 0.37033337
-25.411999 0.13949999 0.34399998
-25.361601 0.1218 0.36300001
-25.212389 0.14404349 0.35413045
-25.195133 0.15493336 0.34120005
-25.208668 0.26188889 0.35822219
-25.183365 0.25444734 0.34642103
-25.403 0.31900001 0.36500001
-25.34347 0.34335297 0.3504706
-25.251335 0.32399997 0.33852383
-25.177666 0.31116664 0.31999999
-23.460003 -0.50999999 0.42066669
-24.202999 -0.428 0.472
-24.144274 -0.44600004 0.44590908
-24.045286 -0.45657146 0.45314288
-23.959742 -0.43758062 0.44619346
-23.777 -0.42300001 0.49900001
-23.649145 -0.46157146 0.46414292
-23.538382 -0.46585715 0.46566668
-23.46088 -0.44721219 0.44042426
-23.942162 -0.34842858 0.44254762
-23.754333 -0.30900002 0.465
-23.644264 -0.31047827 0.45139131
-23.542934 -0.32410875 0.45515215
-23.460924 -0.35178483 0.44462025
-23.399 -0.347 0.40000001
-24.135372 -0.23792592 0.45470369
-24.044569 -0.25143337 0.44720003
-23.948 -0.27256411 0.44910255
-23.720144 -0.29257143 0.47542861
-23.657669 -0.29741669 0.45500001
-23.578999 -0.30000001 0.4815
-25.345999 0.088749997 0.47099999
-25.239101 0.074849993 0.45444998
-25.4095 0.102 0.456
-25.3855 0.114 0.41049999
-25.214977 0.14359525 0.45109531
-25.196249 0.169 0.43649995
-25.406 0.294 0.47799999
-25.336802 0.29180002 0.48300001
-25.232689 0.26389658 0.44610342
-25.191612 0.24507144 0.44453576
-25.400999 0.33500001 0.421
-25.361053 0.31778949 0.44000003
-25.286667 0.31266665 0.41933334
-24.205 -0.42650002 0.55299997
-24.148911 -0.44181821 0.54990906
-24.042887 -0.45377779 0.54699999
-23.961958 -0.4384 0.54599994
-23.8195 -0.4215 0.58850002
-23.739401 -0.44179997 0.55580002
-23.631418 -0.4496842 0.56921053
-23.557531 -0.43701604 0.54117733
-23.948242 -0.37272003 0.54556
-23.740002 -0.30900002 0.55733335
-23.630856 -0.31821433 0.54900002
-23.555761 -0.34373194 0.54597926
-24.133999 -0.23677774 0.54805559
-24.048119 -0.25029406 0.54594117
-23.950857 -0.27156252 0.54433334
-23.821999 -0.27925 0.56650001
-23.753107 -0.28421429 0.56010717
-23.660063 -0.29265627 0.55300003
-23.568668 -0.29516667 0.54299998
-25.427999 0.078333341 0.542
-25.346571 0.060571436 0.55757141
-25.236923 0.062414631 0.55421954
-25.220407 0.14784615 0.55007696
-25.199249 0.17874999 0.54124999
-25.417799 0.2818 0.55480003
-25.352001 0.27516666 0.554389
-25.233023 0.24104878 0.55202425
-25.1945 0.23450001 0.528
-25.389334 0.30599999 0.53100002
-24.212999 -0.42199999 0.634
-24.15073 -0.44099998 0.65481824
-24.038 -0.45569998 0.65359998
-23.964317 -0.43327278 0.64454544
-23.8132 -0.4244 0.6566
-23.728184 -0.43163639 0.67136359
-23.657486 -0.43191487 0.64099991
-23.599001 -0.41499999 0.61699998
-23.946297 -0.36182353 0.63876468
-23.878 -0.322 0.60500002
-23.709 -0.34980002 0.67620003
-23.648956 -0.34777275 0.6473524
-23.595001 -0.31933334 0.60800004
-24.140253 -0.23763891 0.6514166
-24.052269 -0.24362163 0.64800006
-23.961769 -0.26092303 0.64703858
-23.848274 -0.26442423 0.6542424
-23.753794 -0.27541378 0.65206903
-23.665483 -0.28816003 0.64891988
-23.5965 -0.29549998 0.60699999
-25.252666 -0.014666667 0.6656667
-25.429998 0.048599999 0.64700001
-25.3482 0.033200003 0.65240002
-25.246094 0.051981479 0.65240735
-25.225111 0.15073332 0.65117788
-25.4086 0.25440001 0.66780001
-25.353207 0.24833332 0.65083337
-25.246607 0.21803574 0.64835715
-24.216251 -0.41975001 0.76549995
-24.139376 -0.44074997 0.74599999
-24.0415 -0.45240003 0.74599999
-23.967693 -0.43295655 0.7414782
-23.837698 -0.41659999 0.7615
-23.745811 -0.41919234 0.73500007
-23.958143 -0.39271432 0.75214285
-23.805 -0.35824999 0.79500008
-23.750389 -0.35177928 0.75203919
-23.693602 -0.32480001 0.70540005
-24.145239 -0.2341724 0.74506891
-24.058748 -0.24305555 0.74888879
-23.948093 -0.24174193 0.75509685
-23.845997 -0.2579487 0.74869233
-23.754606 -0.27707848 0.7462548
-23.693001 -0.292 0.71700001
-25.445 -0.0040000002 0.78100002
-25.313665 -0.018333334 0.76666665
-25.258999 -0.012 0.75661117
-25.431751 0.015000001 0.74724996
-25.346001 0.0077999993 0.72760004
-25.249168 0.047360655 0.74765575
-25.336334 0.189 0.75866669
-25.236105 0.1530769 0.74689752
-25.419909 0.23672727 0.74590909
-25.354361 0.21600004 0.75128573
-25.270287 0.20742859 0.72828573
-24.216999 -0.419 0.8265
-24.136 -0.4387143 0.84828579
-24.037155 -0.45207694 0.84369236
-23.976858 -0.44188571 0.85228574
-23.8458 -0.40909997 0.83680004
-23.788 -0.403 0.80800003
-23.944284 -0.38657147 0.84878576
-23.846548 -0.35202852 0.85207129
-23.794502 -0.329 0.80624998
-24.145617 -0.23899999 0.84130776
-24.047935 -0.22503127 0.84756243
-23.950346 -0.23020004 0.85844994
-23.852938 -0.26479685 0.85101581
-23.792835 -0.26733333 0.80583334
-25.437599 -0.017200001 0.86180001
-25.341715 -0.033285715 0.84871429
-25.269091 -0.024878791 0.85509092
-25.459 0.003 0.80500001
-25.250317 0.048929822 0.84807026
-25.429401 0.19149999 0.87350005
-25.347549 0.17529999 0.85090011
-25.250326 0.14113045 0.83852166
-25.433401 0.2105 0.83070004
-25.3615 0.2045 0.80550003
-24.144375 -0.43425 0.95325005
-24.051102 -0.44640002 0.94620001
-23.97513 -0.43227652 0.94765955
-23.943283 -0.35201281 0.95234615
-23.896399 -0.33419999 0.90979999
-24.151381 -0.24185713 0.94990468
-24.048054 -0.2184054 0.94554067
-23.945381 -0.25158113 0.95331079
-23.888819 -0.25400001 0.90899998
-25.279999 -0.1105 0.97850001
-24.067715 -0.19 0.96814287
-25.4484 -0.0416 0.94700003
-25.337498 -0.061999999 0.95574999
-25.276255 -0.037592597 0.95257401
-25.256798 0.050580647 0.95056462
-25.430885 0.16665384 0.95473087
-25.355289 0.15164286 0.94860715
-25.258125 0.12079164 0.94416666
-24.147285 -0.43057144 1.0577143
-24.05282 -0.44154546 1.046
-23.976982 -0.42990196 1.0456862
-23.958647 -0.34824991 1.0500454
-24.204 -0.244 1.018
-24.151001 -0.23454545 1.0554092
-24.039192 -0.22468624 1.0520002
-23.956339 -0.26098526 1.0456469
-25.308002 -0.11633333 1.0743334
-25.289446 -0.11266667 1.0603334
-24.069181 -0.19045453 1.0525454
-25.456142 -0.075571433 1.0468572
-25.330166 -0.085583344 1.0486667
-25.278215 -0.04525999 1.0510801
-25.332144 0.093857139 1.083143
-25.260393 0.052681807 1.0498788
-25.436182 0.13500001 1.0495557
-25.362558 0.12183999 1.0435199
-25.279001 0.1073 1.0319999
-23.979816 -0.42955816 1.1476043
-23.963299 -0.35188237 1.148553
-24.146101 -0.22324139 1.1527586
-24.052679 -0.23299998 1.1488638
-23.956318 -0.26371422 1.1503428
-25.449202 -0.1098 1.1554
-25.321667 -0.12808335 1.1607084
-25.290335 -0.10966667 1.1486667
-24.173 -0.19599999 1.14
-24.1 -0.198 1.1160001
-25.472 -0.089000002 1.118
-25.312599 -0.079599999 1.1508
-25.284632 -0.045245614 1.1489826
-25.438429 0.089357153 1.1728573
-25.349382 0.079352938 1.154441
-25.269981 0.041152541 1.1487455
-25.442583 0.11399999 1.1343158
-25.366501 0.10475 1.12325
-24.14382 -0.44172731 1.2641819
-24.045469 -0.4422667 1.2556001
-23.977379 -0.42678386 1.2436217
-23.963703 -0.35136133 1.2484579
-25.309999 -0.20100001 1.291
-24.144075 -0.21659258 1.2458889
-24.058189 -0.22870268 1.2454867
-23.959627 -0.26208001 1.24792
-25.461374 -0.139375 1.2572501
-25.319181 -0.14202224 1.2507555
-25.29257 -0.11471429 1.2630001
-24.128286 -0.19571429 1.2490001
-25.305845 -0.077692308 1.2594615
-25.283848 -0.039981142 1.2487547
-25.446367 0.072787881 1.2509396
-25.348204 0.051051281 1.2494361
-25.275404 0.02791892 1.2444327
-25.431999 0.103 1.224
-23.99227 -0.53664863 1.3545406
-24.02154 -0.47215384 1.3150002
-23.981373 -0.44793054 1.3525692
-23.9674 -0.35099986 1.349023
-25.326889 -0.2067778 1.3762223
-24.143087 -0.21321741 1.3476521
-24.054373 -0.22642106 1.3483161
-23.959053 -0.25966239 1.3481556
-25.5035 -0.15899999 1.3555
-25.456249 -0.17500001 1.362
-25.321924 -0.15306152 1.3478305
-25.296999 -0.12355557 1.3581111
-24.137428 -0.19157143 1.355143
-25.310202 -0.053550012 1.3611499
-25.286432 -0.040589292 1.347018
-25.5135 0.056000002 1.3675001
-25.446365 0.039914288 1.3499715
-25.351864 0.022166669 1.3435832
-25.285126 0.0101875 1.335875
-24.020559 -0.55316663 1.4341667
-23.9979 -0.52819997 1.4144999
-24.127251 -0.42499998 1.48675
-24.013554 -0.46605 1.44765
-23.984835 -0.4331395 1.4433024
-24.000999 -0.391 1.4450001
-23.9692 -0.35386744 1.4503013
-25.337606 -0.21973912 1.4447825
-24.146193 -0.20992309 1.4463077
-24.051561 -0.22302943 1.4514413
-23.960897 -0.2596375 1.4487876
-25.4615 -0.191 1.418
-25.316267 -0.14824489 1.4482855
-25.295668 -0.11066668 1.446
-24.138836 -0.18600002 1.4545
-23.981001 -0.199 1.452
-25.430334 -0.010222223 1.4767779
-25.3361 -0.034600008 1.4514199
-25.290846 -0.046576925 1.4458846
-25.542 0.028999999 1.448
-25.453257 0.014555554 1.4397409
-25.354801 0.0046000001 1.4182
-24.140747 -0.42058334 1.5522501
-24.033249 -0.4325 1.552375
-23.98295 -0.42564103 1.5452051
-23.969555 -0.35113928 1.5490633
-25.429001 -0.25 1.561
-25.34437 -0.23696297 1.5547036
-24.135107 -0.21152632 1.5363685
-24.047173 -0.21840002 1.5489429
-23.957859 -0.25834617 1.5485511
-25.59 -0.116 1.589
-25.323137 -0.15522227 1.544911
-25.294167 -0.10833333 1.5503334
-24.146101 -0.18940002 1.552
-23.993999 -0.191 1.5549999
-25.5212 -0.033200003 1.5516001
-25.448742 -0.021434784 1.5547827
-25.336452 -0.055470604 1.5495492
-25.292999 -0.063249998 1.5165
-25.51 0.001 1.539
-25.476 0.0020000001 1.518
-24.149181 -0.41718185 1.6487273
-24.024872 -0.43060002 1.6496001
-23.978609 -0.42277786 1.6424445
-25.358002 -0.30574998 1.65425
-24.01 -0.391 1.602
-23.968597 -0.35081485 1.6496297
-25.547001 -0.249 1.6734999
-25.434668 -0.27566665 1.6703334
-25.351034 -0.24645457 1.6539273
-24.111002 -0.20257144 1.643
-24.042063 -0.21956252 1.6496563
-23.961874 -0.25721174 1.6491179
-25.326935 -0.15179101 1.6546714
-25.2995 -0.1175 1.614
-24.158751 -0.190625 1.6354998
-24.051001 -0.2 1.604
-25.516142 -0.046428576 1.6581432
-25.447767 -0.053466663 1.6493667
-25.344358 -0.07923077 1.6424874
-24.153166 -0.41333336 1.7455835
-24.035398 -0.43010002 1.7556002
-23.982927 -0.42189291 1.7414644
-25.539 -0.301 1.795
-25.448502 -0.3055 1.7725
-25.373335 -0.31244445 1.7594444
-24.002001 -0.3775 1.7644999
-23.970911 -0.35491025 1.7484231
-25.532249 -0.27375001 1.7385
-25.43775 -0.29374999 1.73975
-25.355621 -0.25165153 1.7498485
-24.043814 -0.21899998 1.7478124
-23.960602 -0.25710976 1.7478293
-25.5625 -0.117 1.781
-25.4258 -0.10780001 1.7751999
-25.33997 -0.14701194 1.752357
-24.209 -0.19499999 1.791
-24.154453 -0.19681819 1.7446363
-25.610001 -0.071000002 1.788
-25.518917 -0.075000003 1.7536668
-25.453917 -0.078625008 1.7385833
-25.376877 -0.094750002 1.718375
-24.147415 -0.41483331 1.8455
-24.033848 -0.42200002 1.8536155
-23.988321 -0.41996002 1.8490399
-25.545166 -0.30833334 1.8463333
-25.430124 -0.34187499 1.8553749
-25.38047 -0.32564712 1.8544706
-24.001499 -0.37900001 1.8445001
-23.97481 -0.35196432 1.8490239
-25.362358 -0.25260717 1.8517854
-24.157 -0.223 1.857
-24.050268 -0.21013333 1.8497334
-23.963741 -0.25790405 1.8488492
-25.526999 -0.113 1.8638752
-25.452814 -0.1192963 1.849
-25.348701 -0.16099997 1.8475671
-24.211 -0.19400001 1.808
-24.162546 -0.19218183 1.8533636
-23.983999 -0.19499999 1.88
-25.5114 -0.087800004 1.8214
-25.487 -0.093000002 1.8049999
-24.153801 -0.41050002 1.9441999
-24.034498 -0.42550001 1.9545001
-23.988947 -0.41794741 1.9450001
-25.544165 -0.33850002 1.9488333
-25.439289 -0.3674286 1.9601429
-25.384645 -0.3377924 1.949491
-24.202 -0.39899999 1.979
-24.006001 -0.37900001 1.946
-23.97846 -0.34847829 1.9500577
-25.400999 -0.24600001 1.987
-25.363167 -0.24884745 1.9515256
-24.132666 -0.20966667 1.9296668
-24.034285 -0.21428573 1.9456431
-23.965626 -0.25552461 1.9549019
-25.535166 -0.14316666 1.9458334
-25.451269 -0.15390001 1.9503001
-25.361053 -0.18011428 1.9421142
-24.216335 -0.18550001 1.9491667
-24.165501 -0.1911 1.9605
-24.0905 -0.19875 1.93875
-23.974001 -0.199 1.98
-25.414 -0.44999999 2.0910001
-25.3925 -0.42250001 2.0910001
-24.163002 -0.40833336 2.0527775
-24.036064 -0.42256248 2.0493751
-23.993355 -0.41670588 2.0436471
-25.546202 -0.37399998 2.0602
-25.421835 -0.37383333 2.0522778
-25.385803 -0.33692685 2.0504875
-24.160999 -0.39700001 2.076
-24.011333 -0.37400001 2.0486667
-23.9811 -0.35043284 2.0493581
-25.525999 -0.20299999 2.0780001
-25.421875 -0.20575 2.061625
-25.367718 -0.24609835 2.0485246
-24.143 -0.208 2.0120001
-24.043669 -0.21366668 2.0490003
-23.968222 -0.25640628 2.0512342
-25.526001 -0.16512501 2.0451875
-25.451962 -0.18049997 2.0443749
-25.364201 -0.19240001 2.0128002
-24.236376 -0.14649999 2.0565
-24.147264 -0.15747368 2.0539474
-24.057957 -0.16230436 2.0689566
-25.541334 -0.41099998 2.1760001
-25.431431 -0.43207145 2.1557856
-25.3965 -0.42449999 2.1494999
-24.15943 -0.40399998 2.1522861
-24.026896 -0.4216429 2.153857
-23.989748 -0.41075 2.1378748
-25.567001 -0.39200002 2.135
-25.410002 -0.36805552 2.1497223
-25.387527 -0.33258823 2.1492062
-24.218 -0.38999999 2.1585
-24.153999 -0.40000001 2.1989999
-24.004623 -0.36800003 2.1456249
-23.981693 -0.34929577 2.1513381
-25.546101 -0.21540001 2.1699002
-25.443665 -0.22537036 2.1584072
-25.374306 -0.26010865 2.1442821
-24.038754 -0.21833335 2.1487498
-23.972027 -0.25412306 2.1504159
-25.534929 -0.18742858 2.1347857
-25.464666 -0.19933334 2.1160002
-24.181 -0.107 2.1059999
-24.04999 -0.14803332 2.147167
-24.2155 -0.086999997 2.1205001
-24.1555 -0.054562509 2.1550627
-24.049072 -0.066499993 2.1668575
-24.146 0 2.181
-24.027 0.028000001 2.194
-25.557001 -0.43079996 2.2502
-25.42634 -0.4367241 2.2508276
-24.160751 -0.40700001 2.2395
-24.035278 -0.42016667 2.2510002
-23.994356 -0.41085717 2.2534287
-25.407644 -0.35692862 2.2722144
-25.391109 -0.33899996 2.2425001
-24.204498 -0.39600003 2.2595
-24.160501 -0.39649999 2.2522502
-24.0056 -0.3854 2.2476001
-23.979582 -0.34587321 2.2510283
-25.618 -0.25999999 2.237
-25.547043 -0.23083334 2.2552915
-25.449415 -0.24958622 2.2471724
-25.382801 -0.27951616 2.2459033
-24.045626 -0.20675001 2.249125
-23.969524 -0.25255406 2.249824
-24.05191 -0.14545766 2.2459323
-24.151001 -0.0090000005 2.204
-24.037241 -0.050771423 2.2488573
-24.149563 0.051750008 2.2597499
-24.039776 0.033295453 2.2684093
-24.149 0.112 2.2969999
-25.445747 -0.514 2.3559999
-25.611334 -0.45166668 2.3526669
-25.546501 -0.4655 2.344667
-25.428667 -0.44912118 2.3510604
-24.129333 -0.4086667 2.3296669
-24.0354 -0.41625005 2.3518999
-23.995167 -0.41150004 2.3311667
-25.411499 -0.36064997 2.3462999
-25.39295 -0.33261904 2.3478568
-24.172401 -0.39420003 2.3438001
-24.006002 -0.38785717 2.3522859
-23.981249 -0.34876463 2.3496916
-25.608 -0.285 2.3570001
-25.548655 -0.26096159 2.3504617
-25.455082 -0.28054166 2.3434587
-25.387857 -0.29128572 2.3434286
-24.037333 -0.21111111 2.3524446
-23.97117 -0.2522817 2.3478873
-24.136433 -0.17057143 2.3817146
-24.059242 -0.14468886 2.3386002
-23.974001 -0.198 2.382
-24.039316 -0.050208334 2.3510695
-24.144165 0.087499999 2.3088336
-24.022293 0.052655172 2.3501382
-23.997 0.08533334 2.3546667
-24.132931 0.14671429 2.356286
-24.0383 0.14229628 2.3646114
-23.993002 0.16340001 2.3860002
-24.115 0.20900001 2.391
-25.452555 -0.51466674 2.4520001
-25.6185 -0.48049998 2.448
-25.54825 -0.49225 2.4317498
-25.43042 -0.44806451 2.4433546
-24.114799 -0.40319997 2.4463999
-24.033777 -0.41688886 2.4434443
-23.9995 -0.41000003 2.4405
-25.6325 -0.31549999 2.4714999
-25.533001 -0.3105 2.4662499
-25.432167 -0.3436667 2.4515002
-25.396069 -0.35086668 2.4376667
-24.165001 -0.39250001 2.4590001
-24.01425 -0.37550002 2.4646666
-23.984665 -0.34685722 2.4473433
-25.616333 -0.27500004 2.4400001
-25.5674 -0.28640002 2.4364669
-25.481001 -0.29366669 2.4216666
-24.033335 -0.21499999 2.4504445
-23.971767 -0.2485263 2.4492886
-24.150356 -0.17570589 2.4498823
-24.073002 -0.19129999 2.4464002
-24.15225 -0.043250002 2.4485002
-24.047056 -0.03448572 2.4336283
-24.022871 0.049070422 2.4496481
-23.999001 0.093000002 2.4230001
-24.127001 0.183 2.4100001
-24.016062 0.1459516 2.443887
-23.993843 0.16862501 2.4534063
-24.126915 0.24520835 2.4527502
-24.047199 0.24384443 2.4589996
-23.987669 0.23103337 2.4695003
-24.098 0.31299999 2.497
-25.639334 -0.51700008 2.5690002
-25.535002 -0.53666663 2.549
-25.460356 -0.52648002 2.5536399
-25.636999 -0.49599999 2.5190001
-25.432558 -0.4429706 2.5447648
-24.23 -0.41150001 2.5910001
-24.116999 -0.4141818 2.5595455
-24.028944 -0.40858826 2.5500588
-25.618 -0.3335 2.5679998
-25.550835 -0.33261114 2.5566666
-25.437754 -0.36358339 2.5476949
-25.4 -0.35100001 2.5079999
-24.217499 -0.38800001 2.556
-24.160749 -0.39475 2.5445001
-24.009882 -0.37241179 2.5611174
-23.985533 -0.34318334 2.5464835
-24.107 -0.22 2.589
-24.026573 -0.20914285 2.541286
-23.974506 -0.24966221 2.550446
-24.142126 -0.17491665 2.5534582
-24.068417 -0.18966667 2.5610001
-23.973 -0.198 2.5580001
-24.129801 0.041000001 2.5346
-24.028624 0.064297296 2.5377295
-24.013357 0.13862263 2.5530753
-23.994364 0.16986364 2.5470455
-24.122002 0.29499999 2.5109999
-24.020308 0.25361538 2.5240769
-23.9848 0.25264382 2.5479591
-24.117235 0.35117653 2.5501177
-24.04627 0.34464586 2.5567498
-23.979523 0.33442506 2.5719249
-25.475 -0.60299999 2.681
-25.626001 -0.55149996 2.66675
-25.55175 -0.55674994 2.6382499
-25.46427 -0.54180002 2.6499002
-25.442635 -0.4459092 2.6526668
-24.218336 -0.44116664 2.6531668
-24.127001 -0.44774196 2.6579998
-24.065769 -0.41942307 2.648731
-25.619999 -0.35499999 2.6434999
-25.548166 -0.36177772 2.6532223
-25.447685 -0.38200003 2.6395788
-24.011034 -0.37163335 2.6624
-23.988148 -0.34025529 2.6474254
-24.011003 -0.24071431 2.6557145
-23.979527 -0.25114289 2.6499283
-24.147999 -0.1717692 2.6518464
-24.05917 -0.18594284 2.6543148
-23.98875 -0.189 2.6515002
-24.031 0.089000002 2.609
-24.106001 0.178 2.6630001
-24.017321 0.16149999 2.6305001
-23.995401 0.18293336 2.6539333
-24.103001 0.2 2.6860001
-24.008167 0.23391668 2.6515002
-23.985641 0.25534782 2.6487389
-24.107 0.39899999 2.6010001
-24.040335 0.38416666 2.6238332
-23.971632 0.35096151 2.648859
-24.107666 0.43444446 2.6378891
-24.050323 0.44332558 2.6529772
-23.966455 0.43434614 2.6703846
-25.552 -0.60299999 2.7850001
-25.4818 -0.611 2.7651999
-25.545 -0.58719999 2.7298
-25.472477 -0.55202502 2.7468755
-24.248335 -0.50566673 2.7816668
-24.138371 -0.51752633 2.7724738
-25.629501 -0.40450001 2.7855
-25.522751 -0.41775 2.7857499
-25.449614 -0.44490907 2.7496815
-24.22975 -0.48049998 2.7397499
-24.117559 -0.47462499 2.7492499
-24.079639 -0.43420514 2.7452054
-24 -0.40799999 2.7520001
-25.620398 -0.38920003 2.7388
-25.549364 -0.38872734 2.7474546
-25.429001 -0.39399999 2.7079999
-24.114668 -0.39766666 2.7793336
-24.011833 -0.37016663 2.75425
-23.988541 -0.33810818 2.7511082
-24.023287 -0.21557145 2.7484288
-23.979856 -0.25003844 2.7502687
-24.221001 -0.189 2.783
-24.150608 -0.17354546 2.7512426
-24.0445 -0.18405554 2.7509723
-23.987309 -0.18846154 2.7745385
-24.102001 0.24633333 2.734
-24.016901 0.25799999 2.7549
-23.984758 0.26669699 2.7353334
-23.970575 0.34946054 2.747658
-24.037001 0.48800001 2.7012501
-23.954227 0.44827721 2.7497358
-24.052357 0.54348934 2.7520425
-23.95693 0.52971929 2.7626488
-24.041 0.60549998 2.7825
-23.976 0.60299999 2.7920001
-25.626333 -0.61033332 2.860667
-25.524502 -0.63020009 2.8443
-25.48477 -0.62230772 2.8513844
-25.514 -0.59799999 2.825
-25.475866 -0.55600011 2.8495667
-24.229599 -0.54689997 2.8486001
-24.135906 -0.53649026 2.8577654
-24.098999 -0.51600003 2.8534999
-25.639801 -0.42840001 2.8692002
-25.549715 -0.42735717 2.8480716
-25.461765 -0.46630004 2.8504667
-24.107214 -0.4755263 2.8574214
-24.089745 -0.4516744 2.8481162
-25.617666 -0.39499998 2.8146667
-24.125835 -0.39333338 2.8461666
-24.019779 -0.37965623 2.8516874
-23.967691 -0.33252719 2.8487999
-24.236 -0.213 2.813
-24.0035 -0.25 2.8515
-23.949665 -0.24887237 2.8501494
-24.209251 -0.17074999 2.8565001
-24.149754 -0.16985716 2.846107
-24.047684 -0.17902859 2.8532288
-23.955969 -0.18903334 2.8514998
-23.981001 0.29499999 2.8
-24.053749 0.34812498 2.8434999
-23.969999 0.36400002 2.8367729
-23.952686 0.44701269 2.8506966
-24.025665 0.59066665 2.8043334
-23.938463 0.55176419 2.8461795
-24.044653 0.64193022 2.8490927
-23.946491 0.63310176 2.8621013
-23.9 0.62099999 2.8699999
-24.046 0.704 2.895
-24.41 -1.472 2.9960001
-24.329 -1.007 2.9979999
-24.323 -0.99699998 2.997
-25.52 -0.70300001 2.9489999
-25.524469 -0.65570593 2.954706
-25.491932 -0.61985713 2.9459291
-24.237335 -0.61300004 2.9796665
-24.162334 -0.61455554 2.9723332
-25.506668 -0.58966672 2.9549999
-25.479757 -0.55230302 2.9460003
-24.237751 -0.58700001 2.9324999
-24.126965 -0.55051398 2.9499581
-24.099335 -0.50766671 2.9586668
-25.622803 -0.43919998 2.9491003
-25.543589 -0.45529413 2.9403529
-25.46476 -0.48209524 2.9472857
-24.112 -0.46339136 2.954
-24.088751 -0.45409375 2.9454374
-24.142668 -0.38455555 2.9555557
-24.019033 -0.37843335 2.946867
-23.936682 -0.3374773 2.9369092
-23.884041 -0.32620001 2.9725602
-24.238998 -0.21633336 2.9576664
-24.108002 -0.2085 2.9635
-24.087 -0.215 2.9960001
-23.914646 -0.24554168 2.9275627
-23.881052 -0.24864998 2.9700327
-24.219999 -0.18700001 2.9630001
-24.151472 -0.16817646 2.9507656
-24.055147 -0.18181483 2.9455183
-23.952526 -0.18802778 2.9491665
-23.879801 -0.1918 2.9691002
-24.117001 0.458 2.9450002
-24.048288 0.45357144 2.9505715
-23.950645 0.46375 2.9359167
-23.934191 0.55059522 2.9510713
-24.032999 0.6925 2.9087501
-23.922346 0.65359569 2.9451692
-23.9 0.65700001 2.9530001
-24.033768 0.74359995 2.9534338
-23.940582 0.73598343 2.9618995
-23.897499 0.73430002 2.9784
0 0 0 1 0 0 0 1 0 0 0 1 0 0 0 0 0 776 1 0 0
