ply
format ascii 1.0
comment PCL generated
element vertex 1999
property float x
property float y
property float z
element camera 0
property float view_px
property float view_py
property float view_pz
property float x_axisx
property float x_axisy
property float x_axisz
property float y_axisx
property float y_axisy
property float y_axisz
property float z_axisx
property float z_axisy
property float z_axisz
property float focal
property float scalex
property float scaley
property float centerx
property float centery
property int viewportx
property int viewporty
property float k1
property float k2
end_header
12.589 2.983 0.85299999
12.581 2.987 0.83499998
12.572 2.99 0.81699997
12.59 2.98 0.79699999
12.606 2.971 0.778
12.599 2.974 0.75999999
12.596 2.974 0.741
12.595 2.974 0.72299999
12.6 2.97 0.704
12.592 2.974 0.68599999
12.588 2.9749999 0.66799998
12.571 2.9820001 0.64999998
12.562 2.9860001 0.63200003
12.54 2.9960001 0.61400002
12.521 3.0050001 0.59600002
12.505 3.013 0.57800001
12.49 3.0190001 0.56
12.503 3.0120001 0.54100001
12.47 3.0280001 0.523
12.456 3.0339999 0.505
12.438 3.0420001 0.48699999
12.428 3.046 0.46799999
12.408 3.056 0.44999999
12.396 3.0610001 0.43099999
12.363 3.076 0.41299999
12.372 3.0710001 0.39399999
12.348 3.082 0.375
12.343 3.0840001 0.35699999
12.303 3.1029999 0.338
12.306 3.1010001 0.31900001
12.688 2.9059999 0.29899999
12.266 3.119 0.28099999
12.255 3.1229999 0.26199999
12.869 2.812 0.245
12.857 2.8169999 0.227
12.888 2.8 0.20999999
12.917 2.7850001 0.192
12.955 2.7650001 0.175
12.974 2.7539999 0.15700001
12.977 2.7520001 0.14
12.995 2.7420001 0.122
12.999 2.7390001 0.105
12.999 2.7379999 0.086999997
13.017 2.7279999 0.07
13.008 2.7320001 0.052000001
13.017 2.727 0.035
13.003 2.7320001 0.017000001
12.94 2.8740001 2.6730001
12.953 2.8659999 2.6500001
12.945 2.8699999 2.6340001
12.938 2.872 2.6170001
12.941 2.8699999 2.5969999
12.955 2.862 2.575
12.952 2.862 2.5569999
12.951 2.862 2.5380001
12.969 2.852 2.5150001
12.951 2.8599999 2.5009999
12.956 2.8570001 2.4809999
12.957 2.855 2.4619999
12.957 2.8540001 2.4430001
12.932 2.8659999 2.431
12.932 2.865 2.4119999
12.908 2.8770001 2.3989999
12.887 2.8870001 2.385
12.861 2.8989999 2.372
12.849 2.905 2.3559999
12.828 2.915 2.342
12.577 2.97 0.89099997
12.547 2.984 0.87400001
12.556 2.9790001 0.85500002
12.543 2.9849999 0.83700001
12.553 2.9779999 0.81800002
12.543 2.983 0.80000001
12.546 2.98 0.78100002
12.55 2.977 0.76300001
12.565 2.9690001 0.74299997
12.561 2.97 0.72500002
12.555 2.9719999 0.70700002
12.559 2.9690001 0.68800002
12.554 2.971 0.67000002
12.558 2.9679999 0.65100002
12.557 2.9679999 0.63300002
12.535 2.9779999 0.61500001
12.533 2.9779999 0.597
12.515 2.9860001 0.579
12.5 2.993 0.56
12.486 2.9990001 0.542
12.461 3.0109999 0.52399999
12.45 3.0150001 0.50599998
12.438 3.0209999 0.48800001
12.427 3.0250001 0.46900001
12.41 3.033 0.45100001
12.409 3.033 0.43200001
12.375 3.049 0.414
12.366 3.052 0.39500001
12.35 3.0599999 0.37599999
12.333 3.0669999 0.35800001
12.333 3.066 0.33899999
12.299 3.082 0.31999999
12.639 2.9100001 0.30000001
12.261 3.0999999 0.28200001
12.265 3.0969999 0.26300001
12.25 3.1040001 0.244
12.846 2.802 0.228
12.845 2.802 0.20999999
12.885 2.7809999 0.193
12.913 2.7650001 0.175
12.951 2.7449999 0.15800001
12.968 2.7360001 0.141
12.969 2.7349999 0.123
12.993 2.7219999 0.106
13.009 2.7130001 0.088
13 2.717 0.071000002
12.995 2.7179999 0.052999999
13.013 2.7079999 0.035999998
13.004 2.7119999 0.017999999
12.939 2.8559999 2.691
12.948 2.8499999 2.6689999
12.95 2.848 2.6500001
12.955 2.8440001 2.6300001
12.946 2.848 2.6129999
12.955 2.8429999 2.592
12.963 2.8380001 2.572
12.951 2.8429999 2.556
12.955 2.839 2.536
12.947 2.8429999 2.5190001
12.96 2.835 2.497
12.963 2.832 2.4779999
12.953 2.8369999 2.4619999
12.945 2.8399999 2.4449999
12.923 2.8499999 2.4319999
12.899 2.862 2.4189999
12.891 2.865 2.402
12.865 2.8770001 2.3889999
12.831 2.8940001 2.378
12.82 2.8989999 2.362
12.517 2.977 0.83899999
12.511 2.9790001 0.82099998
12.499 2.984 0.80299997
12.503 2.9809999 0.78399998
12.506 2.9790001 0.76499999
12.495 2.984 0.74699998
12.504 2.9779999 0.72799999
12.494 2.9820001 0.70999998
12.513 2.9719999 0.69099998
12.504 2.9749999 0.67199999
12.516 2.9679999 0.653
12.507 2.9719999 0.63499999
12.497 2.9760001 0.61699998
12.518 2.9649999 0.59799999
12.497 2.974 0.57999998
12.497 2.973 0.56099999
12.481 2.98 0.54299998
12.463 2.9890001 0.52499998
12.443 2.9979999 0.50700003
12.439 2.9990001 0.48800001
12.426 3.0050001 0.47
12.405 3.0150001 0.45100001
12.394 3.0190001 0.433
12.362 3.0339999 0.41499999
12.356 3.0369999 0.396
12.351 3.0380001 0.377
12.337 3.0439999 0.35800001
12.309 3.0569999 0.34
12.299 3.0610001 0.32100001
12.578 2.9200001 0.301
12.257 3.0810001 0.28299999
12.256 3.0799999 0.264
12.235 3.089 0.245
12.208 3.102 0.226
12.205 3.1029999 0.206
12.808 2.799 0.193
12.871 2.767 0.176
12.901 2.7509999 0.15800001
12.931 2.7349999 0.141
12.963 2.7179999 0.124
12.983 2.707 0.107
12.983 2.7060001 0.089000002
12.992 2.701 0.071999997
13.005 2.6930001 0.054000001
13.005 2.6930001 0.037
13.002 2.6930001 0.018999999
12.953 2.8299999 2.723
12.942 2.8340001 2.707
12.956 2.826 2.6849999
12.964 2.8210001 2.664
12.946 2.8299999 2.6500001
12.949 2.8269999 2.6300001
12.951 2.825 2.6110001
12.954 2.822 2.5910001
12.938 2.8299999 2.5769999
12.96 2.8180001 2.552
12.943 2.826 2.5380001
12.965 2.813 2.5139999
12.961 2.8139999 2.4960001
12.948 2.8199999 2.48
12.933 2.8269999 2.4660001
12.919 2.8329999 2.45
12.899 2.8429999 2.4360001
12.87 2.8559999 2.424
12.852 2.865 2.4100001
12.836 2.872 2.395
12.807 2.8859999 2.3829999
12.455 2.983 0.76800001
12.461 2.98 0.74900001
12.451 2.984 0.73100001
12.464 2.9760001 0.71200001
12.466 2.974 0.69300002
12.452 2.9809999 0.67500001
12.473 2.9690001 0.65600002
12.462 2.974 0.63700002
12.452 2.9779999 0.61900002
12.459 2.974 0.60000002
12.472 2.9660001 0.58099997
12.459 2.971 0.56300002
12.467 2.9660001 0.54400003
12.451 2.974 0.52600002
12.446 2.9749999 0.50700003
12.435 2.98 0.48899999
12.417 2.9879999 0.47099999
12.407 2.9920001 0.45199999
12.392 2.9990001 0.43399999
12.372 3.0079999 0.41499999
12.361 3.0120001 0.396
12.337 3.023 0.37799999
12.318 3.0320001 0.359
12.296 3.0420001 0.34
12.297 3.04 0.322
12.521 2.928 0.30199999
12.256 3.059 0.28400001
12.251 3.0610001 0.26499999
12.239 3.066 0.24600001
12.228 3.0699999 0.227
12.2 3.0840001 0.207
12.186 3.0899999 0.18799999
12.179 3.0929999 0.169
12.851 2.756 0.15800001
12.876 2.7420001 0.141
12.923 2.7179999 0.124
12.945 2.7060001 0.107
12.959 2.6989999 0.089000002
12.985 2.6849999 0.071999997
12.984 2.684 0.055
12.993 2.6789999 0.037
13.011 2.6689999 0.02
12.963 2.8050001 2.7379999
12.939 2.8169999 2.7260001
12.933 2.819 2.7079999
12.942 2.813 2.687
12.946 2.8099999 2.6670001
12.951 2.8069999 2.6470001
12.948 2.8080001 2.6289999
12.946 2.8069999 2.6110001
12.955 2.802 2.5899999
12.951 2.803 2.572
12.947 2.8039999 2.5539999
12.943 2.8050001 2.5369999
12.957 2.7969999 2.5150001
12.946 2.802 2.4990001
12.923 2.813 2.4849999
12.903 2.822 2.4719999
12.882 2.832 2.4579999
12.869 2.8380001 2.4419999
12.844 2.8499999 2.4300001
12.831 2.855 2.414
12.807 2.8659999 2.4000001
12.424 2.9760001 0.73299998
12.417 2.9779999 0.71499997
12.411 2.9809999 0.69599998
12.413 2.9790001 0.67699999
12.416 2.9760001 0.65799999
12.419 2.974 0.63999999
12.41 2.9779999 0.62099999
12.43 2.9660001 0.602
12.426 2.9679999 0.583
12.418 2.971 0.565
12.42 2.9690001 0.546
12.413 2.9719999 0.52700001
12.426 2.964 0.50800002
12.418 2.967 0.49000001
12.415 2.9679999 0.47099999
12.406 2.9719999 0.45300001
12.38 2.984 0.435
12.367 2.9890001 0.41600001
12.348 2.997 0.39700001
12.33 3.006 0.37900001
12.332 3.0039999 0.36000001
12.315 3.0109999 0.34099999
12.286 3.0250001 0.322
12.454 2.9400001 0.303
12.263 3.0339999 0.285
12.246 3.0420001 0.266
12.234 3.0469999 0.24699999
12.224 3.0510001 0.227
12.205 3.0599999 0.208
12.182 3.0699999 0.189
12.171 3.075 0.17
12.161 3.079 0.15099999
12.816 2.7520001 0.141
12.868 2.7260001 0.124
12.918 2.7 0.107
12.935 2.691 0.090000004
12.964 2.675 0.072999999
12.971 2.671 0.055
12.98 2.6659999 0.037999999
12.998 2.6559999 0.021
12.948 2.793 2.7590001
12.948 2.7920001 2.7409999
12.943 2.7939999 2.723
12.942 2.7939999 2.7049999
12.951 2.7880001 2.6830001
12.954 2.7850001 2.664
12.941 2.7909999 2.648
12.948 2.7869999 2.628
12.947 2.7869999 2.609
12.964 2.777 2.586
12.947 2.7839999 2.572
12.965 2.7739999 2.549
12.944 2.7839999 2.5350001
12.94 2.7850001 2.5179999
12.923 2.793 2.503
12.894 2.8069999 2.4909999
12.873 2.8169999 2.4779999
12.866 2.8199999 2.461
12.848 2.8280001 2.4460001
12.809 2.846 2.437
12.81 2.845 2.418
12.391 2.9679999 0.67900002
12.368 2.9790001 0.66100001
12.366 2.9790001 0.64200002
12.365 2.9790001 0.62300003
12.374 2.973 0.60399997
12.386 2.9660001 0.58499998
12.373 2.9719999 0.56699997
12.38 2.967 0.54799998
12.371 2.971 0.52899998
12.37 2.971 0.50999999
12.387 2.961 0.491
12.39 2.9590001 0.47299999
12.379 2.9630001 0.454
12.375 2.9649999 0.435
12.364 2.9690001 0.417
12.342 2.9790001 0.398
12.328 2.9849999 0.38
12.319 2.9890001 0.361
12.306 2.994 0.34200001
12.302 2.9949999 0.32300001
12.376 2.9579999 0.30399999
12.262 3.013 0.285
12.24 3.023 0.266
12.229 3.0280001 0.24699999
12.211 3.036 0.228
12.198 3.0409999 0.20900001
12.188 3.0450001 0.19
12.16 3.0580001 0.171
12.15 3.062 0.15099999
12.138 3.0669999 0.132
12.117 3.0769999 0.112
12.835 2.721 0.107
12.887 2.694 0.090000004
12.919 2.678 0.072999999
12.955 2.6589999 0.056000002
12.941 2.665 0.037999999
12.991 2.6389999 0.022
12.927 2.7850001 2.783
12.948 2.773 2.7579999
12.942 2.7750001 2.7409999
12.959 2.766 2.717
12.934 2.7780001 2.7049999
12.943 2.7720001 2.684
12.964 2.7609999 2.6600001
12.946 2.7690001 2.6459999
12.938 2.7720001 2.6289999
12.943 2.7679999 2.609
12.952 2.763 2.5880001
12.939 2.7679999 2.573
12.953 2.7609999 2.55
12.941 2.766 2.5350001
12.923 2.7739999 2.52
12.903 2.783 2.507
12.886 2.7909999 2.4920001
12.86 2.803 2.48
12.839 2.813 2.4660001
12.809 2.8269999 2.454
12.803 2.829 2.437
12.312 2.983 0.62599999
12.323 2.977 0.60699999
12.329 2.973 0.58700001
12.313 2.98 0.56900001
12.328 2.9719999 0.55000001
12.325 2.973 0.53100002
12.331 2.9690001 0.51200002
12.323 2.9719999 0.493
12.336 2.9649999 0.47400001
12.333 2.9649999 0.456
12.327 2.967 0.43700001
12.321 2.9690001 0.41800001
12.343 2.9579999 0.39899999
12.329 2.9630001 0.38
12.336 2.9590001 0.361
12.314 2.9679999 0.34299999
12.298 2.9760001 0.324
12.308 2.97 0.30500001
12.257 2.994 0.28600001
12.238 3.0020001 0.26699999
12.222 3.01 0.248
12.22 3.01 0.229
12.203 3.017 0.20999999
12.184 3.0250001 0.191
12.166 3.0339999 0.17200001
12.152 3.039 0.152
12.127 3.0510001 0.133
12.115 3.056 0.113
12.113 3.056 0.093999997
12.831 2.7019999 0.090000004
12.868 2.6830001 0.072999999
12.903 2.664 0.056000002
12.923 2.654 0.039000001
12.966 2.632 0.022
12.951 2.7539999 2.7939999
12.934 2.7609999 2.779
12.917 2.7690001 2.7650001
12.951 2.7509999 2.737
12.948 2.7520001 2.7190001
12.943 2.753 2.7019999
12.95 2.7490001 2.681
12.94 2.753 2.665
12.943 2.75 2.645
12.948 2.747 2.625
12.958 2.7409999 2.6040001
12.944 2.747 2.589
12.945 2.7460001 2.5699999
12.949 2.743 2.55
12.928 2.7520001 2.5369999
12.899 2.766 2.5250001
12.874 2.7780001 2.513
12.848 2.79 2.5
12.826 2.8 2.487
12.819 2.803 2.47
12.28 2.9749999 0.57099998
12.281 2.974 0.55199999
12.268 2.9790001 0.53299999
12.277 2.974 0.514
12.278 2.9719999 0.495
12.291 2.9649999 0.47600001
12.277 2.971 0.45699999
12.275 2.971 0.43799999
12.284 2.9660001 0.419
12.29 2.9619999 0.40000001
12.29 2.961 0.382
12.289 2.961 0.36300001
12.284 2.9619999 0.34400001
12.278 2.9649999 0.32499999
12.286 2.9590001 0.30599999
12.261 2.971 0.287
12.25 2.9749999 0.26800001
12.229 2.9849999 0.249
12.219 2.9890001 0.23
12.196 2.9990001 0.211
12.178 3.007 0.192
12.166 3.0120001 0.17299999
12.138 3.0250001 0.153
12.138 3.0239999 0.134
12.109 3.0369999 0.114
12.094 3.0439999 0.094999999
12.089 3.046 0.075999998
12.827 2.6830001 0.072999999
12.865 2.6630001 0.056000002
12.891 2.6500001 0.039000001
12.922 2.6340001 0.022
12.943 2.7390001 2.813
12.944 2.737 2.7939999
12.931 2.743 2.779
12.952 2.7320001 2.7539999
12.945 2.734 2.737
12.945 2.733 2.7190001
12.939 2.7349999 2.701
12.962 2.723 2.677
12.94 2.733 2.664
12.953 2.7260001 2.642
12.931 2.7349999 2.628
12.945 2.7279999 2.6059999
12.936 2.7309999 2.5899999
12.933 2.7320001 2.572
12.915 2.74 2.5580001
12.898 2.747 2.543
12.861 2.7650001 2.5339999
12.857 2.767 2.516
12.835 2.776 2.5020001
12.796 2.7950001 2.493
12.24 2.971 0.51599997
12.236 2.9719999 0.49700001
12.218 2.98 0.47799999
12.235 2.971 0.45899999
12.216 2.98 0.44
12.225 2.9749999 0.421
12.228 2.9719999 0.40200001
12.229 2.971 0.38299999
12.236 2.9660001 0.36399999
12.241 2.9630001 0.345
12.226 2.97 0.32600001
12.248 2.9579999 0.30700001
12.239 2.961 0.28799999
12.232 2.9630001 0.26899999
12.219 2.9690001 0.25
12.207 2.974 0.23100001
12.194 2.98 0.212
12.184 2.983 0.193
12.166 2.9909999 0.17399999
12.147 3 0.154
12.141 3.0020001 0.13500001
12.12 3.0109999 0.116
12.114 3.013 0.096000001
12.081 3.0280001 0.075999998
12.07 3.033 0.057
12.815 2.668 0.056000002
12.848 2.652 0.039000001
12.888 2.631 0.022
12.946 2.7179999 2.8299999
12.939 2.721 2.813
12.952 2.7130001 2.79
12.942 2.7179999 2.7739999
12.928 2.724 2.76
12.95 2.7119999 2.7349999
12.948 2.711 2.7160001
12.943 2.7130001 2.6989999
12.945 2.7119999 2.6800001
12.949 2.7079999 2.6600001
12.936 2.714 2.645
12.954 2.704 2.6210001
12.934 2.714 2.608
12.946 2.7060001 2.586
12.912 2.723 2.576
12.899 2.7279999 2.5610001
12.866 2.744 2.55
12.84 2.756 2.5380001
12.809 2.77 2.526
12.81 2.7690001 2.507
12.195 2.97 0.46000001
12.174 2.9790001 0.442
12.181 2.9749999 0.42199999
12.192 2.9679999 0.403
12.18 2.973 0.384
12.188 2.9679999 0.36500001
12.189 2.967 0.34599999
12.188 2.967 0.32699999
12.177 2.971 0.308
12.186 2.9660001 0.289
12.184 2.9660001 0.27000001
12.19 2.9619999 0.25099999
12.183 2.9649999 0.23199999
12.179 2.9660001 0.213
12.183 2.9630001 0.19400001
12.173 2.967 0.175
12.157 2.974 0.155
12.136 2.983 0.13600001
12.128 2.9860001 0.117
12.11 2.994 0.097000003
12.084 3.0050001 0.078000002
12.069 3.0120001 0.057999998
12.048 3.0209999 0.037999999
12.038 3.0250001 0.018999999
12.803 2.6530001 0.021
12.917 2.7149999 2.875
12.928 2.7079999 2.8529999
12.928 2.7079999 2.8340001
12.933 2.7049999 2.8139999
12.938 2.701 2.793
12.936 2.701 2.7750001
12.927 2.7049999 2.7590001
12.936 2.6989999 2.737
12.946 2.6930001 2.7160001
12.939 2.6960001 2.6989999
12.95 2.6900001 2.677
12.942 2.6930001 2.661
12.946 2.6900001 2.641
12.943 2.6900001 2.6229999
12.934 2.694 2.6070001
12.917 2.7019999 2.592
12.9 2.7090001 2.5780001
12.857 2.7290001 2.5699999
12.836 2.7390001 2.556
12.806 2.753 2.5450001
12.796 2.757 2.529
12.137 2.9749999 0.42399999
12.131 2.977 0.405
12.132 2.9749999 0.38600001
12.149 2.9660001 0.366
12.131 2.974 0.347
12.149 2.9649999 0.32800001
12.135 2.97 0.30899999
12.143 2.9649999 0.28999999
12.142 2.9649999 0.271
12.141 2.9649999 0.252
12.16 2.954 0.233
12.145 2.961 0.213
12.152 2.957 0.19400001
12.147 2.9579999 0.175
12.149 2.9560001 0.156
12.116 2.971 0.13699999
12.113 2.9719999 0.117
12.099 2.9779999 0.097999997
12.075 2.9879999 0.078000002
12.068 2.9909999 0.059
12.052 2.9979999 0.039000001
12.022 3.0109999 0.018999999
12.946 2.6819999 2.8840001
12.92 2.694 2.872
12.938 2.684 2.848
12.941 2.681 2.829
12.943 2.6789999 2.809
12.937 2.6819999 2.7920001
12.945 2.677 2.7709999
12.929 2.684 2.757
12.95 2.6719999 2.7320001
12.939 2.6760001 2.7160001
12.951 2.6689999 2.694
12.955 2.6670001 2.675
12.938 2.674 2.6600001
12.93 2.677 2.6440001
12.924 2.6800001 2.6270001
12.913 2.684 2.6110001
12.891 2.694 2.598
12.853 2.7119999 2.5880001
12.849 2.7130001 2.5710001
12.804 2.734 2.563
12.81 2.7309999 2.543
12.097 2.9690001 0.34799999
12.083 2.9749999 0.329
12.094 2.9690001 0.31
12.089 2.97 0.29100001
12.089 2.97 0.27200001
12.105 2.961 0.252
12.097 2.964 0.233
12.099 2.9619999 0.214
12.087 2.967 0.19499999
12.096 2.961 0.176
12.098 2.96 0.15700001
12.095 2.96 0.13699999
12.099 2.957 0.118
12.089 2.961 0.098999999
12.075 2.967 0.079000004
12.065 2.971 0.059999999
12.043 2.9809999 0.039999999
12.04 2.9809999 0.021
12.965 2.6530001 2.8959999
12.928 2.671 2.888
12.948 2.6600001 2.8629999
12.935 2.665 2.848
12.942 2.661 2.8269999
12.938 2.6619999 2.809
12.944 2.658 2.789
12.947 2.6559999 2.7690001
12.943 2.6570001 2.7520001
12.944 2.655 2.7320001
12.943 2.655 2.714
12.947 2.652 2.694
12.943 2.6530001 2.6760001
12.935 2.6559999 2.6600001
12.922 2.6619999 2.645
12.905 2.6689999 2.6300001
12.875 2.6830001 2.619
12.855 2.6919999 2.6059999
12.832 2.7019999 2.5929999
12.806 2.714 2.5799999
12.774 2.7290001 2.569
12.044 2.971 0.292
12.02 2.9809999 0.27200001
12.035 2.973 0.25299999
12.047 2.9660001 0.234
12.049 2.9649999 0.215
12.045 2.9660001 0.19499999
12.043 2.9660001 0.176
12.052 2.961 0.15700001
12.056 2.9579999 0.138
12.052 2.9579999 0.118
12.049 2.9590001 0.098999999
12.051 2.957 0.079999998
12.052 2.9560001 0.061000001
12.042 2.96 0.041000001
12.03 2.964 0.022
12.942 2.6459999 2.9200001
12.939 2.6459999 2.902
12.931 2.6500001 2.8859999
12.952 2.638 2.8599999
12.93 2.648 2.848
12.943 2.641 2.825
12.935 2.6440001 2.809
12.935 2.6429999 2.79
12.953 2.6329999 2.766
12.956 2.631 2.747
12.948 2.6340001 2.73
12.953 2.631 2.71
12.927 2.6429999 2.698
12.94 2.635 2.6760001
12.91 2.6489999 2.665
12.888 2.6589999 2.652
12.867 2.668 2.6389999
12.839 2.681 2.6270001
12.83 2.6849999 2.6110001
12.82 2.688 2.5940001
12.002 2.9690001 0.29300001
12.015 2.961 0.25400001
12.013 2.961 0.235
11.992 2.971 0.215
11.997 2.967 0.19599999
12 2.9649999 0.177
12.01 2.9590001 0.15700001
12.004 2.961 0.138
11.997 2.964 0.119
12.013 2.9549999 0.1
12.004 2.9579999 0.079999998
12.004 2.957 0.061000001
12.008 2.9549999 0.041000001
12.017 2.9489999 0.022
12.945 2.625 2.937
12.935 2.6289999 2.921
12.938 2.6270001 2.901
12.931 2.6289999 2.8840001
12.944 2.622 2.8610001
12.919 2.6329999 2.8499999
12.94 2.622 2.825
12.94 2.6210001 2.806
12.931 2.625 2.79
12.94 2.619 2.7679999
12.958 2.6099999 2.7449999
12.94 2.6170001 2.7309999
12.941 2.6159999 2.7119999
12.932 2.6199999 2.6960001
12.902 2.6340001 2.6849999
12.889 2.6389999 2.6700001
12.864 2.6500001 2.6570001
12.86 2.652 2.6400001
12.812 2.674 2.6329999
12.788 2.6849999 2.6199999
11.979 2.9590001 0.29300001
11.947 2.97 0.19599999
11.939 2.973 0.177
11.952 2.9649999 0.15800001
11.951 2.9649999 0.138
11.955 2.9619999 0.119
11.96 2.9590001 0.1
11.97 2.9530001 0.079999998
11.965 2.9549999 0.061000001
11.955 2.9579999 0.041000001
11.961 2.954 0.022
12.937 2.6110001 2.9560001
12.934 2.6110001 2.938
12.93 2.612 2.921
12.94 2.6070001 2.8989999
12.916 2.6170001 2.8870001
12.933 2.608 2.8629999
12.942 2.6029999 2.842
12.952 2.5969999 2.8199999
12.95 2.5969999 2.802
12.933 2.605 2.7880001
12.947 2.5969999 2.7650001
12.941 2.598 2.7479999
12.946 2.595 2.7279999
12.937 2.598 2.7119999
12.911 2.6099999 2.7
12.881 2.6240001 2.6889999
12.856 2.635 2.677
12.825 2.6489999 2.6659999
12.826 2.648 2.6470001
12.797 2.661 2.6359999
11.901 2.973 0.27500001
11.906 2.9649999 0.139
11.891 2.971 0.119
11.893 2.9690001 0.098999999
11.911 2.9590001 0.079999998
11.907 2.961 0.061000001
11.899 2.964 0.041000001
11.91 2.957 0.022
12.933 2.5929999 2.9560001
12.946 2.585 2.9330001
12.943 2.586 2.9159999
12.93 2.592 2.9000001
12.929 2.5910001 2.882
12.947 2.582 2.858
12.933 2.5869999 2.8429999
12.929 2.5880001 2.825
12.938 2.5829999 2.8039999
12.934 2.5840001 2.786
12.938 2.5810001 2.766
12.922 2.5880001 2.7520001
12.916 2.5899999 2.7349999
12.899 2.5969999 2.721
12.877 2.6070001 2.7079999
12.848 2.6199999 2.697
12.831 2.628 2.6830001
12.809 2.6370001 2.6689999
12.796 2.6429999 2.654
11.873 2.9649999 0.27599999
11.863 2.96 0.079999998
11.851 2.9649999 0.061000001
11.858 2.961 0.041000001
11.861 2.9590001 0.022
12.919 2.5799999 2.9590001
12.926 2.575 2.938
12.939 2.5680001 2.915
12.935 2.569 2.898
12.939 2.566 2.8770001
12.935 2.5669999 2.8599999
12.93 2.569 2.842
12.948 2.559 2.819
12.935 2.5650001 2.8039999
12.952 2.5550001 2.78
12.918 2.5710001 2.7709999
12.931 2.5639999 2.7479999
12.896 2.5799999 2.7390001
12.874 2.5899999 2.7260001
12.849 2.6010001 2.714
12.831 2.608 2.7
12.797 2.6240001 2.6900001
12.786 2.6289999 2.674
11.829 2.964 0.27700001
11.814 2.96 0.041000001
11.808 2.9619999 0.021
12.928 2.556 2.974
12.937 2.5510001 2.9519999
12.936 2.5510001 2.9330001
12.927 2.5539999 2.9170001
12.927 2.553 2.898
12.927 2.552 2.8789999
12.932 2.549 2.859
12.932 2.5480001 2.8410001
12.933 2.5469999 2.8210001
12.94 2.5420001 2.8010001
12.927 2.5480001 2.786
12.901 2.5599999 2.7739999
12.888 2.5650001 2.7590001
12.867 2.5739999 2.7460001
12.845 2.5840001 2.733
12.824 2.5929999 2.72
12.802 2.6029999 2.707
12.781 2.612 2.6930001
11.808 2.9519999 0.278
12.925 2.539 2.973
12.929 2.536 2.9530001
12.929 2.5350001 2.934
12.946 2.5250001 2.9100001
12.933 2.5309999 2.895
12.933 2.53 2.8770001
12.946 2.523 2.8540001
12.934 2.5280001 2.839
12.933 2.527 2.8199999
12.907 2.539 2.809
12.916 2.533 2.7869999
12.889 2.546 2.776
12.867 2.5550001 2.763
12.842 2.566 2.7509999
12.82 2.576 2.7379999
12.785 2.592 2.7290001
12.913 2.5250001 2.9749999
12.937 2.513 2.9489999
12.943 2.5079999 2.9289999
12.939 2.51 2.911
12.93 2.513 2.895
12.93 2.5120001 2.8759999
12.931 2.5109999 2.8570001
12.926 2.513 2.8399999
12.934 2.5079999 2.819
12.905 2.5209999 2.8080001
12.882 2.5309999 2.796
12.857 2.5420001 2.7839999
12.835 2.5510001 2.7709999
12.808 2.563 2.7590001
12.793 2.5699999 2.744
12.919 2.503 2.9719999
12.932 2.4960001 2.9489999
12.919 2.5009999 2.934
12.932 2.494 2.9119999
12.936 2.4909999 2.892
12.932 2.4920001 2.8740001
12.936 2.49 2.8540001
12.936 2.4890001 2.836
12.898 2.506 2.8269999
12.895 2.506 2.8099999
12.866 2.5190001 2.799
12.832 2.5350001 2.789
12.814 2.5420001 2.7750001
12.779 2.5580001 2.766
12.929 2.4779999 2.9679999
12.933 2.4760001 2.948
12.929 2.477 2.9300001
12.929 2.4760001 2.911
12.943 2.4690001 2.8889999
12.929 2.474 2.8740001
12.928 2.474 2.855
12.903 2.4849999 2.8440001
12.863 2.503 2.836
12.85 2.5079999 2.8210001
12.829 2.517 2.8080001
12.824 2.5179999 2.79
12.801 2.529 2.7780001
12.922 2.4619999 2.9679999
12.944 2.451 2.9430001
12.913 2.4649999 2.9330001
12.935 2.4530001 2.908
12.917 2.461 2.895
12.921 2.4579999 2.875
12.904 2.4660001 2.8610001
12.873 2.4790001 2.8510001
12.851 2.4890001 2.8380001
12.839 2.494 2.823
12.804 2.5090001 2.813
12.792 2.5139999 2.7980001
12.928 2.4400001 2.9649999
12.928 2.4389999 2.947
12.919 2.4430001 2.9300001
12.923 2.4400001 2.9100001
12.915 2.4430001 2.8940001
12.892 2.4530001 2.882
12.87 2.4619999 2.869
12.838 2.4760001 2.859
12.83 2.4790001 2.8429999
12.801 2.4909999 2.832
12.778 2.5009999 2.819
12.938 2.4159999 2.961
12.929 2.4189999 2.9449999
12.92 2.4219999 2.9289999
12.907 2.428 2.914
12.885 2.437 2.901
12.854 2.45 2.891
12.837 2.457 2.8770001
12.81 2.4690001 2.8659999
12.789 2.4779999 2.8529999
12.939 2.3959999 2.9590001
12.927 2.4000001 2.944
12.908 2.408 2.931
12.891 2.4159999 2.9170001
12.86 2.4289999 2.9070001
12.834 2.4400001 2.8959999
12.821 2.4449999 2.8800001
12.791 2.4579999 2.8699999
12.915 2.3870001 2.9649999
12.897 2.395 2.9519999
12.888 2.398 2.9349999
12.844 2.418 2.9289999
12.836 2.421 2.9130001
12.812 2.431 2.901
12.779 2.444 2.891
12.885 2.381 2.954
12.845 2.398 2.9460001
12.824 2.4070001 2.934
12.807 2.414 2.9200001
12.786 2.4230001 2.9070001
12.836 2.3829999 2.967
12.813 2.3929999 2.954
12.79 2.402 2.9419999
12.784 2.404 2.925
12.805 2.3770001 2.974
12.796 2.3800001 2.9579999
12.767 2.3929999 2.947
12.757 2.3789999 2.9679999
12.919 2.3770001 2.9619999
12.814 2.381 2.9630001
12.868 2.391 2.951
12.909 2.3989999 2.937
12.932 2.4030001 2.918
12.792 2.401 2.9590001
12.803 2.4030001 2.938
12.865 2.415 2.928
12.931 2.427 2.9189999
12.903 2.4219999 2.8889999
12.784 2.4219999 2.9579999
12.811 2.428 2.9400001
12.799 2.425 2.914
12.852 2.4349999 2.902
12.904 2.4449999 2.8900001
12.896 2.444 2.8640001
12.759 2.4419999 2.9530001
12.775 2.4449999 2.9330001
12.798 2.4489999 2.915
12.793 2.448 2.8889999
12.837 2.457 2.8759999
12.886 2.4660001 2.8629999
12.924 2.473 2.8469999
12.792 2.4719999 2.9619999
12.787 2.47 2.937
12.789 2.471 2.9130001
12.786 2.47 2.8889999
12.795 2.4719999 2.8670001
12.825 2.4779999 2.8499999
12.882 2.4890001 2.839
12.928 2.497 2.825
12.771 2.4909999 2.9579999
12.794 2.4960001 2.9389999
12.79 2.4949999 2.915
12.804 2.497 2.8940001
12.785 2.494 2.8659999
12.796 2.4960001 2.8440001
12.804 2.497 2.823
12.877 2.5120001 2.8150001
12.934 2.523 2.803
12.797 2.5190001 2.9649999
12.786 2.517 2.9389999
12.785 2.516 2.915
12.794 2.5179999 2.8929999
12.788 2.517 2.8670001
12.8 2.5190001 2.846
12.796 2.5179999 2.822
12.796 2.5179999 2.7980001
12.864 2.5320001 2.789
12.918 2.5420001 2.777
12.775 2.5380001 2.961
12.766 2.536 2.9349999
12.789 2.54 2.9170001
12.771 2.5369999 2.8889999
12.787 2.54 2.868
12.789 2.54 2.845
12.792 2.5409999 2.822
12.806 2.5439999 2.8010001
12.821 2.546 2.78
12.854 2.553 2.7639999
12.918 2.566 2.7539999
12.978 2.5780001 2.7420001
12.791 2.5650001 2.9660001
12.78 2.562 2.9389999
12.792 2.5650001 2.918
12.8 2.566 2.8959999
12.786 2.563 2.869
12.787 2.5639999 2.846
12.785 2.563 2.8210001
12.786 2.563 2.7980001
12.79 2.5639999 2.7750001
12.802 2.566 2.7539999
12.845 2.575 2.7390001
12.897 2.585 2.7260001
12.916 2.589 2.7060001
12.796 2.589 2.9679999
12.781 2.586 2.941
12.786 2.5869999 2.918
12.793 2.5880001 2.8959999
12.792 2.5880001 2.872
12.783 2.586 2.846
12.791 2.5880001 2.8239999
12.808 2.5910001 2.803
12.8 2.589 2.7780001
12.796 2.589 2.753
12.802 2.5899999 2.7309999
12.845 2.598 2.7160001
12.901 2.6099999 2.704
12.956 2.6210001 2.6919999
12.779 2.608 2.941
12.787 2.6099999 2.9189999
12.786 2.6099999 2.895
12.791 2.6110001 2.872
12.796 2.612 2.8499999
12.782 2.609 2.823
12.788 2.6099999 2.8
12.777 2.608 2.7739999
12.802 2.6129999 2.756
12.81 2.615 2.733
12.792 2.6110001 2.7060001
12.835 2.6199999 2.691
12.892 2.631 2.6789999
12.952 2.6429999 2.668
12.979 2.645 0.052000001
12.941 2.638 0.028999999
12.822 2.641 2.928
12.773 2.631 2.8929999
12.801 2.6370001 2.8759999
12.797 2.6359999 2.8510001
12.788 2.6340001 2.825
12.787 2.6340001 2.8010001
12.783 2.6329999 2.776
12.797 2.6359999 2.7550001
12.814 2.6389999 2.7349999
12.818 2.6400001 2.7130001
12.792 2.635 2.6830001
12.831 2.6429999 2.6670001
12.869 2.6500001 2.652
12.919 2.661 2.638
12.947 2.6659999 2.6199999
12.981 2.6689999 0.075000003
12.936 2.6600001 0.052000001
12.856 2.6429999 0.028999999
12.829 2.665 2.9070001
12.793 2.658 2.875
12.788 2.6570001 2.8499999
12.8 2.6589999 2.829
12.784 2.6559999 2.8010001
12.783 2.6559999 2.777
12.804 2.6600001 2.7579999
12.806 2.6600001 2.7349999
12.801 2.6589999 2.71
12.801 2.6600001 2.6860001
12.796 2.658 2.661
12.816 2.6630001 2.642
12.862 2.6719999 2.6270001
12.927 2.6860001 2.6170001
12.942 2.6889999 2.596
12.984 2.694 0.098999999
12.918 2.6800001 0.075000003
12.853 2.6659999 0.052000001
12.844 2.664 0.028999999
12.8 2.6830001 2.8770001
12.803 2.684 2.8540001
12.793 2.6819999 2.8280001
12.791 2.681 2.8039999
12.787 2.6800001 2.779
12.796 2.6819999 2.757
12.803 2.684 2.7349999
12.792 2.681 2.7090001
12.8 2.6830001 2.687
12.806 2.684 2.664
12.786 2.6800001 2.6370001
12.815 2.6860001 2.619
12.845 2.6919999 2.6010001
12.918 2.707 2.592
12.94 2.7119999 2.572
14.075 2.947 0.33199999
14 2.9300001 0.156
12.982 2.717 0.122
12.897 2.6989999 0.097999997
12.851 2.6889999 0.075000003
12.844 2.688 0.052000001
12.844 2.688 0.028999999
12.788 2.704 2.8280001
12.788 2.704 2.8039999
12.797 2.7060001 2.7820001
12.793 2.7049999 2.7579999
12.797 2.7060001 2.7349999
12.801 2.7060001 2.7119999
12.805 2.707 2.6889999
12.807 2.7079999 2.665
12.823 2.711 2.645
12.816 2.7090001 2.6199999
12.806 2.707 2.5940001
12.844 2.7149999 2.5780001
12.911 2.7290001 2.5680001
12.95 2.7379999 2.5510001
13.935 2.9430001 0.329
13.869 2.9289999 0.278
13.911 2.937 0.25400001
13.928 2.941 0.23
13.943 2.944 0.205
13.021 2.7490001 0.169
12.972 2.7390001 0.145
12.89 2.721 0.121
12.844 2.711 0.097999997
12.849 2.7119999 0.075000003
12.834 2.7090001 0.052000001
12.834 2.7090001 0.028999999
12.797 2.73 2.8069999
12.793 2.7290001 2.783
12.792 2.7290001 2.7590001
12.782 2.727 2.733
12.791 2.7279999 2.711
12.811 2.7320001 2.691
12.814 2.733 2.668
12.805 2.7309999 2.642
12.808 2.7320001 2.619
12.805 2.7309999 2.595
12.82 2.734 2.5739999
12.844 2.7390001 2.5550001
12.894 2.75 2.5409999
12.943 2.76 2.527
13.745 2.928 0.42300001
13.768 2.9330001 0.39899999
13.808 2.9419999 0.37599999
13.826 2.9460001 0.35100001
13.846 2.95 0.32699999
13.842 2.9489999 0.30199999
13.834 2.947 0.278
13.852 2.951 0.25299999
13.841 2.948 0.228
13.002 2.7690001 0.192
12.963 2.7609999 0.168
12.879 2.743 0.14399999
12.866 2.74 0.121
12.839 2.734 0.097999997
12.853 2.737 0.075000003
12.844 2.7349999 0.052000001
12.834 2.733 0.028999999
12.81 2.756 2.7869999
12.784 2.75 2.7579999
12.792 2.7520001 2.7360001
12.795 2.7520001 2.7130001
12.801 2.7539999 2.6900001
12.792 2.7520001 2.665
12.797 2.753 2.642
12.786 2.7509999 2.6159999
12.804 2.7550001 2.596
12.8 2.7539999 2.5710001
12.81 2.756 2.549
12.829 2.76 2.529
12.881 2.7709999 2.516
12.936 2.783 2.503
13.661 2.9360001 0.542
13.698 2.944 0.51899999
13.703 2.9449999 0.495
13.715 2.947 0.47099999
13.714 2.947 0.447
13.718 2.948 0.42199999
13.724 2.9489999 0.398
13.723 2.9489999 0.373
13.723 2.9489999 0.34900001
13.729 2.95 0.32499999
13.725 2.9489999 0.30000001
13.74 2.9519999 0.27599999
13.74 2.9519999 0.25099999
13.024 2.7980001 0.215
12.937 2.779 0.191
12.864 2.763 0.167
12.861 2.763 0.14399999
12.857 2.7620001 0.121
12.839 2.7579999 0.097999997
12.848 2.76 0.075000003
12.839 2.7579999 0.052000001
12.843 2.7590001 0.028999999
12.824 2.783 2.767
12.822 2.7820001 2.743
12.791 2.776 2.7130001
12.785 2.7739999 2.688
12.805 2.7780001 2.668
12.786 2.7739999 2.6400001
12.806 2.779 2.6210001
12.799 2.777 2.596
12.82 2.7820001 2.576
12.798 2.777 2.5480001
12.808 2.779 2.526
12.828 2.783 2.507
12.861 2.79 2.4890001
12.941 2.8080001 2.4809999
12.951 2.8099999 2.4590001
13.525 2.931 0.68199998
13.548 2.9360001 0.65899998
13.578 2.9430001 0.63599998
13.601 2.948 0.61299998
13.616 2.951 0.58899999
13.597 2.947 0.56400001
13.608 2.9489999 0.54100001
13.619 2.951 0.51700002
13.618 2.951 0.49200001
13.621 2.9519999 0.46799999
13.616 2.951 0.44400001
13.619 2.951 0.419
13.629 2.9530001 0.39500001
13.63 2.9530001 0.37099999
13.65 2.9579999 0.347
13.649 2.9579999 0.32300001
13.67 2.9619999 0.29899999
13.7 2.9690001 0.27500001
12.987 2.8139999 0.23800001
12.924 2.8 0.214
12.866 2.7869999 0.19
12.857 2.7850001 0.167
12.836 2.7809999 0.14399999
12.828 2.779 0.121
12.838 2.7809999 0.097999997
12.834 2.78 0.075000003
12.834 2.78 0.052000001
12.834 2.78 0.028999999
12.833 2.8080001 2.747
12.804 2.8010001 2.717
12.788 2.7980001 2.6889999
12.791 2.7980001 2.6659999
12.787 2.7969999 2.642
12.795 2.799 2.619
12.81 2.802 2.599
12.805 2.8010001 2.5739999
12.818 2.8039999 2.553
12.808 2.802 2.527
12.798 2.8 2.5020001
12.818 2.8039999 2.4820001
12.868 2.8150001 2.4679999
12.928 2.8280001 2.4549999
12.957 2.8340001 2.437
12.955 2.8340001 2.4130001
13.448 2.9400001 0.77499998
13.458 2.9419999 0.75099999
13.494 2.9489999 0.72899997
13.511 2.9530001 0.70599997
13.508 2.9519999 0.68199998
13.52 2.9549999 0.65799999
13.511 2.9530001 0.63300002
13.523 2.9560001 0.61000001
13.513 2.9530001 0.58499998
13.529 2.957 0.56199998
13.521 2.9549999 0.537
13.512 2.9530001 0.51300001
13.531 2.957 0.48899999
13.542 2.9590001 0.46599999
13.584 2.9690001 0.44299999
13.599 2.9719999 0.419
13.614 2.9749999 0.39500001
13.634 2.9790001 0.37099999
13.649 2.983 0.347
13.32 2.9100001 0.315
13.695 2.9920001 0.30000001
12.986 2.8369999 0.26100001
12.874 2.813 0.236
12.845 2.806 0.212
12.845 2.806 0.189
12.846 2.806 0.167
12.846 2.806 0.14399999
12.837 2.8039999 0.121
12.848 2.8069999 0.097999997
12.838 2.8039999 0.075000003
12.843 2.8050001 0.052000001
12.834 2.8039999 0.028999999
12.815 2.826 2.72
12.782 2.819 2.6889999
12.797 2.823 2.668
12.809 2.826 2.6470001
12.805 2.825 2.6229999
12.804 2.8239999 2.599
12.791 2.822 2.572
12.808 2.825 2.552
12.807 2.825 2.5280001
12.801 2.8239999 2.503
12.803 2.8239999 2.48
12.817 2.8269999 2.4590001
12.857 2.836 2.4430001
12.93 2.852 2.4330001
12.96 2.859 2.415
13.382 2.9489999 0.89099997
13.37 2.947 0.866
13.4 2.9530001 0.84399998
13.406 2.954 0.82099998
13.412 2.9560001 0.79699999
13.417 2.957 0.773
13.423 2.9579999 0.75
13.422 2.9579999 0.72600001
13.44 2.9619999 0.70300001
13.427 2.9590001 0.67799997
13.428 2.9590001 0.65399998
13.427 2.9590001 0.63
13.43 2.9590001 0.60600001
13.452 2.964 0.583
13.463 2.9660001 0.55900002
13.168 2.901 0.52399999
13.503 2.9749999 0.51300001
13.126 2.892 0.47499999
13.113 2.8889999 0.45100001
13.137 2.8940001 0.428
13.124 2.891 0.405
13.105 2.8870001 0.38100001
13.111 2.888 0.35699999
13.126 2.891 0.33399999
13.117 2.8889999 0.31099999
12.972 2.8570001 0.28400001
12.877 2.836 0.259
12.87 2.835 0.236
12.846 2.829 0.213
12.849 2.8299999 0.19
12.841 2.8280001 0.167
12.828 2.825 0.14399999
12.843 2.829 0.121
12.819 2.823 0.097999997
12.853 2.8310001 0.075000003
12.848 2.8299999 0.052000001
12.853 2.8310001 0.028999999
12.81 2.849 2.6719999
12.797 2.846 2.6459999
12.801 2.8469999 2.6229999
12.805 2.848 2.5999999
12.804 2.848 2.576
12.8 2.8469999 2.5510001
12.817 2.8510001 2.5309999
12.812 2.849 2.506
12.818 2.8510001 2.484
12.806 2.848 2.4579999
12.819 2.8510001 2.437
12.838 2.855 2.4159999
12.912 2.872 2.4070001
12.938 2.8770001 2.388
13.077 2.9070001 1.294
13.054 2.901 1.198
13.054 2.901 1.175
13.047 2.9000001 1.15
13.07 2.905 1.1289999
13.065 2.904 1.105
13.075 2.9059999 1.082
13.09 2.9089999 1.0599999
13.109 2.9130001 1.038
13.091 2.9089999 1.013
13.076 2.9059999 0.98799998
13.094 2.9100001 0.96600002
13.104 2.9119999 0.94400001
13.122 2.9159999 0.921
13.114 2.914 0.89700001
13.097 2.9100001 0.87300003
13.098 2.9100001 0.84899998
13.1 2.911 0.82599998
13.087 2.908 0.80199999
13.064 2.9030001 0.77700001
13.07 2.904 0.75400001
13.076 2.905 0.73100001
13.058 2.901 0.70599997
13.049 2.8989999 0.68199998
13.055 2.9000001 0.65899998
13.051 2.9000001 0.63599998
13.044 2.898 0.61199999
13.046 2.898 0.58899999
13.031 2.895 0.565
13.043 2.8970001 0.542
13.019 2.892 0.51800001
13.021 2.8929999 0.495
13.009 2.8900001 0.47099999
13.025 2.8929999 0.44800001
13.021 2.892 0.42500001
12.992 2.8859999 0.40099999
12.988 2.885 0.377
12.988 2.885 0.354
12.984 2.885 0.331
12.968 2.881 0.30700001
12.876 2.8599999 0.28200001
12.847 2.8540001 0.25799999
12.844 2.8529999 0.235
12.841 2.852 0.213
12.846 2.8540001 0.19
12.837 2.8510001 0.167
12.842 2.8529999 0.14399999
12.847 2.8540001 0.121
12.843 2.8529999 0.097999997
12.848 2.8540001 0.075000003
12.848 2.8540001 0.052000001
12.838 2.8510001 0.028999999
12.819 2.875 2.651
12.801 2.8710001 2.6240001
12.81 2.8729999 2.602
12.813 2.8729999 2.579
12.811 2.8729999 2.5550001
12.809 2.872 2.53
12.799 2.8699999 2.5050001
12.807 2.872 2.483
12.8 2.8699999 2.457
12.819 2.8740001 2.438
12.816 2.8740001 2.4130001
12.848 2.881 2.3959999
12.9 2.892 2.381
12.963 2.9070001 2.369
12.973 2.9089999 2.3469999
13.044 2.924 1.858
13.047 2.924 1.835
13.028 2.9200001 1.809
13.073 2.9300001 1.791
13.056 2.9260001 1.765
13.05 2.925 1.7410001
13.051 2.925 1.717
13.061 2.927 1.6950001
13.066 2.928 1.6720001
13.075 2.9300001 1.649
13.071 2.9289999 1.625
13.056 2.927 1.599
13.08 2.9319999 1.579
13.082 2.9319999 1.5549999
13.086 2.9330001 1.5319999
13.086 2.9330001 1.508
13.073 2.9300001 1.483
13.071 2.9300001 1.459
13.065 2.928 1.4349999
13.062 2.928 1.411
13.056 2.9260001 1.387
13.062 2.927 1.364
13.046 2.924 1.339
13.042 2.9230001 1.3150001
13.038 2.9219999 1.291
13.03 2.9200001 1.267
13.032 2.921 1.243
13.035 2.921 1.22
13.036 2.921 1.197
13.026 2.9189999 1.1720001
13.033 2.9200001 1.15
13.016 2.9170001 1.125
13.006 2.914 1.1
13.001 2.9130001 1.077
12.997 2.9119999 1.053
13.009 2.915 1.031
13.005 2.914 1.007
12.984 2.9089999 0.98199999
12.973 2.9059999 0.958
12.956 2.9030001 0.93300003
12.986 2.9100001 0.912
12.983 2.9089999 0.889
12.965 2.905 0.86400002
12.976 2.9070001 0.84200001
12.976 2.9070001 0.81800002
12.94 2.8989999 0.79299998
12.945 2.9000001 0.76999998
12.938 2.898 0.74599999
12.954 2.902 0.72399998
12.944 2.9000001 0.69999999
12.926 2.895 0.676
12.956 2.902 0.65499997
12.932 2.8970001 0.63
12.932 2.8970001 0.60699999
12.919 2.8940001 0.583
12.918 2.8929999 0.56
12.921 2.8940001 0.537
12.917 2.8940001 0.514
12.899 2.8900001 0.49000001
12.917 2.8940001 0.46799999
12.907 2.891 0.44400001
12.915 2.8929999 0.42199999
12.904 2.891 0.398
12.892 2.888 0.375
12.864 2.882 0.35100001
12.869 2.882 0.32800001
12.87 2.8829999 0.30500001
12.858 2.8800001 0.28200001
12.841 2.8759999 0.25799999
12.846 2.8770001 0.236
12.856 2.8789999 0.213
12.841 2.8759999 0.19
12.817 2.8710001 0.16599999
12.847 2.8770001 0.14399999
12.844 2.8759999 0.121
12.843 2.8759999 0.097999997
12.852 2.878 0.075000003
12.853 2.878 0.052000001
12.846 2.8770001 0.028999999
12.833 2.901 2.631
12.8 2.8940001 2.6010001
12.81 2.8959999 2.579
12.825 2.9000001 2.5580001
12.814 2.8970001 2.5320001
12.808 2.8959999 2.5079999
12.808 2.895 2.484
12.802 2.8940001 2.4590001
12.797 2.8929999 2.434
12.82 2.898 2.415
12.81 2.8959999 2.3889999
12.838 2.902 2.3710001
12.871 2.9089999 2.3529999
12.955 2.928 2.345
12.971 2.9319999 2.3239999
13.01 2.941 2.3069999
13.015 2.9419999 2.2839999
13.056 2.951 2.267
13.07 2.954 2.2449999
13.082 2.957 2.223
13.07 2.954 2.197
13.08 2.9560001 2.175
13.075 2.9549999 2.1500001
13.076 2.9549999 2.1259999
13.062 2.9519999 2.0999999
13.063 2.9519999 2.076
13.07 2.954 2.0539999
13.044 2.948 2.026
13.06 2.9519999 2.0050001
13.056 2.951 1.98
13.05 2.9489999 1.955
13.028 2.9449999 1.928
13.046 2.9489999 1.9069999
13.035 2.9460001 1.882
13.032 2.9460001 1.858
13.025 2.944 1.8329999
13.009 2.9400001 1.807
13.007 2.9400001 1.783
13.004 2.9389999 1.7589999
13.005 2.9389999 1.735
12.998 2.938 1.711
12.993 2.9360001 1.687
13 2.938 1.664
12.976 2.9319999 1.637
12.999 2.938 1.617
12.987 2.9349999 1.592
12.971 2.931 1.566
12.971 2.931 1.543
12.955 2.928 1.517
12.953 2.927 1.494
12.96 2.9289999 1.471
12.953 2.927 1.447
12.958 2.928 1.424
12.939 2.924 1.398
12.945 2.925 1.376
12.929 2.921 1.351
12.939 2.9230001 1.3279999
12.93 2.921 1.304
12.925 2.9200001 1.28
12.917 2.918 1.256
12.914 2.918 1.233
12.907 2.9159999 1.209
12.895 2.9130001 1.184
12.903 2.915 1.1619999
12.909 2.9159999 1.1390001
12.902 2.915 1.115
12.914 2.9170001 1.0930001
12.909 2.9159999 1.069
12.891 2.9119999 1.045
12.887 2.911 1.021
12.877 2.9089999 0.99699998
12.877 2.9089999 0.97399998
12.856 2.904 0.94999999
12.875 2.908 0.92799997
12.885 2.9100001 0.90499997
12.865 2.9059999 0.88099998
12.873 2.908 0.85799998
12.857 2.904 0.83399999
12.871 2.9070001 0.81199998
12.868 2.9059999 0.78899997
12.854 2.9030001 0.76499999
12.861 2.905 0.74199998
12.862 2.905 0.71899998
12.849 2.902 0.69599998
12.85 2.902 0.67299998
12.851 2.902 0.64999998
12.862 2.905 0.62699997
12.863 2.905 0.60399997
12.869 2.9059999 0.58099997
12.86 2.904 0.55800003
12.876 2.9070001 0.53600001
12.857 2.904 0.51200002
12.856 2.9030001 0.48899999
12.864 2.905 0.46599999
12.864 2.905 0.44299999
12.86 2.904 0.41999999
12.871 2.9070001 0.39700001
12.862 2.905 0.37400001
12.838 2.8989999 0.34999999
12.863 2.905 0.32800001
12.833 2.898 0.30399999
12.848 2.901 0.28200001
12.855 2.9030001 0.259
12.849 2.901 0.236
12.851 2.902 0.213
12.851 2.902 0.19
12.835 2.898 0.167
12.842 2.9000001 0.14399999
12.852 2.902 0.121
12.852 2.902 0.097999997
12.847 2.901 0.075000003
12.852 2.902 0.052000001
12.848 2.901 0.028999999
13.007 2.9649999 2.911
13.001 2.964 2.885
13.001 2.964 2.8610001
13.01 2.9660001 2.839
13.007 2.9649999 2.813
13.008 2.9649999 2.789
12.998 2.9630001 2.763
13.005 2.9649999 2.74
13.014 2.9660001 2.7179999
13.01 2.9649999 2.6930001
13.022 2.9679999 2.671
12.914 2.9430001 2.625
12.822 2.9219999 2.582
12.799 2.9170001 2.5539999
12.799 2.9170001 2.53
12.811 2.9200001 2.5090001
12.83 2.924 2.4890001
12.829 2.924 2.4649999
12.814 2.9200001 2.438
12.813 2.9200001 2.415
12.809 2.9189999 2.3900001
12.823 2.9219999 2.369
12.818 2.921 2.345
12.879 2.9349999 2.332
12.93 2.947 2.3169999
12.989 2.96 2.3039999
12.992 2.961 2.2809999
12.964 2.954 2.2520001
12.983 2.9579999 2.2309999
12.969 2.9549999 2.2049999
12.976 2.957 2.1819999
12.97 2.9549999 2.158
12.971 2.9560001 2.1340001
12.967 2.9549999 2.1099999
12.96 2.9530001 2.085
12.951 2.951 2.0599999
12.957 2.9519999 2.0369999
12.938 2.948 2.01
12.938 2.948 1.9859999
12.941 2.948 1.9630001
12.929 2.9460001 1.938
12.931 2.9460001 1.915
12.903 2.9389999 1.887
12.909 2.941 1.864
12.908 2.941 1.841
12.897 2.938 1.8150001
12.885 2.9349999 1.79
12.898 2.938 1.7690001
12.876 2.9330001 1.742
12.893 2.937 1.721
12.867 2.931 1.694
12.882 2.934 1.673
12.877 2.9330001 1.649
12.859 2.9289999 1.623
12.848 2.9260001 1.598
12.852 2.927 1.576
12.854 2.928 1.553
12.844 2.925 1.528
12.848 2.9260001 1.505
12.851 2.927 1.482
12.856 2.928 1.46
12.858 2.928 1.437
12.841 2.924 1.4119999
12.863 2.9300001 1.391
12.854 2.928 1.367
12.858 2.9289999 1.344
12.865 2.9300001 1.321
12.842 2.925 1.296
12.843 2.925 1.273
12.857 2.928 1.251
12.845 2.925 1.226
12.856 2.928 1.204
12.854 2.927 1.181
12.836 2.9230001 1.156
12.838 2.924 1.133
12.84 2.924 1.11
12.856 2.928 1.089
12.849 2.9260001 1.0650001
12.85 2.9260001 1.0420001
12.852 2.927 1.0190001
12.849 2.9260001 0.99599999
12.86 2.9289999 0.97299999
12.852 2.927 0.94999999
12.849 2.9260001 0.926
12.846 2.925 0.903
12.828 2.921 0.87900001
12.853 2.927 0.85699999
12.85 2.9260001 0.83399999
12.862 2.928 0.81199998
12.839 2.9230001 0.787
12.845 2.925 0.76499999
12.856 2.927 0.74199998
12.862 2.928 0.72000003
12.863 2.9289999 0.69700003
12.85 2.925 0.67299998
12.851 2.9260001 0.64999998
12.847 2.925 0.62699997
12.843 2.924 0.60299999
12.864 2.928 0.58099997
12.86 2.928 0.55800003
12.851 2.925 0.53500003
12.859 2.927 0.51200002
12.857 2.927 0.48899999
12.859 2.927 0.46599999
12.85 2.925 0.44299999
12.859 2.927 0.41999999
12.871 2.9300001 0.39700001
12.866 2.9289999 0.37400001
12.857 2.927 0.35100001
12.848 2.924 0.32800001
12.776 2.908 0.303
12.849 2.925 0.28200001
12.839 2.9219999 0.259
12.855 2.9260001 0.236
12.851 2.925 0.213
12.831 2.9200001 0.19
12.825 2.9189999 0.167
12.854 2.925 0.14399999
12.857 2.9260001 0.121
12.842 2.9230001 0.097999997
12.847 2.924 0.075000003
12.857 2.9260001 0.052000001
12.838 2.9219999 0.028999999
13.007 2.9890001 2.961
12.99 2.9849999 2.9330001
12.968 2.98 2.9030001
12.988 2.9849999 2.8829999
12.975 2.9820001 2.8559999
12.987 2.984 2.835
12.969 2.98 2.806
12.974 2.9809999 2.783
12.961 2.9779999 2.756
12.971 2.98 2.734
12.946 2.9749999 2.7049999
12.964 2.9790001 2.684
12.946 2.9749999 2.6570001
12.938 2.973 2.631
12.892 2.9619999 2.598
12.824 2.9460001 2.5599999
12.808 2.9430001 2.533
12.816 2.9449999 2.5109999
12.806 2.9419999 2.4849999
12.796 2.9400001 2.46
12.816 2.944 2.4400001
12.812 2.9430001 2.415
12.817 2.944 2.3929999
12.818 2.9449999 2.369
12.817 2.944 2.345
12.836 2.9489999 2.325
12.848 2.9519999 2.3039999
12.86 2.954 2.2820001
12.863 2.9549999 2.2590001
12.862 2.954 2.2349999
12.874 2.957 2.214
12.867 2.9549999 2.1889999
12.861 2.954 2.164
12.848 2.951 2.138
12.837 2.9489999 2.1129999
12.851 2.9519999 2.0910001
12.846 2.951 2.0669999
12.847 2.951 2.0439999
12.846 2.95 2.02
12.844 2.95 1.9960001
12.853 2.9519999 1.974
12.856 2.9530001 1.951
12.862 2.954 1.929
12.861 2.954 1.905
12.843 2.9489999 1.8789999
12.85 2.951 1.8559999
12.853 2.9519999 1.8329999
12.845 2.95 1.809
12.844 2.95 1.785
12.839 2.9489999 1.761
12.85 2.951 1.739
12.848 2.951 1.716
12.848 2.951 1.692
12.854 2.9519999 1.67
12.831 2.947 1.6440001
12.86 2.9530001 1.624
12.854 2.9519999 1.6
12.847 2.95 1.576
12.83 2.9460001 1.55
12.852 2.951 1.53
12.84 2.9489999 1.505
12.843 2.9489999 1.482
12.841 2.9489999 1.459
12.843 2.9489999 1.436
12.836 2.947 1.4119999
12.843 2.9489999 1.3890001
12.845 2.95 1.3660001
12.853 2.951 1.344
12.85 2.951 1.3200001
12.862 2.9530001 1.298
12.85 2.95 1.274
12.837 2.947 1.249
12.859 2.9519999 1.228
12.837 2.947 1.2029999
12.848 2.95 1.181
12.846 2.9489999 1.158
12.857 2.9519999 1.135
12.859 2.9519999 1.112
12.846 2.9489999 1.0880001
12.848 2.95 1.0650001
12.855 2.951 1.043
12.841 2.948 1.018
12.844 2.948 0.99599999
12.854 2.951 0.97299999
12.847 2.9489999 0.94999999
12.854 2.951 0.92699999
12.86 2.9519999 0.90399998
12.837 2.947 0.88
12.849 2.9489999 0.85699999
12.865 2.9530001 0.83499998
12.847 2.9489999 0.81099999
12.853 2.95 0.78899997
12.859 2.951 0.76599997
12.86 2.9519999 0.74299997
12.842 2.948 0.71899998
12.853 2.95 0.69599998
12.834 2.9460001 0.67199999
12.846 2.9489999 0.64999998
12.851 2.95 0.62699997
12.843 2.948 0.60399997
12.848 2.9489999 0.58099997
12.86 2.9519999 0.55800003
12.86 2.9519999 0.53500003
12.868 2.954 0.51300001
12.865 2.9530001 0.48899999
12.858 2.951 0.46599999
12.859 2.951 0.44299999
12.855 2.95 0.41999999
12.861 2.9519999 0.39700001
12.873 2.954 0.375
12.856 2.95 0.35100001
12.848 2.948 0.32800001
12.728 2.921 0.30199999
12.844 2.947 0.28200001
12.849 2.9489999 0.259
12.835 2.9449999 0.236
12.834 2.9449999 0.213
12.864 2.9519999 0.19
12.845 2.947 0.167
12.861 2.951 0.14399999
12.842 2.947 0.121
12.857 2.95 0.097999997
12.857 2.95 0.075000003
12.852 2.9489999 0.052000001
12.862 2.951 0.028999999
12.892 2.9860001 2.96
12.874 2.9820001 2.9319999
12.887 2.9849999 2.9100001
12.869 2.9809999 2.882
12.863 2.98 2.8570001
12.874 2.9820001 2.835
12.842 2.974 2.8039999
12.841 2.974 2.78
12.861 2.9790001 2.76
12.837 2.973 2.7309999
12.84 2.974 2.7079999
12.842 2.974 2.684
12.852 2.977 2.6619999
12.851 2.9760001 2.638
12.829 2.971 2.6099999
12.845 2.9749999 2.589
12.834 2.9719999 2.563
12.829 2.971 2.5380001
12.803 2.9649999 2.5090001
12.812 2.967 2.487
12.815 2.9679999 2.464
12.813 2.967 2.4400001
12.809 2.9660001 2.4159999
12.823 2.97 2.395
12.813 2.967 2.369
12.815 2.9679999 2.346
12.821 2.9690001 2.323
12.825 2.97 2.3
12.837 2.973 2.279
12.833 2.9719999 2.2550001
12.851 2.9760001 2.234
12.845 2.9749999 2.2090001
12.834 2.9719999 2.184
12.857 2.9779999 2.164
12.842 2.974 2.138
12.841 2.974 2.1140001
12.839 2.973 2.0910001
12.847 2.9749999 2.0680001
12.842 2.974 2.0439999
12.84 2.973 2.02
12.839 2.973 1.9960001
12.842 2.974 1.973
12.836 2.9719999 1.949
12.844 2.974 1.927
12.847 2.974 1.904
12.851 2.9749999 1.881
12.835 2.9719999 1.855
12.852 2.9760001 1.834
12.851 2.9749999 1.8099999
12.834 2.971 1.785
12.847 2.974 1.763
12.855 2.9760001 1.7410001
12.835 2.971 1.715
12.851 2.9749999 1.694
12.849 2.9749999 1.67
12.834 2.971 1.645
12.851 2.9749999 1.623
12.847 2.974 1.6
12.837 2.9719999 1.575
12.845 2.973 1.553
12.833 2.971 1.528
12.845 2.973 1.506
12.847 2.974 1.483
12.85 2.974 1.46
12.848 2.974 1.437
12.855 2.9749999 1.414
12.823 2.9679999 1.388
12.845 2.973 1.367
12.847 2.974 1.344
12.859 2.9760001 1.322
12.857 2.9760001 1.298
12.847 2.973 1.274
12.856 2.9749999 1.252
12.863 2.977 1.229
12.851 2.974 1.205
12.848 2.973 1.181
12.855 2.9749999 1.159
12.838 2.971 1.1339999
12.849 2.973 1.112
12.845 2.973 1.089
12.853 2.974 1.066
12.85 2.974 1.043
12.856 2.9760001 1.02
12.853 2.9749999 0.99699998
12.855 2.9749999 0.97399998
12.847 2.973 0.94999999
12.848 2.974 0.92699999
12.85 2.974 0.90399998
12.842 2.9719999 0.88
12.848 2.973 0.85799998
12.859 2.9760001 0.83499998
12.846 2.973 0.81099999
12.852 2.974 0.78899997
12.849 2.973 0.76599997
12.867 2.977 0.74299997
12.847 2.973 0.71899998
12.838 2.971 0.69599998
12.839 2.971 0.67299998
12.87 2.9779999 0.65100002
12.851 2.974 0.62699997
12.848 2.973 0.60399997
12.853 2.974 0.58099997
12.844 2.9719999 0.55800003
12.857 2.9749999 0.53500003
12.865 2.9760001 0.51300001
12.847 2.9719999 0.48899999
12.858 2.9749999 0.46599999
12.864 2.9760001 0.44400001
12.849 2.973 0.41999999
12.863 2.9760001 0.39700001
12.846 2.9719999 0.37400001
12.864 2.9760001 0.35100001
12.862 2.9749999 0.32800001
12.627 2.921 0.30000001
12.829 2.9679999 0.28200001
12.854 2.973 0.259
12.854 2.973 0.236
12.854 2.973 0.213
12.855 2.973 0.19
12.86 2.9749999 0.167
12.846 2.971 0.14399999
12.846 2.971 0.121
