ply
format ascii 1.0
comment PCL generated
element vertex 585
property float x
property float y
property float z
element camera 1
property float view_px
property float view_py
property float view_pz
property float x_axisx
property float x_axisy
property float x_axisz
property float y_axisx
property float y_axisy
property float y_axisz
property float z_axisx
property float z_axisy
property float z_axisz
property float focal
property float scalex
property float scaley
property float centerx
property float centery
property int viewportx
property int viewporty
property float k1
property float k2
end_header
-6.8478751 5.8356252 1.694625
-6.6604304 5.8470774 1.6499383
-7.0556998 5.94525 1.69165
-6.9419093 5.9510908 1.6942729
-6.8479996 5.9367776 1.6941111
-6.7420001 5.9587502 1.661
-6.6559124 5.9510498 1.6469611
-6.5868936 5.9516606 1.6523923
-7.2460628 6.0528755 1.6875
-7.1468239 6.0630002 1.6897058
-7.0473928 6.0577865 1.6912858
-6.9577279 6.0420914 1.6922274
-6.8583121 6.046813 1.6966249
-6.7600002 6.0177498 1.6821251
-6.6402082 6.0315428 1.6723752
-6.5838103 6.0296664 1.6826667
-7.4491477 6.148406 1.6483068
-7.3636875 6.1301875 1.6763124
-7.2578182 6.1111817 1.6892729
-7.1619997 6.1073747 1.6947502
-7.4657898 6.2118421 1.6832105
-7.0610003 5.8462 1.7206
-6.8521338 5.8108673 1.7122002
-6.6375327 5.8429337 1.7541777
-6.5887275 5.8752728 1.7344092
-6.888 5.9070001 1.7
-6.7380004 5.9471431 1.7023572
-6.6558504 5.9527001 1.7631
-6.5775828 5.9516659 1.74735
-7.5209484 6.0487695 1.755513
-7.4392104 6.0462627 1.7795264
-7.1175003 6.0964999 1.7309999
-7.0237141 6.0970006 1.7092859
-6.9470582 6.0861173 1.7132941
-6.8475299 6.0715299 1.7134117
-6.7535257 6.0462637 1.716
-6.6502557 6.0579801 1.7451376
-6.5761709 6.051723 1.7502241
-7.5075679 6.1348329 1.7511001
-7.4397206 6.1564741 1.7485409
-7.3747778 6.1584444 1.7407776
-7.2484169 6.1290007 1.7095835
-7.1471672 6.1167502 1.7121667
-7.0585999 6.1076999 1.7131001
-6.9819999 6.1020002 1.704
-6.7030001 6.1465001 1.7865
-6.6357837 6.1349344 1.7653694
-6.5795155 6.129086 1.7716286
-7.5074005 6.2307 1.7321999
-7.4620295 6.2532496 1.747336
-7.3902302 6.2481718 1.7624002
-7.4560647 6.3194509 1.7832581
-7.3920002 6.3137498 1.7865001
-6.6422505 5.8875003 1.81475
-6.6508608 5.9525828 1.8464445
-6.5815811 5.9667745 1.8391613
-7.5117693 6.0636926 1.8215386
-7.4391623 6.0741086 1.8315675
-7.3379998 6.0929999 1.8940001
-7.237 6.0939999 1.899
-7.1372499 6.0772505 1.8957499
-7.0713339 6.072 1.8943332
-6.9615002 6.073 1.899
-6.6583204 6.0495358 1.8550584
-6.5663424 6.049087 1.8496859
-7.5088124 6.145432 1.8475134
-7.4283323 6.1498923 1.8538713
-7.377562 6.1596251 1.8750627
-7.2444448 6.152 1.8966666
-7.1303329 6.1616669 1.8973334
-7.0483336 6.1473341 1.8973334
-6.643899 6.1522384 1.8450338
-6.5640807 6.152 1.8480113
-7.503643 6.2290721 1.8512856
-7.4634857 6.2540436 1.8508496
-7.3836923 6.2573853 1.860564
-7.2660003 6.2378001 1.8980001
-7.1658335 6.2520838 1.8970835
-7.0360003 6.2783332 1.8976667
-6.9893336 6.2426672 1.8980001
-6.8340001 6.263 1.898
-6.7080002 6.2080002 1.893
-6.6303716 6.2339072 1.8603024
-6.5706935 6.2364478 1.8717346
-7.5019999 6.3410001 1.811
-7.4614782 6.3530536 1.8483672
-7.3831472 6.347611 1.8570925
-7.2525339 6.3390002 1.8954667
-7.1445003 6.3301668 1.8977499
-7.0507998 6.316 1.8921999
-6.9829998 6.3119998 1.899
-6.895 6.3210001 1.897
-7.4453716 6.4248285 1.8779715
-7.386889 6.4109998 1.8792223
-6.6485 5.98 1.911
-6.5910001 5.9980001 1.913
-7.217 6.0949998 1.906
-7.1533747 6.092 1.912125
-7.0374002 6.0742002 1.9139999
-6.9471664 6.0630555 1.9089445
-6.8318577 6.0405717 1.9119999
-6.7465453 6.0347271 1.9148182
-6.6458893 6.0531549 1.9399111
-6.5738387 6.0625963 1.9397839
-7.5115004 6.1870003 1.9189999
-7.4648004 6.1612496 1.9196503
-7.3543158 6.1429477 1.9091579
-7.2518234 6.1455884 1.9048233
-7.1488571 6.146143 1.9021907
-7.0534372 6.1550622 1.9026874
-6.949616 6.1636147 1.9049232
-6.8577776 6.1302223 1.9062222
-6.7606368 6.1628184 1.9090002
-6.6597896 6.1360526 1.9357368
-6.5540142 6.1533461 1.9504868
-7.5048003 6.2293339 1.9393334
-7.4728656 6.2512407 1.9543464
-7.3728576 6.2564292 1.9247859
-7.266778 6.2530007 1.9011112
-7.1615343 6.2380672 1.9011333
-7.0560002 6.2583079 1.902077
-6.952353 6.2452359 1.9029999
-6.8607082 6.2554178 1.9062083
-6.7538662 6.2731338 1.912167
-6.6432705 6.2619739 1.9392973
-6.5479412 6.2545238 1.9487623
-7.4786549 6.3481669 1.950859
-7.3681617 6.3668075 1.9460002
-7.2557645 6.368412 1.912941
-7.1499438 6.3557782 1.9143889
-7.0541601 6.3353195 1.9142399
-6.9551673 6.3234177 1.9139584
-6.8498001 6.3126502 1.9215997
-6.751667 6.3033333 1.9296668
-6.6231079 6.3477302 1.967351
-6.5578876 6.3420148 1.9639304
-7.4562135 6.4541907 1.9434996
-7.3756332 6.4458666 1.9465667
-7.4371057 6.5254993 1.9735523
-7.3677039 6.5179629 1.9794075
-6.592 6.086 2.0009999
-6.6419997 6.1532273 2.0353639
-6.5645151 6.1620584 2.0336573
-7.4488587 6.2788939 2.0174289
-7.3946667 6.2798338 2.0263333
-7.1030002 6.296 2.098
-6.9200001 6.2839999 2.098
-6.6361761 6.2507648 2.0517943
-6.5394912 6.2522931 2.0506463
-7.5019999 6.3315001 2.0450001
-7.4620228 6.3472013 2.0476704
-7.3837571 6.3597751 2.0523546
-7.2543335 6.3450003 2.0953333
-6.6215839 6.3481226 2.0470729
-6.5356107 6.3528433 2.0504024
-7.4637237 6.4477377 2.0485656
-7.3733821 6.4447784 2.0526907
-7.263 6.4229999 2.099
-6.6258183 6.4333038 2.0529394
-6.5511827 6.4443007 2.0562258
-7.4448209 6.5513468 2.0467784
-7.3597288 6.5506234 2.0493784
-7.24575 6.5402498 2.099
-6.6079998 6.5040002 2.0969999
-6.5667143 6.5080004 2.0928571
-7.4273429 6.6249719 2.0754857
-7.3652792 6.6247606 2.0773199
-7.2989998 6.6160002 2.0829999
-7.1374998 6.2764997 2.112
-6.9481997 6.2773004 2.1125998
-6.856143 6.276 2.1194286
-6.7469997 6.2390003 2.1125
-6.6399093 6.2413635 2.122273
-6.555758 6.2593341 2.1319094
-7.4368124 6.3758745 2.1154373
-7.3487105 6.3636847 2.1141315
-7.2474475 6.3566904 2.1109655
-7.1643529 6.3469996 2.107353
-7.0514669 6.3521333 2.1072667
-6.9416003 6.3648 2.1076
-6.8493338 6.3383331 2.1099167
-6.7394004 6.3580999 2.1136
-6.6298676 6.3525333 2.1292667
-6.5280762 6.3520913 2.1478481
-7.4576354 6.4567184 2.1427324
-7.3558965 6.4523449 2.1355517
-7.2482853 6.4579997 2.1063573
-7.151454 6.4427271 2.1050453
-7.0463915 6.4509997 2.1078696
-6.9503531 6.4557643 2.1088822
-6.8463998 6.4573193 2.1087999
-6.7509265 6.4733706 2.1194072
-6.6335936 6.4581566 2.140281
-6.5274754 6.4514647 2.1471431
-6.4945998 6.4598002 2.1495998
-7.4542122 6.5499706 2.1518312
-7.3485718 6.5688219 2.1450717
-7.2481928 6.5625482 2.1103547
-7.1488233 6.5510297 2.1141176
-7.0502291 6.5414 2.1156859
-6.9460001 6.5288072 2.1210003
-6.8533039 6.5126524 2.1253912
-6.7796669 6.5026665 2.125
-6.6175561 6.5304441 2.1651111
-6.5419674 6.5453234 2.1549835
-6.4974999 6.5369997 2.1935
-7.4337435 6.6517549 2.147059
-7.3532853 6.6540709 2.1439857
-6.6290002 6.6009998 2.191
-6.5408182 6.6118188 2.1919091
-7.4130244 6.7365117 2.1700974
-7.3590422 6.734376 2.1722713
-7.5775261 5.6262631 2.2798419
-6.6161251 6.3661251 2.2325001
-6.5446115 6.3623333 2.229389
-7.4242501 6.4862499 2.2014999
-7.3713336 6.4889998 2.2103336
-6.6092491 6.4511003 2.2478001
-6.5332713 6.4503722 2.2494404
-6.4958749 6.4691253 2.243875
-7.443254 6.5547147 2.2390954
-7.361445 6.5586848 2.2472963
-6.6061006 6.5297999 2.2478001
-6.5427108 6.5554433 2.2489622
-6.4929671 6.5523868 2.2524195
-7.4375386 6.6492767 2.250526
-7.3438721 6.6500573 2.245019
-6.6167498 6.6469998 2.2502501
-6.5434642 6.6477852 2.2461965
-6.4919434 6.6489725 2.2693143
-7.4238949 6.7515574 2.246974
-7.335279 6.7555704 2.2459452
-7.2819996 6.7819996 2.2220001
-6.5374551 6.7176814 2.2868636
-6.4990001 6.711 2.289
-7.4128551 6.837522 2.2639375
-7.3544092 6.8418341 2.2649543
-7.2890005 6.8206668 2.2673335
-7.3670001 7.046 2.2839999
-7.6118331 5.5803332 2.3188334
-7.6101665 5.6495838 2.3437085
-7.5615954 5.6547971 2.3510878
-7.605 5.6999998 2.365
-7.5682955 5.7254086 2.3752222
-7.1040001 6.487 2.329
-6.8169999 6.4990001 2.335
-6.7393336 6.4920001 2.3356667
-6.6356673 6.4673338 2.3116667
-6.5391822 6.4725919 2.3289549
-6.4790001 6.487 2.3050001
-7.3401999 6.5908003 2.3203332
-7.2431583 6.5787892 2.3211052
-7.1434994 6.5736656 2.3260002
-7.0523753 6.5610003 2.3234587
-6.9528003 6.5479007 2.3188999
-6.84725 6.5397496 2.322
-6.7461252 6.5573125 2.3262501
-6.63625 6.523375 2.3283751
-6.5359492 6.5468206 2.3376412
-6.4905157 6.562788 2.3518789
-7.4290009 6.6602345 2.336412
-7.352438 6.6485004 2.3350315
-7.2459645 6.6467853 2.3162143
-7.1462412 6.6344485 2.3165519
-7.053144 6.6494288 2.318393
-6.9539709 6.6507573 2.3200908
-6.8490424 6.6601667 2.3217084
-6.7479334 6.6634002 2.3221335
-6.6605268 6.664526 2.3311579
-6.5606871 6.6578441 2.3388748
-6.4857459 6.6483893 2.3488958
-7.4251494 6.7491755 2.3469999
-7.3266845 6.7558417 2.3371053
-7.2431674 6.7557502 2.3145833
-7.1465855 6.7608781 2.320415
-7.048501 6.7530842 2.3226669
-6.9468255 6.743474 2.3273251
-6.8505144 6.7347713 2.3277717
-6.7566895 6.7179656 2.3330004
-6.6696672 6.7066665 2.3446665
-6.5464878 6.7501574 2.3444741
-6.4809165 6.7455983 2.3546808
-7.4120712 6.8473854 2.3505998
-7.3330145 6.857543 2.3430421
-7.2615004 6.8233328 2.3282499
-7.1735001 6.8070002 2.336
-6.6069999 6.816 2.3800001
-6.5338135 6.829875 2.3807814
-6.4870005 6.8357501 2.3810835
-7.4048338 6.9223337 2.3738334
-7.3583865 6.9438972 2.3596532
-7.2899165 6.936584 2.3694999
-7.3533998 7.0108004 2.3727999
-7.5633688 5.6772113 2.4185262
-7.6146669 5.751667 2.4100001
-7.5579028 5.7567611 2.4462497
-7.5507998 5.8297744 2.4755504
-6.6040001 6.592 2.4414999
-6.5406003 6.5710673 2.4201999
-6.49125 6.5852504 2.41625
-7.3670001 6.691 2.441
-6.6009998 6.6230001 2.464
-6.5525002 6.659595 2.4528751
-6.4855714 6.6596131 2.4446528
-7.4206047 6.7651052 2.4294736
-7.3457994 6.7574754 2.4416254
-6.5617647 6.7505107 2.451638
-6.4764371 6.751296 2.4518874
-7.4123812 6.8483024 2.446476
-7.3293777 6.8471313 2.4522026
-7.2976665 6.8100004 2.4596667
-6.543077 6.8556466 2.4416924
-6.4751468 6.8510122 2.4480605
-7.4056001 6.9316988 2.4461005
-7.3545189 6.9572721 2.4486823
-7.2906246 6.9513741 2.451375
-6.5338783 6.9243636 2.4751513
-6.4786501 6.9215503 2.4769502
-7.3547859 7.0426788 2.4531512
-7.2866492 7.0401611 2.4678922
-7.3471246 7.1095004 2.494
-7.7405767 5.1652389 2.5481529
-7.6953335 5.1854162 2.5415001
-7.7123003 5.2506499 2.5519001
-7.6895208 5.2542539 2.5469015
-7.753859 5.3094993 2.5506999
-7.6908998 5.3039999 2.5550001
-7.5536923 5.7847695 2.5135388
-7.5401211 5.8581629 2.5431011
-7.4953337 5.8676672 2.5510001
-7.5374203 5.9296794 2.5724597
-7.493 5.9183331 2.5856667
-6.6539998 6.6659999 2.51
-6.545445 6.6786666 2.5304446
-6.4871674 6.6868339 2.5130002
-7.2179999 6.7940001 2.5350001
-7.1341429 6.7918572 2.5284288
-7.0339441 6.7820001 2.534611
-6.9376001 6.7762671 2.5358665
-6.8435788 6.7659469 2.5358949
-6.7517371 6.7570529 2.5408421
-6.6504712 6.7494116 2.5428824
-6.5648189 6.7524543 2.5295
-6.4738889 6.7594442 2.5437601
-7.4079366 6.8695626 2.5194376
-7.3429232 6.8513079 2.5300965
-7.2488055 6.8416109 2.5286391
-7.1471791 6.841898 2.5301795
-7.0502105 6.8433676 2.5304735
-6.949923 6.8533845 2.529577
-6.8513684 6.8533678 2.5310531
-6.7530475 6.8534756 2.5341904
-6.6503 6.8576503 2.5373502
-6.5581427 6.8557849 2.5266426
-6.4642453 6.8528252 2.5505946
-7.4056497 6.92555 2.5459499
-7.3765826 6.9522085 2.5482986
-7.2545652 6.9523053 2.5260437
-7.1488848 6.9448085 2.5253465
-7.0448136 6.9509373 2.5270624
-6.9450312 6.9468784 2.5288181
-6.8481698 6.946146 2.5311215
-6.7465677 6.960885 2.5352728
-6.6574645 6.9635611 2.5404878
-6.5472202 6.9546261 2.5357118
-6.4630985 6.9532824 2.5477402
-7.3775673 7.0510006 2.5490866
-7.2626119 7.0607753 2.5355306
-7.1452007 7.043314 2.5289996
-7.0472417 7.0416365 2.537909
-6.950418 7.0241284 2.5358708
-6.8560801 7.01616 2.5431197
-6.7694001 7.0097003 2.5487001
-6.619 7 2.5555
-6.522965 7.034482 2.5750685
-6.4700918 7.0277271 2.5733635
-7.3506198 7.1466112 2.5512495
-7.279809 7.1492977 2.5632973
-7.3350005 7.2103753 2.5868752
-7.2840004 7.2130003 2.5946665
-7.8185334 5.1834345 2.6466334
-7.7434044 5.1720486 2.6466103
-7.6927152 5.1787143 2.6468573
-7.8215423 5.2489634 2.6515558
-7.7141008 5.2493496 2.6455498
-7.6914458 5.2573552 2.6445558
-7.8101249 5.3060002 2.64625
-7.7546806 5.3115721 2.6490896
-7.6943336 5.3053336 2.6590002
-7.5170002 5.8955002 2.6064999
-7.5310926 5.9542303 2.6384153
-7.4918423 5.9710627 2.6417813
-7.5297422 6.0290861 2.6658854
-7.4881363 6.0302272 2.6758635
-6.533 6.7934999 2.602
-6.4818578 6.7837148 2.6145716
-7.3969998 6.8990002 2.6010001
-6.5494447 6.8660369 2.6562221
-6.4609818 6.8609228 2.6397889
-7.4115 6.98 2.6205001
-7.3592005 6.9689431 2.6248572
-7.2971663 6.9730005 2.6515002
-6.542726 6.954545 2.6599998
-6.4503489 6.9508123 2.6511881
-7.408 7.0679998 2.681
-7.3732147 7.0472918 2.6476326
-7.285779 7.0625091 2.6555114
-6.5329409 7.0513134 2.6460979
-6.4453964 7.0538836 2.6445351
-7.3673983 7.149219 2.6528897
-7.2798905 7.1498718 2.6505365
-6.5272598 7.1263704 2.6679261
-6.4607925 7.1305094 2.6684721
-7.3488069 7.2471294 2.6482477
-7.2693796 7.2447734 2.6503637
-7.3278418 7.3145261 2.681474
-7.2745557 7.312223 2.6849999
-7.8159733 5.1839733 2.7476218
-7.740654 5.1722507 2.7516665
-7.6975002 5.1852503 2.74475
-7.8237867 5.2499876 2.7492378
-7.7105174 5.244277 2.7492068
-7.6943674 5.2543001 2.744
-7.8126369 5.3065457 2.7584546
-7.7535992 5.313508 2.7490771
-7.6953335 5.3056669 2.7450004
-7.5209999 5.9899998 2.701
-7.4934998 5.9959998 2.7045
-7.5262566 6.0584192 2.7361162
-7.4834728 6.0642447 2.7402453
-7.5218396 6.1335163 2.7644513
-7.4761863 6.1362553 2.7695122
-7.5120001 6.2090001 2.7939999
-6.5474 6.8633995 2.7268
-6.4740005 6.8891997 2.7119999
-7.0489998 6.9969997 2.733
-6.9494286 6.9940004 2.7457144
-6.8449998 6.9737148 2.7449291
-6.7540007 6.9763579 2.7469285
-6.6499996 6.9700003 2.7505713
-6.5466738 6.9509988 2.7418773
-6.4542136 6.9565377 2.7417862
-7.3518529 7.0696173 2.7255292
-7.2556534 7.0610213 2.7345655
-7.1427064 7.0497069 2.7395608
-7.0514469 7.0426846 2.741895
-6.9516006 7.0468001 2.7405138
-6.8462858 7.050952 2.7429526
-6.7520914 7.0531821 2.7438633
-6.6487503 7.0594001 2.7463
-6.538146 7.0476036 2.7345624
-6.4334316 7.0500932 2.7494309
-7.3655429 7.1539559 2.7491715
-7.2571764 7.1465755 2.7310998
-7.13519 7.1503806 2.732857
-7.0497308 7.1497302 2.7369194
-6.9467502 7.1503344 2.7389374
-6.8453174 7.1563649 2.7409751
-6.7471747 7.1626258 2.7425992
-6.6522436 7.1655335 2.7508893
-6.5323653 7.1497688 2.7403653
-6.4362559 7.1546474 2.7459023
-7.3573198 7.2497587 2.7501667
-7.2565007 7.2581902 2.7394483
-7.1536431 7.2311425 2.7420716
-7.0517831 7.2230864 2.7459133
-6.9598746 7.2129998 2.7491877
-6.8597226 7.2091675 2.7506669
-6.7582731 7.2063637 2.760273
-6.5170002 7.2374005 2.7698004
-6.4561877 7.2330604 2.7655172
-7.3385816 7.349999 2.7471347
-7.262857 7.3505406 2.7523715
-7.1929998 7.3310003 2.7185001
-7.3215451 7.4197278 2.7775457
-7.262001 7.4187255 2.7825
-7.8159995 5.1885505 2.8464003
-7.737792 5.176096 2.844835
-7.6973338 5.1923332 2.8270001
-7.8254657 5.2495704 2.8499761
-7.7091818 5.2453861 2.8577278
-7.6952267 5.254591 2.8456364
-7.813333 5.3099165 2.8435836
-7.7499814 5.3186107 2.8522217
-7.697 5.316 2.8570001
-7.4790001 6.0895 2.8105001
-7.5150499 6.1622 2.83355
-7.4722333 6.1621785 2.8333039
-7.5156093 6.2267389 2.8629127
-7.4679484 6.241549 2.8679378
-7.507 6.316 2.8870001
-7.461 6.3070002 2.8915
-6.4793334 6.9940004 2.8330002
-6.5195303 7.0642943 2.8474114
-6.4443192 7.0606194 2.8373001
-7.3378677 7.1768661 2.8186667
-7.2756 7.1770997 2.8309002
-6.5157499 7.1495275 2.8593888
-6.4238973 7.1482201 2.8490736
-6.3920002 7.1209998 2.8629999
-7.3509526 7.2518296 2.8461721
-7.2614226 7.2583561 2.8512669
-6.5096455 7.2469993 2.8458066
-6.4327054 7.2547441 2.8444633
-6.392334 7.2614684 2.8541999
-7.3444657 7.3508396 2.8492498
-7.2517323 7.3469276 2.851125
-6.5110002 7.3217278 2.8467274
-6.4488845 7.3418145 2.8620012
-6.3892226 7.3216672 2.8765557
-7.3311377 7.4547834 2.8454905
-7.2482238 7.4467473 2.8456409
-7.1843333 7.4713335 2.8720002
-6.4679999 7.4035001 2.8940001
-7.3156323 7.5275269 2.8771052
-7.2571535 7.526155 2.8767695
-7.191 7.5159998 2.8759999
-7.8152318 5.1906161 2.9506156
-7.7439995 5.1799307 2.945569
-7.6946669 5.1846666 2.9413335
-7.8262482 5.2486482 2.9478405
-7.7142448 5.2516413 2.9487362
-7.6971984 5.2620006 2.93695
-7.8157773 5.3127227 2.9636664
-7.7525449 5.320765 2.9528818
-7.691 5.3175001 2.9380002
-7.5279999 6.1830001 2.9170001
-7.4505 6.1619997 2.9264998
-7.5085831 6.2750006 2.9287498
-7.4666843 6.2701397 2.9361749
-7.508625 6.3317499 2.9547501
-7.4617376 6.336514 2.9598944
-7.4568 6.4096003 2.9936001
-6.5139999 7.0890002 2.9089999
-6.4860001 7.0500002 2.9449999
-6.9809999 7.184 2.95
-6.7574997 7.1945 2.9435
-6.6557145 7.1871433 2.9528573
-6.5236001 7.1686001 2.9374573
-6.4355221 7.1623969 2.9352083
-7.3278465 7.2772312 2.9220002
-7.2531953 7.2795835 2.9369166
-7.1526389 7.2746391 2.94612
-7.0496364 7.2637577 2.9465761
-6.9550533 7.2587833 2.9495945
-6.8512592 7.2437406 2.9492595
-6.7496243 7.2435632 2.9512184
-6.6494994 7.2516875 2.9540629
-6.5334544 7.2494535 2.9449692
-6.4372005 7.242785 2.9424617
-6.3928885 7.2605014 2.9521112
-7.3357897 7.3486986 2.9437437
-7.2429738 7.3414054 2.9307568
-7.1408801 7.3464398 2.9391208
-7.0498233 7.3436475 2.9407353
-6.9517365 7.354342 2.9422369
-6.8530502 7.3519998 2.9449997
-6.7536478 7.3602653 2.9456763
-6.6578145 7.3528147 2.9487033
-6.5527306 7.352808 2.948808
-6.4445658 7.35429 2.9358554
-6.3874526 7.3497176 2.955755
-7.3294711 7.4480391 2.9483919
-7.2366672 7.4386678 2.9261
-7.1443477 7.4546957 2.9376523
-7.0514131 7.4475002 2.9380002
-6.9575152 7.4476056 2.9408181
-6.8529778 7.450418 2.9452791
-6.7485914 7.4574323 2.9475226
-6.6467209 7.458941 2.9550998
-6.5527802 7.4572663 2.9604878
-6.4455214 7.4458537 2.9520831
-6.3905683 7.4306664 2.9784338
-7.3204169 7.5503345 2.9493546
-7.2391272 7.5601792 2.9320002
-7.1479111 7.5493522 2.9433525
-7.0495424 7.5420289 2.948657
-6.9484253 7.5304503 2.9532003
-6.8529406 7.5173635 2.9552732
-6.7586665 7.5109053 2.9643807
-6.664 7.5044994 2.9765
-6.4450006 7.5050006 2.9878335
-7.3129339 7.6196675 2.9767334
-7.2558665 7.6341343 2.9729333
-7.1630001 7.6359997 2.9864998
0 0 0 1 0 0 0 1 0 0 0 1 0 0 0 0 0 585 1 0 0
