ply
format ascii 1.0
comment PCL generated
element vertex 2044
property float x
property float y
property float z
element camera 0
property float view_px
property float view_py
property float view_pz
property float x_axisx
property float x_axisy
property float x_axisz
property float y_axisx
property float y_axisy
property float y_axisz
property float z_axisx
property float z_axisy
property float z_axisz
property float focal
property float scalex
property float scaley
property float centerx
property float centery
property int viewportx
property int viewporty
property float k1
property float k2
end_header
16.591 10.946 0.155
16.601 10.94 0.14300001
16.594 10.943 0.131
16.587 10.947 0.118
16.604 10.937 0.106
16.594 10.942 0.093000002
16.59 10.944 0.081
16.601 10.937 0.068000004
16.562 10.96 0.055
16.566999 10.956 0.043000001
16.598 10.937 0.030999999
16.597 10.937 0.018999999
16.559999 11.063 2.9779999
16.582001 11.049 2.954
16.59 11.044 2.9349999
16.59 11.043 2.921
16.58 11.049 2.911
16.365 11.179 2.9779999
16.385 11.166 2.954
16.42 11.144 2.924
16.431999 11.136 2.9030001
16.445999 11.127 2.882
16.468 11.113 2.858
16.48 11.105 2.8380001
16.493 11.096 2.8180001
16.489 11.099 2.8050001
16.493 11.096 2.789
16.485001 11.1 2.7780001
16.496 11.093 2.7590001
16.5 11.089 2.7420001
16.496 11.091 2.73
16.528 11.071 2.7019999
16.549 11.058 2.6789999
16.533001 11.067 2.671
16.528 11.07 2.6589999
16.532 11.066 2.6429999
16.533001 11.065 2.628
16.548 11.055 2.608
16.535999 11.062 2.598
16.533001 11.064 2.586
16.535999 11.061 2.5699999
16.541 11.058 2.5539999
16.546 11.054 2.5380001
16.551001 11.051 2.5220001
16.554001 11.048 2.507
16.58 11.032 2.483
16.566 11.039 2.474
16.573999 11.034 2.457
16.586 11.026 2.438
16.583 11.028 2.4260001
16.579 11.029 2.4130001
16.587 11.024 2.3959999
16.58 11.028 2.385
16.568001 11.034 2.3759999
16.566 11.035 2.362
16.58 11.026 2.3440001
16.577 11.027 2.3299999
16.586 11.021 2.3139999
16.575001 11.027 2.3039999
16.575001 11.026 2.29
16.587999 11.018 2.2720001
16.598 11.012 2.2550001
16.594 11.013 2.2420001
16.587 11.017 2.2309999
16.591999 11.014 2.2160001
16.596001 11.01 2.2
16.561001 11.031 2.1989999
16.591 11.013 2.175
16.584 11.016 2.164
16.584999 11.015 2.1500001
16.582001 11.017 2.1370001
16.59 11.011 2.1210001
16.594 11.008 2.1059999
16.577999 11.017 2.0969999
16.591999 11.008 2.0799999
16.58 11.015 2.0699999
16.580999 11.013 2.056
16.591 11.007 2.039
16.587999 11.008 2.027
16.601 11 2.0090001
16.584999 11.009 2.0009999
16.58 11.012 1.989
16.580999 11.01 1.975
16.596001 11.001 1.957
16.586 11.006 1.947
16.596001 11 1.9299999
16.591999 11.001 1.918
16.594 11 1.904
16.594999 10.999 1.891
16.59 11.001 1.8789999
16.597 10.996 1.863
16.579 11.007 1.855
16.584 11.003 1.84
16.589001 11 1.826
16.587 11 1.813
16.593 10.996 1.798
16.586 11 1.7869999
16.579 11.004 1.776
16.584999 11 1.761
16.582001 11.001 1.748
16.591 10.995 1.733
16.579 11.002 1.723
16.586 10.997 1.707
16.583 10.998 1.6950001
16.593 10.992 1.679
16.586 10.995 1.668
16.587999 10.994 1.654
16.584999 10.995 1.642
16.591 10.99 1.627
16.593 10.989 1.614
16.587 10.992 1.602
16.601 10.983 1.586
16.593 10.987 1.575
16.584 10.992 1.564
16.601 10.981 1.5470001
16.594 10.985 1.535
16.58 10.993 1.525
16.591 10.986 1.51
16.583 10.99 1.499
16.580999 10.991 1.4859999
16.569 10.997 1.476
16.599001 10.979 1.456
16.604 10.976 1.442
16.601 10.977 1.4299999
16.591 10.982 1.419
16.605 10.973 1.403
16.598 10.977 1.392
16.596001 10.977 1.3789999
16.591 10.98 1.367
16.584 10.983 1.3559999
16.582001 10.984 1.3430001
16.58 10.985 1.331
16.575001 10.988 1.319
16.593 10.976 1.302
16.586 10.98 1.291
16.598 10.972 1.276
16.596001 10.973 1.263
16.598 10.971 1.25
16.593 10.973 1.238
16.591 10.975 1.226
16.589001 10.975 1.2130001
16.591999 10.973 1.2
16.606001 10.964 1.1849999
16.596001 10.969 1.174
16.591 10.972 1.1619999
16.597 10.968 1.148
16.586 10.974 1.137
16.591999 10.969 1.123
16.591 10.97 1.1109999
16.597 10.965 1.097
16.587 10.971 1.086
16.611 10.956 1.069
16.601999 10.961 1.058
16.615999 10.952 1.043
16.66 10.926 1.024
16.677 10.915 1.0089999
16.684999 10.91 0.995
16.704 10.897 0.98000002
16.721001 10.887 0.96499997
16.723 10.885 0.95300001
16.732 10.879 0.93900001
16.754999 10.865 0.92299998
16.761 10.861 0.91000003
16.77 10.855 0.89700001
16.777 10.85 0.884
16.802 10.835 0.86799997
16.802999 10.834 0.85600001
16.806 10.831 0.84299999
16.832001 10.815 0.82800001
16.841 10.809 0.815
16.849001 10.804 0.80199999
16.861 10.797 0.78799999
16.868 10.792 0.77499998
16.863001 10.795 0.764
16.853001 10.8 0.75300002
16.868999 10.79 0.73900002
16.855 10.798 0.72899997
16.858 10.795 0.71600002
16.853001 10.798 0.70499998
16.856001 10.796 0.69199997
16.855 10.796 0.68099999
16.853001 10.797 0.66900003
16.855 10.795 0.65700001
16.848 10.799 0.64499998
16.868 10.786 0.63099998
16.846001 10.799 0.62099999
16.853001 10.794 0.60900003
16.844 10.799 0.597
16.860001 10.789 0.58399999
16.843 10.799 0.57300001
16.604 10.941 0.579
16.591999 10.948 0.56800002
16.601999 10.941 0.55400002
16.594 10.945 0.542
16.601 10.941 0.52899998
16.6 10.941 0.51700002
16.598 10.941 0.505
16.594999 10.943 0.49200001
16.606001 10.935 0.479
16.606001 10.935 0.46700001
16.597 10.94 0.45500001
16.597 10.939 0.442
16.6 10.937 0.43000001
16.594999 10.94 0.417
16.599001 10.937 0.405
16.594 10.94 0.39300001
16.597 10.937 0.38
16.584 10.944 0.368
16.591999 10.939 0.35499999
16.577999 10.947 0.34299999
16.586 10.941 0.33000001
16.589001 10.939 0.31799999
16.607 10.928 0.30500001
16.597 10.934 0.29300001
16.580999 10.943 0.28099999
16.596001 10.933 0.26800001
16.608999 10.925 0.255
16.587 10.937 0.243
16.599001 10.93 0.23
16.596001 10.931 0.21799999
16.591 10.934 0.206
16.577999 10.941 0.193
16.594 10.931 0.18099999
16.575001 10.942 0.168
16.594999 10.929 0.156
16.591999 10.93 0.14300001
16.584 10.935 0.131
16.591999 10.93 0.119
16.587999 10.931 0.106
16.587999 10.931 0.093999997
16.589001 10.93 0.081
16.593 10.927 0.068999998
16.593 10.927 0.056000002
16.583 10.932 0.044
16.580999 10.933 0.030999999
16.589001 10.928 0.018999999
16.573 11.042 2.9990001
16.576 11.039 2.983
16.584 11.034 2.9649999
16.583 11.034 2.951
16.575001 11.038 2.9400001
16.577999 11.036 2.924
16.579 11.034 2.9089999
16.580999 11.032 2.8929999
16.584999 11.03 2.8770001
16.584999 11.029 2.8629999
16.587999 11.027 2.8469999
16.584 11.029 2.8340001
16.576 11.033 2.823
16.579 11.03 2.8069999
16.579 11.03 2.793
16.583 11.027 2.777
16.575001 11.031 2.766
16.579 11.028 2.75
16.582001 11.026 2.734
16.57 11.032 2.7249999
16.576 11.028 2.7079999
16.582001 11.024 2.691
16.586 11.021 2.6760001
16.582001 11.023 2.6630001
16.587 11.019 2.6470001
16.594 11.014 2.6300001
16.577999 11.024 2.622
16.591 11.015 2.6029999
16.587999 11.017 2.5899999
16.579 11.021 2.579
16.587 11.016 2.562
16.586 11.016 2.5480001
16.58 11.019 2.5369999
16.586 11.015 2.52
16.591 11.012 2.5039999
16.575001 11.02 2.4960001
16.576 11.019 2.4820001
16.583 11.014 2.4649999
16.575001 11.018 2.454
16.587999 11.01 2.4360001
16.591999 11.007 2.4200001
16.601 11.001 2.4030001
16.569 11.02 2.401
16.59 11.007 2.3789999
16.582001 11.011 2.369
16.566 11.02 2.3599999
16.591999 11.004 2.3369999
16.573 11.015 2.3299999
16.586 11.007 2.312
16.577999 11.011 2.3010001
16.575001 11.012 2.2880001
16.584 11.006 2.2709999
16.568001 11.015 2.263
16.598 10.997 2.2390001
16.586 11.003 2.2290001
16.587 11.002 2.2149999
16.576 11.008 2.2049999
16.591999 10.998 2.187
16.576 11.007 2.178
16.594999 10.995 2.158
16.583 11.002 2.1489999
16.579 11.004 2.1370001
16.559999 11.014 2.1289999
16.589001 10.997 2.1059999
16.59 10.995 2.092
16.577999 11.002 2.082
16.583 10.998 2.0669999
16.577 11.002 2.056
16.593 10.992 2.0369999
16.584999 10.996 2.026
16.59 10.992 2.0109999
16.594999 10.988 1.9960001
16.596001 10.987 1.983
16.59 10.99 1.971
16.587 10.992 1.959
16.579 10.996 1.947
16.576 10.997 1.9349999
16.591 10.988 1.9170001
16.58 10.994 1.9069999
16.58 10.993 1.8940001
16.580999 10.992 1.88
16.573999 10.995 1.869
16.596001 10.982 1.849
16.59 10.985 1.8380001
16.586 10.987 1.825
16.597 10.98 1.809
16.580999 10.989 1.8
16.572001 10.994 1.789
16.591999 10.981 1.771
16.594 10.979 1.757
16.587999 10.983 1.745
16.573 10.991 1.7359999
16.577999 10.987 1.722
16.591999 10.979 1.705
16.577999 10.986 1.6950001
16.594 10.976 1.678
16.593 10.976 1.665
16.582001 10.982 1.655
16.587999 10.978 1.64
16.593 10.975 1.626
16.604 10.968 1.61
16.580999 10.981 1.603
16.59 10.975 1.587
16.591999 10.973 1.574
16.58 10.98 1.564
16.579 10.98 1.551
16.589001 10.974 1.535
16.591999 10.971 1.522
16.587999 10.973 1.51
16.584999 10.974 1.497
16.579 10.978 1.4859999
16.582001 10.975 1.472
16.587 10.972 1.4579999
16.589001 10.97 1.4450001
16.598 10.964 1.429
16.591 10.968 1.418
16.594 10.965 1.405
16.591999 10.966 1.392
16.594999 10.964 1.3789999
16.6 10.96 1.365
16.586 10.968 1.355
16.584 10.969 1.342
16.582001 10.969 1.33
16.598 10.959 1.314
16.579 10.97 1.304
16.593 10.961 1.289
16.583 10.967 1.278
16.594 10.96 1.263
16.583 10.966 1.252
16.603001 10.953 1.2359999
16.605 10.952 1.223
16.59 10.96 1.212
16.601999 10.952 1.198
16.608 10.948 1.184
16.606001 10.949 1.171
16.606001 10.948 1.159
16.586 10.96 1.149
16.605 10.948 1.133
16.594 10.954 1.122
16.593 10.954 1.11
16.604 10.947 1.095
16.598 10.95 1.084
16.587999 10.956 1.072
16.643 10.922 1.051
16.635 10.926 1.04
16.664 10.909 1.023
16.672001 10.903 1.0089999
16.694 10.89 0.99400002
16.702 10.884 0.98000002
16.712 10.878 0.96600002
16.735001 10.864 0.94999999
16.740999 10.86 0.93699998
16.747999 10.855 0.92400002
16.759001 10.848 0.91000003
16.759001 10.848 0.898
16.790001 10.829 0.88200003
16.799 10.823 0.86799997
16.819 10.81 0.85399997
16.822001 10.808 0.84100002
16.829 10.803 0.82800001
16.836 10.799 0.815
16.843 10.794 0.80199999
16.829 10.802 0.792
16.837 10.797 0.77899998
16.830999 10.8 0.76700002
16.847 10.79 0.75300002
16.848 10.789 0.741
16.841999 10.792 0.73000002
16.834999 10.795 0.71899998
16.83 10.798 0.70700002
16.837999 10.793 0.69400001
16.827999 10.798 0.68300003
16.830999 10.796 0.671
16.834 10.794 0.65799999
16.829 10.796 0.64700001
16.827999 10.796 0.63499999
16.827 10.797 0.62300003
16.826 10.796 0.611
16.818001 10.801 0.59899998
16.604 10.927 0.60399997
16.603001 10.927 0.59200001
16.594 10.932 0.57999998
16.601999 10.927 0.56699997
16.605 10.925 0.55400002
16.597 10.929 0.542
16.591 10.932 0.52999997
16.604 10.924 0.51700002
16.599001 10.926 0.505
16.596001 10.927 0.49200001
16.596001 10.927 0.47999999
16.591999 10.929 0.46799999
16.594999 10.927 0.45500001
16.597 10.925 0.442
16.594 10.926 0.43000001
16.584 10.932 0.41800001
16.601 10.921 0.405
16.587999 10.928 0.39300001
16.604 10.918 0.38
16.596001 10.923 0.368
16.594999 10.923 0.35499999
16.594 10.923 0.34299999
16.589001 10.925 0.331
16.597 10.92 0.31799999
16.587999 10.925 0.30599999
16.6 10.917 0.29300001
16.594 10.92 0.28099999
16.606001 10.913 0.26800001
16.610001 10.91 0.255
16.596001 10.917 0.243
16.598 10.916 0.23100001
16.597 10.916 0.21799999
16.594 10.918 0.206
16.6 10.913 0.193
16.583 10.923 0.18099999
16.594999 10.915 0.169
16.610001 10.906 0.156
16.620001 10.9 0.14399999
16.610001 10.905 0.131
16.597 10.912 0.119
16.597 10.912 0.107
16.59 10.915 0.093999997
16.584 10.918 0.082000002
16.589001 10.915 0.068999998
16.579 10.921 0.057
16.584999 10.916 0.044
16.586 10.915 0.032000002
16.582001 10.917 0.018999999
16.583 11.021 2.9920001
16.586 11.019 2.9760001
16.584999 11.018 2.9619999
16.57 11.027 2.954
16.576 11.023 2.937
16.584 11.017 2.9189999
16.587 11.015 2.902
16.575001 11.022 2.8940001
16.579 11.019 2.8770001
16.586 11.014 2.8599999
16.594 11.008 2.842
16.577999 11.018 2.8340001
16.573 11.02 2.822
16.580999 11.015 2.8039999
16.580999 11.014 2.79
16.593 11.006 2.77
16.584 11.011 2.76
16.584 11.01 2.7449999
16.584 11.01 2.7309999
16.58 11.012 2.7190001
16.591999 11.004 2.6989999
16.587999 11.006 2.687
16.576 11.013 2.678
16.576 11.012 2.6630001
16.587999 11.004 2.6440001
16.589001 11.003 2.6289999
16.573999 11.011 2.622
16.573999 11.011 2.6070001
16.584999 11.003 2.589
16.586 11.003 2.5739999
16.573999 11.009 2.5650001
16.577 11.007 2.55
16.584999 11.001 2.5320001
16.577 11.005 2.5220001
16.577999 11.005 2.507
16.577 11.004 2.494
16.580999 11.001 2.4779999
16.584999 10.999 2.4630001
16.577 11.003 2.4519999
16.586 10.997 2.434
16.582001 10.999 2.4219999
16.582001 10.998 2.408
16.587 10.995 2.392
16.58 10.998 2.381
16.589001 10.992 2.3640001
16.580999 10.997 2.3529999
16.577 10.998 2.3410001
16.591999 10.989 2.322
16.586 10.991 2.3099999
16.579 10.995 2.299
16.594 10.985 2.28
16.59 10.987 2.267
16.582001 10.991 2.256
16.582001 10.991 2.243
16.583 10.99 2.2290001
16.575001 10.995 2.2179999
16.593 10.983 2.198
16.584 10.988 2.187
16.593 10.982 2.171
16.583 10.988 2.161
16.587999 10.983 2.145
16.589001 10.982 2.131
16.594 10.979 2.1159999
16.597 10.977 2.102
16.59 10.98 2.0899999
16.583 10.984 2.079
16.584999 10.982 2.0650001
16.587999 10.98 2.0510001
16.580999 10.984 2.039
16.59 10.977 2.023
16.596001 10.973 2.0079999
16.598 10.972 1.994
16.582001 10.981 1.985
16.584 10.979 1.971
16.563999 10.99 1.964
16.601999 10.967 1.939
16.583 10.978 1.931
16.6 10.968 1.913
16.589001 10.973 1.903
16.594 10.97 1.888
16.587999 10.973 1.877
16.584 10.975 1.864
16.584999 10.974 1.851
16.583 10.974 1.8380001
16.601 10.963 1.8200001
16.582001 10.974 1.812
16.591999 10.968 1.796
16.59 10.968 1.783
16.594999 10.965 1.7690001
16.599001 10.962 1.7539999
16.577 10.974 1.747
16.587 10.968 1.7309999
16.587999 10.967 1.7180001
16.577999 10.972 1.707
16.584 10.968 1.692
16.596001 10.96 1.676
16.582001 10.968 1.6670001
16.587999 10.964 1.652
16.594 10.96 1.637
16.587999 10.963 1.626
16.589001 10.962 1.613
16.586 10.963 1.6
16.6 10.954 1.584
16.597 10.955 1.572
16.584 10.963 1.562
16.584999 10.962 1.548
16.603001 10.95 1.531
16.596001 10.954 1.52
16.589001 10.957 1.508
16.579 10.963 1.498
16.572001 10.967 1.4859999
16.568001 10.968 1.474
16.589001 10.956 1.457
16.580999 10.96 1.4450001
16.591999 10.953 1.4299999
16.598 10.948 1.416
16.596001 10.949 1.403
16.603001 10.944 1.3890001
16.591999 10.951 1.378
16.599001 10.946 1.364
16.579 10.957 1.355
16.580999 10.956 1.342
16.583 10.954 1.3279999
16.591 10.949 1.314
16.59 10.949 1.302
16.605 10.939 1.286
16.598 10.943 1.274
16.591 10.946 1.263
16.598 10.942 1.249
16.604 10.938 1.235
16.59 10.946 1.225
16.596001 10.941 1.211
16.594999 10.942 1.198
16.597 10.94 1.1849999
16.596001 10.94 1.1720001
16.598 10.938 1.159
16.601 10.936 1.146
16.59 10.942 1.135
16.597 10.938 1.1210001
16.594999 10.938 1.109
16.593 10.939 1.096
16.621 10.922 1.079
16.625 10.919 1.066
16.636999 10.911 1.052
16.65 10.903 1.0369999
16.672001 10.89 1.021
16.681999 10.883 1.007
16.686001 10.88 0.99400002
16.701 10.87 0.98000002
16.708 10.866 0.96600002
16.716999 10.86 0.95200002
16.733999 10.849 0.93800002
16.759001 10.834 0.92199999
16.759001 10.834 0.91000003
16.774 10.824 0.89600003
16.784 10.818 0.88200003
16.788 10.815 0.86900002
16.799 10.807 0.85600001
16.802 10.805 0.84299999
16.809999 10.8 0.82999998
16.808001 10.801 0.81800002
16.806999 10.801 0.80599999
16.809999 10.799 0.79400003
16.818001 10.794 0.78100002
16.808001 10.799 0.76999998
16.815001 10.794 0.75700003
16.813999 10.795 0.745
16.815001 10.794 0.73199999
16.82 10.79 0.72000003
16.806 10.798 0.70899999
16.813999 10.793 0.69599998
16.804001 10.798 0.685
16.806999 10.796 0.67299998
16.798 10.801 0.66100001
16.805 10.796 0.64899999
16.796 10.801 0.63700002
16.795 10.801 0.625
16.6 10.916 0.62900001
16.591999 10.92 0.61799997
16.594999 10.918 0.60500002
16.593 10.918 0.59200001
16.601 10.913 0.579
16.596001 10.916 0.56699997
16.608999 10.908 0.55400002
16.598 10.914 0.542
16.598 10.914 0.52999997
16.587999 10.919 0.51800001
16.587999 10.918 0.505
16.6 10.911 0.49200001
16.594999 10.913 0.47999999
16.597 10.911 0.46700001
16.589001 10.915 0.45500001
16.591999 10.913 0.44299999
16.587999 10.915 0.43099999
16.594999 10.911 0.41800001
16.607 10.903 0.405
16.598 10.908 0.39300001
16.601 10.906 0.38
16.597 10.908 0.368
16.601 10.905 0.35499999
16.611 10.898 0.34200001
16.594999 10.907 0.331
16.599001 10.904 0.31799999
16.601999 10.902 0.30599999
16.601 10.902 0.29300001
16.608999 10.897 0.28099999
16.597 10.904 0.26800001
16.591999 10.906 0.25600001
16.6 10.901 0.243
16.612 10.893 0.23100001
16.601999 10.899 0.219
16.594 10.903 0.206
16.597 10.901 0.19400001
16.601 10.898 0.18099999
16.601 10.897 0.169
16.598 10.899 0.15700001
16.612 10.89 0.14399999
16.591999 10.902 0.132
16.603001 10.894 0.119
16.603001 10.893 0.107
16.591999 10.9 0.094999999
16.586 10.902 0.082000002
16.594 10.897 0.07
16.601 10.892 0.057
16.591999 10.898 0.045000002
16.591 10.898 0.033
16.58 10.904 0.02
16.584 11.006 2.9890001
16.579 11.008 2.9760001
16.587999 11.002 2.9579999
16.577999 11.007 2.948
16.586 11.002 2.9300001
16.580999 11.004 2.9170001
16.573 11.009 2.9070001
16.577 11.006 2.8900001
16.584 11.001 2.872
16.58 11.003 2.8599999
16.579 11.002 2.846
16.583 11 2.8299999
16.579 11.001 2.8169999
16.573999 11.003 2.8050001
16.586 10.996 2.7850001
16.582001 10.998 2.773
16.577999 11 2.76
16.582001 10.997 2.744
16.594 10.989 2.7249999
16.593 10.988 2.711
16.598 10.985 2.694
16.577 10.997 2.6889999
16.577 10.997 2.675
16.583 10.993 2.658
16.589001 10.988 2.641
16.59 10.987 2.6270001
16.577999 10.994 2.618
16.575001 10.995 2.605
16.579 10.992 2.589
16.579 10.992 2.575
16.593 10.983 2.5550001
16.59 10.984 2.543
16.584999 10.986 2.53
16.577999 10.99 2.5190001
16.582001 10.987 2.5039999
16.586 10.984 2.4879999
16.583 10.985 2.4749999
16.583 10.984 2.461
16.591999 10.979 2.444
16.572001 10.99 2.438
16.58 10.985 2.421
16.580999 10.984 2.4070001
16.580999 10.983 2.3929999
16.577999 10.984 2.3800001
16.579 10.983 2.3659999
16.587999 10.977 2.349
16.593 10.974 2.3329999
16.589001 10.975 2.3210001
16.587999 10.975 2.3069999
16.582001 10.979 2.296
16.580999 10.979 2.2820001
16.586 10.975 2.267
16.583 10.977 2.2539999
16.601 10.965 2.2349999
16.582001 10.976 2.227
16.59 10.971 2.211
16.594 10.968 2.1960001
16.591999 10.968 2.1830001
16.587999 10.97 2.171
16.584999 10.972 2.158
16.577999 10.975 2.1470001
16.594 10.965 2.128
16.586 10.969 2.1170001
16.589001 10.967 2.1029999
16.573 10.976 2.0940001
16.591999 10.964 2.075
16.598 10.96 2.0599999
16.594 10.962 2.0469999
16.58 10.97 2.0380001
16.596001 10.959 2.02
16.586 10.965 2.0090001
16.591999 10.961 1.994
16.580999 10.967 1.984
16.591999 10.959 1.967
16.589001 10.96 1.955
16.583 10.964 1.943
16.576 10.967 1.932
16.565001 10.974 1.9220001
16.59 10.958 1.901
16.591 10.957 1.888
16.584 10.96 1.876
16.601999 10.949 1.858
16.583 10.96 1.85
16.580999 10.961 1.837
16.594999 10.952 1.8200001
16.596001 10.951 1.807
16.589001 10.954 1.795
16.59 10.953 1.7819999
16.575001 10.961 1.773
16.601999 10.945 1.752
16.587 10.954 1.743
16.591999 10.95 1.729
16.598 10.946 1.714
16.587 10.952 1.704
16.589001 10.95 1.6900001
16.594 10.947 1.676
16.584 10.952 1.665
16.584999 10.951 1.652
16.608 10.937 1.633
16.6 10.941 1.622
16.587 10.948 1.612
16.587999 10.947 1.599
16.586 10.948 1.586
16.596001 10.942 1.571
16.593 10.943 1.559
16.582001 10.949 1.548
16.601999 10.936 1.53
16.584999 10.946 1.521
16.583 10.946 1.5089999
16.580999 10.947 1.4960001
16.568001 10.954 1.4859999
16.576 10.949 1.471
16.582001 10.945 1.457
16.606001 10.931 1.439
16.594 10.937 1.429
16.591999 10.938 1.416
16.586 10.94 1.404
16.601 10.931 1.388
16.612 10.924 1.373
16.601 10.93 1.363
16.594999 10.933 1.351
16.579 10.942 1.341
16.591 10.935 1.326
16.598 10.93 1.312
16.599001 10.929 1.299
16.589001 10.934 1.288
16.6 10.927 1.273
16.59 10.933 1.262
16.6 10.926 1.248
16.59 10.931 1.237
16.589001 10.932 1.224
16.599001 10.925 1.209
16.591999 10.929 1.198
16.599001 10.924 1.184
16.589001 10.93 1.173
16.587999 10.93 1.16
16.607 10.918 1.1440001
16.6 10.921 1.133
16.599001 10.922 1.12
16.587999 10.927 1.109
16.607 10.916 1.094
16.622999 10.906 1.0779999
16.632 10.9 1.0650001
16.646999 10.89 1.05
16.659 10.883 1.035
16.655001 10.885 1.023
16.677999 10.87 1.007
16.690001 10.863 0.99299997
16.701 10.856 0.97899997
16.719 10.845 0.96399999
16.728001 10.839 0.95099998
16.738001 10.833 0.93699998
16.757 10.821 0.92199999
16.761 10.818 0.90899998
16.754999 10.821 0.898
16.785999 10.803 0.88099998
16.784 10.803 0.87
16.789 10.8 0.85699999
16.792 10.797 0.84399998
16.785999 10.8 0.833
16.789 10.798 0.81999999
16.784 10.801 0.80800003
16.784 10.8 0.796
16.785999 10.799 0.78399998
16.789 10.796 0.77100003
16.782 10.8 0.75999999
16.788 10.796 0.74699998
16.785 10.797 0.73500001
16.784 10.797 0.72299999
16.783001 10.797 0.71100003
16.802999 10.785 0.69700003
16.777 10.8 0.68800002
16.780001 10.798 0.67500001
16.75 10.815 0.66600001
16.743 10.818 0.65399998
16.604 10.9 0.65399998
16.608 10.897 0.64099997
16.59 10.907 0.63
16.605 10.898 0.61699998
16.608 10.896 0.60399997
16.603001 10.899 0.59200001
16.606001 10.896 0.579
16.605 10.896 0.56699997
16.596001 10.901 0.55500001
16.604 10.896 0.542
16.607 10.894 0.52899998
16.606001 10.894 0.51700002
16.589001 10.903 0.505
16.608999 10.891 0.49200001
16.604 10.893 0.47999999
16.599001 10.896 0.46700001
16.606001 10.891 0.45500001
16.608999 10.889 0.442
16.605 10.891 0.43000001
16.608 10.889 0.417
16.607 10.889 0.405
16.606001 10.889 0.39199999
16.601999 10.89 0.38
16.601999 10.89 0.368
16.597 10.892 0.35600001
16.6 10.89 0.34299999
16.593 10.894 0.331
16.591999 10.894 0.31900001
16.604 10.886 0.30599999
16.599001 10.889 0.29300001
16.591 10.893 0.28099999
16.599001 10.888 0.26899999
16.594 10.89 0.25600001
16.591 10.892 0.244
16.604 10.883 0.23100001
16.604 10.883 0.219
16.606001 10.881 0.207
16.604 10.882 0.19400001
16.583 10.894 0.182
16.601 10.883 0.169
16.599001 10.883 0.15700001
16.587999 10.889 0.145
16.601 10.881 0.132
16.591 10.887 0.12
16.597 10.883 0.107
16.59 10.886 0.094999999
16.576 10.894 0.082999997
16.579 10.892 0.07
16.580999 10.89 0.057999998
16.589001 10.885 0.045000002
16.575001 10.893 0.033
16.573 10.893 0.02
16.59 10.987 2.9979999
16.586 10.989 2.9849999
16.577 10.994 2.9749999
16.584 10.989 2.957
16.587999 10.986 2.941
16.583 10.988 2.928
16.583 10.988 2.914
16.586 10.985 2.898
16.584 10.987 2.885
16.59 10.982 2.8670001
16.577 10.989 2.859
16.584999 10.984 2.8410001
16.589001 10.981 2.825
16.58 10.986 2.8139999
16.58 10.985 2.8
16.584 10.982 2.7839999
16.596001 10.975 2.7639999
16.587999 10.979 2.753
16.579 10.983 2.743
16.583 10.981 2.727
16.579 10.982 2.714
16.607 10.965 2.688
16.583 10.979 2.684
16.587 10.976 2.6689999
16.58 10.98 2.6570001
16.591999 10.972 2.638
16.584 10.976 2.6270001
16.58 10.978 2.615
16.586 10.974 2.598
16.576 10.979 2.5880001
16.577999 10.977 2.573
16.573999 10.979 2.5610001
16.587 10.971 2.5420001
16.583 10.973 2.529
16.591 10.967 2.5120001
16.575001 10.976 2.5039999
16.58 10.973 2.4890001
16.587999 10.968 2.471
16.562 10.982 2.467
16.577 10.973 2.448
16.568001 10.978 2.437
16.573999 10.974 2.421
16.568001 10.977 2.4100001
16.591 10.962 2.3870001
16.582001 10.967 2.3759999
16.570999 10.973 2.3670001
16.576 10.969 2.3510001
16.580999 10.966 2.336
16.573 10.97 2.325
16.586 10.962 2.306
16.586 10.961 2.2920001
16.579 10.965 2.2809999
16.584999 10.961 2.2650001
16.589001 10.958 2.25
16.584999 10.96 2.2379999
16.594999 10.953 2.221
16.570999 10.967 2.2160001
16.58 10.961 2.1989999
16.593 10.953 2.181
16.577999 10.961 2.1719999
16.57 10.966 2.1619999
16.601999 10.946 2.1370001
16.594999 10.95 2.1259999
16.584999 10.955 2.1159999
16.601 10.945 2.0969999
16.589001 10.951 2.0880001
16.586 10.953 2.075
16.583 10.954 2.063
16.573999 10.959 2.052
16.577999 10.956 2.0369999
16.575001 10.957 2.0250001
16.591999 10.946 2.006
16.584999 10.95 1.995
16.587 10.949 1.9809999
16.587 10.948 1.967
16.569 10.958 1.959
16.580999 10.95 1.942
16.583 10.949 1.929
16.587999 10.945 1.914
16.577 10.951 1.904
16.59 10.943 1.887
16.584 10.946 1.875
16.579 10.948 1.863
16.584999 10.944 1.848
16.591 10.94 1.8329999
16.594 10.938 1.819
16.586 10.942 1.808
16.584999 10.942 1.795
16.586 10.941 1.7819999
16.589001 10.939 1.768
16.6 10.932 1.752
16.58 10.943 1.744
16.586 10.939 1.729
16.587999 10.937 1.715
16.584999 10.938 1.7029999
16.591999 10.934 1.688
16.593 10.933 1.675
16.587 10.936 1.663
16.570999 10.945 1.654
16.594 10.93 1.635
16.583 10.936 1.625
16.596001 10.928 1.609
16.576 10.939 1.6
16.604 10.922 1.581
16.584 10.933 1.572
16.594999 10.926 1.557
16.597 10.925 1.543
16.586 10.931 1.533
16.599001 10.923 1.517
16.584999 10.93 1.507
16.583 10.931 1.495
16.566999 10.94 1.485
16.582001 10.931 1.469
16.587999 10.927 1.455
16.586 10.928 1.442
16.601 10.918 1.426
16.577 10.932 1.418
16.606001 10.914 1.399
16.59 10.923 1.39
16.597 10.918 1.376
16.59 10.922 1.364
16.593 10.92 1.351
16.586 10.923 1.339
16.601 10.914 1.323
16.594999 10.917 1.312
16.586 10.922 1.301
16.591999 10.918 1.2869999
16.580999 10.923 1.276
16.596001 10.914 1.26
16.582001 10.922 1.25
16.58 10.923 1.238
16.598 10.911 1.222
16.601 10.91 1.209
16.599001 10.91 1.196
16.601999 10.908 1.183
16.591999 10.913 1.1720001
16.593 10.912 1.159
16.591999 10.912 1.146
16.603001 10.905 1.132
16.597 10.908 1.12
16.599001 10.906 1.107
16.608 10.901 1.0930001
16.617001 10.895 1.079
16.635 10.884 1.064
16.648001 10.876 1.049
16.660999 10.868 1.034
16.669001 10.862 1.021
16.681 10.855 1.007
16.691999 10.848 0.99199998
16.702999 10.84 0.97799999
16.712999 10.834 0.96499997
16.728001 10.824 0.94999999
16.73 10.823 0.93699998
16.75 10.81 0.92199999
16.763 10.802 0.90799999
16.761999 10.803 0.89600003
16.763 10.801 0.884
16.764 10.801 0.87199998
16.761999 10.801 0.86000001
16.764999 10.799 0.847
16.77 10.796 0.83399999
16.757999 10.802 0.82300001
16.753 10.805 0.81199998
16.76 10.8 0.79900002
16.759001 10.8 0.787
16.76 10.799 0.77399999
16.756001 10.801 0.76300001
16.754999 10.801 0.75
16.757999 10.799 0.73799998
16.764999 10.794 0.72500002
16.768 10.792 0.713
16.746 10.804 0.70200002
16.719999 10.819 0.69300002
16.715 10.822 0.68099999
16.596001 10.891 0.68000001
16.594 10.892 0.667
16.58 10.899 0.65600002
16.584999 10.896 0.64300001
16.584 10.896 0.63099998
16.591 10.891 0.61799997
16.607 10.881 0.60399997
16.591 10.891 0.59299999
16.597 10.887 0.57999998
16.58 10.896 0.56800002
16.587 10.891 0.55500001
16.593 10.887 0.54299998
16.615 10.874 0.52899998
16.597 10.884 0.51700002
16.6 10.882 0.505
16.6 10.882 0.49200001
16.594999 10.884 0.47999999
16.594 10.884 0.46799999
16.597 10.882 0.45500001
16.612 10.872 0.442
16.599001 10.879 0.43000001
16.599001 10.879 0.41800001
16.606001 10.874 0.405
16.594 10.881 0.39300001
16.597 10.879 0.38100001
16.597 10.878 0.368
16.587999 10.883 0.35600001
16.604 10.873 0.34299999
16.604 10.873 0.331
16.606001 10.871 0.31799999
16.598 10.875 0.30599999
16.608 10.868 0.29300001
16.601999 10.872 0.28099999
16.601 10.872 0.26899999
16.591999 10.876 0.257
16.594 10.875 0.244
16.604 10.869 0.23199999
16.594999 10.874 0.219
16.598 10.871 0.207
16.594999 10.873 0.19499999
16.606001 10.866 0.182
16.598 10.87 0.17
16.594 10.872 0.15800001
16.579 10.88 0.145
16.601 10.866 0.133
16.584 10.876 0.12
16.591999 10.871 0.108
16.587 10.873 0.096000001
16.591999 10.87 0.082999997
16.584 10.874 0.071000002
16.587 10.872 0.057999998
16.587 10.871 0.046
16.573999 10.878 0.033
16.591 10.868 0.021
16.583 10.976 2.984
16.586 10.974 2.9679999
16.586 10.973 2.954
16.584999 10.973 2.9400001
16.580999 10.975 2.927
16.584999 10.973 2.911
16.591999 10.967 2.8929999
16.576 10.977 2.8859999
16.575001 10.976 2.872
16.591 10.966 2.8499999
16.583 10.971 2.839
16.582001 10.97 2.825
16.575001 10.974 2.8139999
16.579 10.971 2.7980001
16.573999 10.973 2.786
16.584999 10.966 2.767
16.594 10.961 2.7490001
16.577 10.97 2.7420001
16.577 10.969 2.727
16.573999 10.97 2.714
16.593 10.958 2.6919999
16.584999 10.963 2.681
16.577 10.967 2.6700001
16.577 10.966 2.6559999
16.576 10.966 2.642
16.584999 10.961 2.625
16.584 10.961 2.6110001
16.58 10.963 2.599
16.584 10.959 2.5829999
16.584 10.959 2.569
16.572001 10.965 2.559
16.577 10.962 2.543
16.584999 10.957 2.527
16.584999 10.956 2.5120001
16.593 10.951 2.4949999
16.573 10.962 2.4890001
16.577999 10.959 2.473
16.59 10.951 2.4549999
16.577999 10.957 2.4449999
16.579 10.957 2.431
16.579 10.956 2.4170001
16.579 10.955 2.4030001
16.572001 10.959 2.392
16.576 10.956 2.3770001
16.568001 10.96 2.3659999
16.587 10.948 2.345
16.573999 10.955 2.336
16.579 10.952 2.3210001
16.596001 10.941 2.3010001
16.587999 10.945 2.29
16.580999 10.949 2.279
16.573 10.953 2.2679999
16.59 10.942 2.2479999
16.591 10.942 2.234
16.596001 10.938 2.2190001
16.580999 10.946 2.211
16.586 10.943 2.1949999
16.579 10.946 2.184
16.576 10.948 2.171
16.599001 10.934 2.1500001
16.58 10.944 2.1429999
16.584 10.941 2.128
16.587 10.939 2.1140001
16.577999 10.944 2.1029999
16.591 10.935 2.085
16.604 10.927 2.0680001
16.586 10.937 2.0599999
16.591 10.934 2.0450001
16.575001 10.943 2.0369999
16.584999 10.936 2.02
16.577 10.94 2.0090001
16.582001 10.937 1.994
16.576 10.94 1.983
16.576 10.939 1.969
16.577999 10.938 1.955
16.586 10.932 1.939
16.579 10.936 1.928
16.577 10.937 1.916
16.586 10.931 1.9
16.599001 10.922 1.882
16.584 10.931 1.874
16.577 10.935 1.862
16.577999 10.933 1.849
16.591 10.925 1.832
16.587999 10.927 1.8200001
16.587999 10.926 1.806
16.582001 10.929 1.795
16.583 10.928 1.781
16.591999 10.922 1.766
16.584 10.926 1.755
16.591 10.922 1.74
16.583 10.926 1.729
16.59 10.921 1.714
16.599001 10.915 1.698
16.601 10.913 1.6849999
16.594 10.917 1.673
16.591999 10.918 1.661
16.584999 10.921 1.649
16.582001 10.923 1.637
16.584 10.921 1.624
16.587 10.919 1.61
16.587999 10.918 1.597
16.594 10.914 1.582
16.587 10.917 1.571
16.591999 10.914 1.556
16.577 10.922 1.5470001
16.599001 10.908 1.529
16.589001 10.914 1.518
16.586 10.915 1.506
16.593 10.911 1.492
16.573999 10.921 1.483
16.58 10.918 1.469
16.580999 10.916 1.455
16.593 10.909 1.4400001
16.586 10.913 1.429
16.579 10.916 1.4170001
16.594999 10.906 1.401
16.587999 10.909 1.3890001
16.59 10.907 1.376
16.598 10.903 1.362
16.59 10.906 1.35
16.597 10.902 1.336
16.596001 10.902 1.324
16.589001 10.905 1.312
16.591999 10.904 1.299
16.577 10.912 1.289
16.596001 10.9 1.272
16.599001 10.898 1.2589999
16.596001 10.899 1.247
16.601999 10.895 1.233
16.596001 10.898 1.221
16.598 10.896 1.2079999
16.606001 10.891 1.194
16.583 10.904 1.1849999
16.597 10.895 1.17
16.605 10.89 1.156
16.598 10.894 1.145
16.587999 10.899 1.1339999
16.59 10.897 1.1210001
16.593 10.895 1.108
16.6 10.891 1.094
16.618 10.879 1.0779999
16.629999 10.872 1.064
16.648001 10.861 1.048
16.652 10.858 1.035
16.65 10.859 1.023
16.674 10.844 1.007
16.700001 10.828 0.991
16.701 10.827 0.97799999
16.724001 10.813 0.963
16.728001 10.81 0.94999999
16.729 10.809 0.93699998
16.733 10.807 0.92400002
16.736 10.804 0.912
16.743 10.8 0.898
16.746 10.798 0.88599998
16.74 10.8 0.87400001
16.739 10.801 0.86199999
16.731001 10.805 0.85100001
16.747 10.795 0.83700001
16.743999 10.796 0.82499999
16.742001 10.797 0.81300002
16.747999 10.793 0.80000001
16.726999 10.805 0.79000002
16.733999 10.8 0.77700001
16.733 10.8 0.76499999
16.728001 10.803 0.75300002
16.735001 10.798 0.74000001
16.743 10.793 0.727
16.695 10.821 0.72000003
16.641001 10.852 0.713
16.6 10.875 0.704
16.591 10.88 0.69199997
16.587 10.882 0.68000001
16.589001 10.88 0.66799998
16.593 10.877 0.65499997
16.583 10.883 0.64300001
16.599001 10.873 0.62900001
16.594 10.875 0.61699998
16.605 10.868 0.60399997
16.603001 10.869 0.59200001
16.584999 10.879 0.58099997
16.597 10.871 0.56699997
16.608 10.865 0.55400002
16.589001 10.875 0.54299998
16.6 10.868 0.52999997
16.603001 10.866 0.51700002
16.603001 10.866 0.505
16.593 10.871 0.493
16.608999 10.861 0.479
16.596001 10.868 0.46799999
16.599001 10.866 0.45500001
16.610001 10.859 0.442
16.596001 10.866 0.43000001
16.597 10.865 0.41800001
16.589001 10.87 0.40599999
16.594999 10.866 0.39300001
16.589001 10.869 0.38100001
16.594 10.865 0.36899999
16.59 10.867 0.35600001
16.598 10.862 0.34400001
16.589001 10.867 0.33199999
16.608999 10.855 0.31799999
16.608 10.855 0.30599999
16.594999 10.862 0.294
16.598 10.86 0.28200001
16.599001 10.859 0.26899999
16.601999 10.857 0.257
16.599001 10.858 0.244
16.584999 10.865 0.23199999
16.589001 10.862 0.22
16.596001 10.858 0.207
16.584999 10.864 0.19499999
16.584 10.864 0.183
16.608 10.85 0.17
16.599001 10.854 0.15800001
16.594999 10.856 0.146
16.598 10.854 0.133
16.589001 10.858 0.121
16.587 10.86 0.108
16.579 10.863 0.096000001
16.597 10.852 0.083999999
16.584 10.859 0.071000002
16.594 10.853 0.059
16.584999 10.858 0.046
16.593 10.853 0.034000002
16.586 10.857 0.022
16.622 10.939 2.993
16.611 10.946 2.984
16.606001 10.948 2.971
16.6 10.951 2.9590001
16.58 10.963 2.954
16.583 10.96 2.938
16.583 10.96 2.924
16.573999 10.964 2.9130001
16.577999 10.961 2.8970001
16.584999 10.956 2.8789999
16.580999 10.958 2.8670001
16.577 10.96 2.8540001
16.58 10.957 2.8380001
16.587999 10.952 2.8199999
16.572001 10.961 2.813
16.575001 10.958 2.7969999
16.583 10.953 2.78
16.591 10.948 2.7620001
16.579 10.955 2.753
16.583 10.952 2.737
16.582001 10.951 2.723
16.572001 10.957 2.7130001
16.59 10.945 2.691
16.582001 10.95 2.6800001
16.586 10.947 2.664
16.570999 10.955 2.6570001
16.59 10.944 2.635
16.59 10.943 2.6210001
16.594 10.94 2.605
16.586 10.944 2.5940001
16.59 10.941 2.5780001
16.586 10.943 2.566
16.586 10.942 2.552
16.586 10.942 2.5380001
16.577999 10.946 2.527
16.594999 10.936 2.507
16.579 10.945 2.4990001
16.579 10.944 2.4849999
16.583 10.941 2.4690001
16.596001 10.933 2.451
16.591999 10.934 2.438
16.589001 10.936 2.425
16.577 10.943 2.4159999
16.580999 10.939 2.401
16.577999 10.941 2.388
16.587 10.935 2.3710001
16.579 10.939 2.3599999
16.576 10.94 2.348
16.576 10.94 2.3340001
16.582001 10.936 2.3180001
16.594 10.928 2.3
16.586 10.932 2.289
16.594999 10.926 2.2720001
16.58 10.935 2.2639999
16.584999 10.931 2.2479999
16.586 10.93 2.2349999
16.594 10.925 2.2179999
16.598 10.922 2.2030001
16.584 10.93 2.194
16.575001 10.934 2.184
16.591999 10.924 2.164
16.584 10.928 2.1530001
16.577999 10.931 2.142
16.59 10.923 2.1240001
16.58 10.928 2.1140001
16.59 10.922 2.098
16.598 10.917 2.082
16.59 10.921 2.0710001
16.573999 10.93 2.062
16.591999 10.919 2.043
16.584999 10.922 2.0320001
16.582001 10.923 2.0190001
16.583 10.922 2.006
16.589001 10.918 1.9910001
16.582001 10.922 1.979
16.583 10.921 1.966
16.587 10.918 1.951
16.58 10.921 1.9400001
16.587 10.917 1.925
16.584 10.918 1.9119999
16.587999 10.915 1.898
16.584999 10.916 1.885
16.591 10.912 1.87
16.591999 10.911 1.857
16.593 10.91 1.8430001
16.587 10.913 1.832
16.577 10.919 1.821
16.584999 10.913 1.806
16.582001 10.915 1.794
16.587999 10.91 1.779
16.580999 10.914 1.768
16.591 10.907 1.751
16.593 10.906 1.738
16.598 10.903 1.724
16.596001 10.903 1.711
16.594 10.904 1.698
16.598 10.901 1.684
16.587 10.907 1.674
16.597 10.9 1.658
16.599001 10.899 1.645
16.584999 10.907 1.635
16.586 10.906 1.622
16.591999 10.902 1.608
16.597 10.898 1.5930001
16.594999 10.898 1.581
16.593 10.899 1.568
16.586 10.903 1.557
16.596001 10.897 1.5420001
16.584999 10.903 1.531
16.594999 10.896 1.516
16.593 10.897 1.5039999
16.59 10.898 1.4910001
16.598 10.893 1.477
16.591 10.896 1.465
16.589001 10.897 1.4529999
16.591 10.895 1.439
16.584 10.899 1.428
16.612 10.882 1.409
16.58 10.9 1.403
16.591 10.893 1.388
16.601999 10.886 1.373
16.584 10.897 1.364
16.589001 10.893 1.35
16.583 10.896 1.3380001
16.591 10.891 1.324
16.596001 10.887 1.3099999
16.580999 10.896 1.3
16.591999 10.889 1.285
16.598 10.884 1.271
16.591999 10.888 1.26
16.594 10.886 1.247
16.594 10.886 1.234
16.591 10.887 1.222
16.589001 10.888 1.209
16.6 10.881 1.1950001
16.598 10.881 1.182
16.587999 10.887 1.171
16.594 10.883 1.158
16.591999 10.883 1.145
16.59 10.884 1.133
16.587999 10.884 1.12
16.584 10.886 1.108
16.610001 10.87 1.092
16.608999 10.871 1.079
16.650999 10.845 1.0599999
16.649 10.846 1.048
16.665001 10.836 1.033
16.681999 10.826 1.018
16.677 10.828 1.006
16.704 10.812 0.99000001
16.712999 10.806 0.97600001
16.709999 10.807 0.96399999
16.716 10.803 0.95099998
16.726 10.797 0.93699998
16.716999 10.802 0.926
16.722 10.798 0.91299999
16.716 10.801 0.90200001
16.723 10.797 0.88800001
16.716999 10.8 0.87699997
16.705 10.806 0.866
16.715 10.8 0.852
16.716999 10.798 0.83999997
16.718 10.798 0.82800001
16.723 10.794 0.815
16.718 10.797 0.80299997
16.729 10.789 0.78899997
16.711 10.8 0.77899998
16.705999 10.802 0.76700002
16.709 10.8 0.755
16.679001 10.817 0.74599999
16.653 10.831 0.736
16.587999 10.869 0.73000002
16.591 10.867 0.71700001
16.598 10.862 0.704
16.591 10.866 0.69199997
16.589001 10.866 0.68000001
16.582001 10.87 0.66799998
16.598 10.86 0.65399998
16.584999 10.867 0.64300001
16.598 10.859 0.62900001
16.582001 10.868 0.61799997
16.586 10.865 0.60500002
16.594 10.86 0.59200001
16.597 10.858 0.57999998
16.584 10.865 0.56800002
16.603001 10.853 0.55400002
16.594 10.858 0.54299998
16.601 10.854 0.52999997
16.597 10.856 0.51800001
16.594999 10.856 0.505
16.604 10.851 0.49200001
16.594 10.856 0.47999999
16.59 10.858 0.46799999
16.593 10.856 0.456
16.583 10.86 0.44400001
16.58 10.862 0.43099999
16.598 10.851 0.41800001
16.599001 10.85 0.40599999
16.59 10.855 0.39399999
16.589001 10.854 0.38100001
16.586 10.856 0.36899999
16.593 10.851 0.35600001
16.591999 10.852 0.34400001
16.604 10.844 0.331
16.594 10.849 0.31900001
16.593 10.849 0.30700001
16.604 10.842 0.294
16.604 10.842 0.28200001
16.597 10.846 0.27000001
16.6 10.843 0.257
16.597 10.845 0.245
16.577999 10.855 0.233
16.612 10.835 0.22
16.577 10.854 0.208
16.580999 10.852 0.19599999
16.587 10.848 0.183
16.599001 10.84 0.171
16.594 10.843 0.15800001
16.589001 10.845 0.146
16.573 10.854 0.134
16.606001 10.835 0.121
16.589001 10.844 0.109
16.579 10.849 0.096000001
16.593 10.841 0.083999999
16.596001 10.838 0.071999997
16.593 10.84 0.059
16.594999 10.838 0.046999998
16.587 10.842 0.035
16.594 10.837 0.022
16.608 10.933 2.997
16.597 10.939 2.987
16.596001 10.939 2.973
16.594999 10.94 2.9590001
16.583 10.946 2.95
16.577 10.949 2.9389999
16.566 10.955 2.9289999
16.572001 10.951 2.9119999
16.572001 10.95 2.898
16.587 10.941 2.8759999
16.579 10.945 2.865
16.586 10.94 2.848
16.582001 10.942 2.835
16.582001 10.941 2.8210001
16.586 10.939 2.8050001
16.584999 10.938 2.7909999
16.577 10.943 2.78
16.577 10.942 2.766
16.593 10.932 2.7449999
16.580999 10.939 2.7360001
16.58 10.938 2.721
16.591999 10.931 2.7019999
16.58 10.937 2.6930001
16.587 10.932 2.6760001
16.576 10.939 2.6670001
16.587 10.931 2.648
16.591999 10.928 2.632
16.575001 10.937 2.6240001
16.576 10.936 2.6099999
16.58 10.934 2.595
16.58 10.933 2.5799999
16.572001 10.937 2.5699999
16.591999 10.925 2.5480001
16.58 10.931 2.5380001
16.593 10.923 2.5190001
16.576 10.932 2.5120001
16.586 10.926 2.494
16.580999 10.928 2.4820001
16.584999 10.925 2.467
16.577999 10.929 2.4560001
16.573999 10.931 2.4430001
16.587 10.923 2.425
16.584 10.924 2.4119999
16.584 10.923 2.398
16.593 10.918 2.381
16.577 10.927 2.3729999
16.594 10.915 2.3529999
16.582001 10.922 2.3440001
16.582001 10.921 2.3299999
16.587 10.918 2.3139999
16.591999 10.915 2.299
16.59 10.915 2.286
16.586 10.917 2.2739999
16.584999 10.917 2.26
16.579 10.92 2.2490001
16.576 10.921 2.2360001
16.584 10.916 2.22
16.589001 10.913 2.204
16.582001 10.916 2.1930001
16.594 10.909 2.1760001
16.594 10.908 2.1619999
16.594999 10.907 2.148
16.587 10.911 2.1370001
16.587999 10.91 2.1240001
16.593 10.906 2.108
16.59 10.908 2.096
16.591999 10.906 2.082
16.58 10.912 2.072
16.577 10.914 2.0599999
16.591999 10.904 2.0420001
16.587 10.907 2.03
16.589001 10.905 2.016
16.589001 10.905 2.003
16.594 10.901 1.988
16.579 10.909 1.979
16.591999 10.901 1.962
16.587 10.904 1.95
16.587 10.903 1.936
16.58 10.907 1.925
16.589001 10.901 1.909
16.591 10.899 1.896
16.594999 10.896 1.881
16.597 10.895 1.867
16.596001 10.895 1.854
16.587999 10.899 1.8430001
16.589001 10.898 1.83
16.583 10.901 1.818
16.584 10.9 1.8049999
16.598 10.891 1.788
16.586 10.898 1.778
16.587999 10.896 1.7640001
16.573 10.904 1.755
16.586 10.896 1.739
16.591999 10.892 1.724
16.584999 10.896 1.7130001
16.58 10.898 1.701
16.577 10.899 1.688
16.580999 10.896 1.674
16.589001 10.891 1.659
16.594 10.888 1.645
16.603001 10.882 1.63
16.589001 10.89 1.62
16.597 10.884 1.605
16.587999 10.889 1.594
16.582001 10.892 1.5829999
16.587 10.889 1.569
16.584 10.89 1.556
16.586 10.888 1.543
16.596001 10.882 1.528
16.576 10.893 1.5190001
16.591999 10.883 1.503
16.598 10.879 1.489
16.593 10.881 1.477
16.597 10.878 1.4630001
16.591 10.881 1.451
16.593 10.88 1.438
16.582001 10.885 1.428
16.598 10.876 1.411
16.599001 10.875 1.398
16.589001 10.88 1.387
16.58 10.885 1.377
16.594 10.876 1.3609999
16.597 10.874 1.348
16.598 10.873 1.334
16.601 10.87 1.321
16.580999 10.882 1.312
16.591999 10.875 1.2970001
16.573999 10.885 1.288
16.589001 10.876 1.272
16.587 10.876 1.26
16.584999 10.877 1.248
16.594999 10.871 1.233
16.584 10.877 1.222
16.603001 10.865 1.206
16.593 10.87 1.1950001
16.591 10.871 1.183
16.601999 10.864 1.168
16.587 10.872 1.158
16.591 10.87 1.145
16.587999 10.871 1.133
16.582001 10.874 1.1210001
16.591 10.868 1.107
16.610001 10.856 1.091
16.620001 10.85 1.077
16.629 10.844 1.063
16.634001 10.841 1.05
16.653 10.83 1.034
16.657 10.826 1.021
16.671 10.818 1.007
16.690001 10.806 0.991
16.688999 10.806 0.97899997
16.683001 10.809 0.96700001
16.690001 10.805 0.954
16.700001 10.798 0.94
16.695999 10.8 0.92900002
16.686001 10.806 0.91799998
16.693001 10.801 0.90399998
16.695 10.799 0.89200002
16.701 10.796 0.87900001
16.693001 10.799 0.86699998
16.698 10.796 0.85399997
16.684999 10.803 0.84299999
16.695 10.796 0.82999998
16.698 10.794 0.81699997
16.681999 10.803 0.80699998
16.681 10.803 0.79500002
16.68 10.803 0.78200001
16.643999 10.824 0.77399999
16.594 10.852 0.76700002
16.591999 10.853 0.75400001
16.594999 10.851 0.74199998
16.594 10.851 0.72899997
16.584 10.856 0.71799999
16.589001 10.853 0.70499998
16.603001 10.845 0.69099998
16.603001 10.844 0.67900002
16.589001 10.852 0.667
16.6 10.844 0.65399998
16.599001 10.845 0.64200002
16.582001 10.854 0.63099998
16.572001 10.859 0.61900002
16.577 10.856 0.60600001
16.601 10.842 0.59200001
16.601999 10.841 0.579
16.586 10.849 0.56800002
16.597 10.842 0.55500001
16.594999 10.843 0.542
16.584 10.849 0.53100002
16.597 10.841 0.51800001
16.606001 10.835 0.505
16.596001 10.84 0.493
16.597 10.84 0.47999999
16.604 10.835 0.46700001
16.584 10.846 0.456
16.587 10.844 0.44400001
16.594999 10.839 0.43099999
16.577 10.849 0.419
16.587999 10.842 0.40599999
16.587999 10.841 0.39399999
16.587 10.842 0.382
16.604 10.831 0.36899999
16.594 10.836 0.35699999
16.591 10.838 0.34400001
16.597 10.834 0.33199999
16.6 10.831 0.31900001
16.594999 10.834 0.30700001
16.598 10.832 0.29499999
16.594999 10.833 0.28200001
16.604 10.828 0.27000001
16.601999 10.828 0.257
16.603001 10.827 0.245
16.593 10.832 0.233
16.594 10.831 0.221
16.583 10.837 0.208
16.587999 10.834 0.19599999
16.587999 10.833 0.183
16.584 10.835 0.171
16.610001 10.819 0.15899999
16.584999 10.833 0.146
16.586 10.832 0.134
16.593 10.827 0.122
16.598 10.824 0.109
16.594999 10.826 0.097000003
16.594999 10.825 0.085000001
16.603001 10.82 0.071999997
16.598 10.823 0.059999999
16.576 10.835 0.046999998
16.570999 10.837 0.035
16.579 10.832 0.023
16.607 10.92 2.9949999
16.614 10.915 2.977
16.601999 10.921 2.9679999
16.589001 10.928 2.96
16.584 10.931 2.947
16.579 10.933 2.9349999
16.58 10.932 2.9200001
16.59 10.926 2.901
16.580999 10.93 2.891
16.573 10.934 2.8800001
16.584999 10.927 2.8599999
16.596001 10.919 2.8410001
16.587999 10.924 2.8299999
16.58 10.928 2.8199999
16.583 10.925 2.8039999
16.583 10.925 2.789
16.572001 10.931 2.78
16.583 10.924 2.7609999
16.577999 10.926 2.7490001
16.582001 10.923 2.733
16.586 10.92 2.717
16.573999 10.927 2.7079999
16.583 10.921 2.6900001
16.59 10.916 2.6730001
16.594 10.913 2.6570001
16.582001 10.92 2.648
16.589001 10.915 2.631
16.580999 10.919 2.6199999
16.573 10.924 2.609
16.570999 10.924 2.596
16.582001 10.917 2.5769999
16.582001 10.916 2.563
16.582001 10.916 2.55
16.577999 10.918 2.5369999
16.582001 10.915 2.5209999
16.566 10.924 2.5139999
16.587999 10.911 2.4920001
16.587999 10.91 2.4779999
16.587 10.91 2.464
16.589001 10.908 2.45
16.59 10.907 2.4349999
16.576 10.915 2.427
16.576 10.914 2.4130001
16.573999 10.915 2.4000001
16.582001 10.909 2.3829999
16.575001 10.913 2.372
16.587 10.905 2.3529999
16.587999 10.904 2.3399999
16.587999 10.903 2.326
16.589001 10.902 2.312
16.59 10.901 2.2980001
16.59 10.901 2.2839999
16.587999 10.902 2.2709999
16.579 10.906 2.2609999
16.587999 10.9 2.244
16.591999 10.897 2.2290001
16.573 10.908 2.2219999
16.601999 10.891 2.198
16.582001 10.902 2.1919999
16.587 10.898 2.1760001
16.584 10.9 2.164
16.584 10.899 2.1500001
16.601999 10.888 2.131
16.586 10.897 2.1229999
16.587 10.896 2.109
16.58 10.899 2.098
16.597 10.888 2.079
16.577999 10.899 2.0710001
16.587999 10.893 2.0550001
16.579 10.897 2.0439999
16.593 10.889 2.027
16.573 10.9 2.0190001
16.583 10.894 2.003
16.584999 10.892 1.989
16.589001 10.889 1.974
16.599001 10.882 1.9579999
16.589001 10.888 1.948
16.580999 10.892 1.937
16.579 10.893 1.924
16.58 10.892 1.911
16.589001 10.886 1.895
16.575001 10.894 1.885
16.591 10.884 1.868
16.58 10.89 1.857
16.59 10.883 1.842
16.594999 10.88 1.827
16.597 10.878 1.813
16.59 10.882 1.802
16.58 10.887 1.791
16.597 10.877 1.774
16.577999 10.887 1.766
16.58 10.886 1.752
16.597 10.875 1.734
16.586 10.881 1.724
16.591999 10.877 1.71
16.583 10.882 1.699
16.591 10.876 1.684
16.58 10.882 1.674
16.582001 10.881 1.66
16.587 10.877 1.646
16.584999 10.878 1.633
16.587999 10.876 1.619
16.580999 10.879 1.608
16.591 10.873 1.5930001
16.589001 10.873 1.58
16.584999 10.875 1.568
16.587 10.873 1.5549999
16.597 10.867 1.539
16.584999 10.874 1.529
16.594 10.868 1.5140001
16.586 10.872 1.503
16.597 10.865 1.488
16.601999 10.862 1.474
16.589001 10.869 1.464
16.584999 10.871 1.452
16.6 10.861 1.436
16.59 10.867 1.425
16.596001 10.863 1.411
16.59 10.865 1.399
16.601 10.859 1.3839999
16.59 10.865 1.374
16.587999 10.865 1.3609999
16.586 10.866 1.349
16.594999 10.86 1.334
16.601999 10.856 1.3200001
16.593 10.86 1.309
16.594 10.859 1.296
16.591999 10.86 1.284
16.594999 10.858 1.271
16.580999 10.865 1.26
16.586 10.862 1.247
16.580999 10.864 1.235
16.587 10.86 1.221
16.582001 10.863 1.209
16.596001 10.854 1.194
16.580999 10.862 1.184
16.597 10.853 1.169
16.582001 10.861 1.158
16.596001 10.852 1.143
16.599001 10.85 1.13
16.589001 10.855 1.119
16.6 10.848 1.105
16.608999 10.842 1.091
16.620001 10.835 1.076
16.638 10.824 1.061
16.646 10.819 1.0470001
16.657 10.812 1.033
16.657 10.812 1.021
16.667999 10.805 1.007
16.667 10.805 0.99400002
16.676001 10.799 0.98000002
16.679001 10.797 0.96799999
16.674999 10.799 0.95599997
16.67 10.802 0.94400001
16.663 10.805 0.93300003
16.663 10.804 0.92000002
16.67 10.8 0.90700001
16.673 10.798 0.89399999
16.667 10.801 0.88200003
16.679001 10.794 0.86900002
16.656 10.806 0.85900003
16.666 10.8 0.84600002
16.67 10.797 0.833
16.669001 10.797 0.81999999
16.659 10.802 0.80900002
16.618999 10.825 0.801
16.594 10.839 0.792
16.596001 10.838 0.77899998
16.587 10.842 0.76700002
16.586 10.842 0.755
16.589001 10.84 0.74199998
16.596001 10.835 0.72899997
16.593 10.837 0.71700001
16.596001 10.835 0.704
16.577 10.845 0.69300002
16.583 10.841 0.68000001
16.573999 10.846 0.66900003
16.580999 10.841 0.65600002
16.576 10.844 0.64300001
16.580999 10.84 0.63099998
16.583 10.839 0.61799997
16.59 10.834 0.60500002
16.582001 10.839 0.59299999
16.591999 10.832 0.57999998
16.6 10.827 0.56699997
16.591999 10.831 0.55500001
16.594 10.829 0.54299998
16.601 10.825 0.52999997
16.605 10.822 0.51700002
16.599001 10.825 0.505
16.596001 10.826 0.493
16.594999 10.827 0.48100001
16.59 10.829 0.46799999
16.565001 10.843 0.45699999
16.584999 10.831 0.44400001
16.587 10.829 0.43099999
16.601 10.821 0.41800001
16.59 10.826 0.40599999
16.586 10.828 0.39399999
16.580999 10.831 0.382
16.594 10.823 0.36899999
16.605 10.816 0.35600001
16.594999 10.821 0.34400001
16.604 10.815 0.33199999
16.598 10.819 0.31999999
16.593 10.821 0.30700001
16.586 10.824 0.29499999
16.593 10.82 0.28299999
16.587999 10.822 0.27000001
16.591999 10.82 0.25799999
16.589001 10.821 0.24600001
16.591 10.819 0.233
16.587999 10.82 0.221
16.591999 10.818 0.20900001
