ply
format ascii 1.0
comment PCL generated
element vertex 1997
property float x
property float y
property float z
element camera 0
property float view_px
property float view_py
property float view_pz
property float x_axisx
property float x_axisy
property float x_axisz
property float y_axisx
property float y_axisy
property float y_axisz
property float z_axisx
property float z_axisy
property float z_axisz
property float focal
property float scalex
property float scaley
property float centerx
property float centery
property int viewportx
property int viewporty
property float k1
property float k2
end_header
19.648001 10.885 2.6559999
19.648001 10.879 2.631
19.646999 10.878 2.608
19.645 10.887 2.586
19.645 10.879 2.562
19.643999 10.881 2.539
19.643 10.879 2.5150001
19.643999 10.871 2.4909999
19.643 10.87 2.467
19.641001 10.876 2.4449999
19.642 10.864 2.4200001
19.643 10.852 2.395
19.643 10.85 2.372
19.642 10.847 2.348
19.642 10.843 2.325
19.639999 10.845 2.302
19.642 10.83 2.277
19.636 10.859 2.2579999
19.632999 10.867 2.2360001
19.629999 10.88 2.2160001
19.629999 10.874 2.1919999
19.628 10.882 2.1700001
19.632 10.856 2.1429999
19.628 10.868 2.122
19.628 10.867 2.099
19.625999 10.87 2.076
19.625999 10.863 2.052
19.622999 10.875 2.0309999
19.622999 10.873 2.0079999
19.624001 10.861 1.984
19.621 10.869 1.962
19.618999 10.877 1.9400001
19.620001 10.866 1.916
19.621 10.854 1.891
19.615 10.885 1.872
19.618 10.864 1.847
19.618 10.856 1.823
19.615999 10.864 1.801
19.618 10.847 1.777
19.615999 10.854 1.755
19.614 10.856 1.732
19.611 10.868 1.711
19.612 10.856 1.687
19.608 10.873 1.666
19.608 10.87 1.643
19.608 10.863 1.619
19.607 10.865 1.597
19.606001 10.867 1.574
19.604 10.873 1.552
19.601999 10.876 1.53
19.603001 10.863 1.506
19.601999 10.865 1.483
19.601 10.867 1.461
19.6 10.865 1.438
19.598 10.87 1.416
19.597 10.871 1.393
19.597 10.865 1.37
19.598 10.857 1.347
19.59 10.892 1.327
19.594 10.87 1.303
19.591999 10.872 1.28
19.591999 10.869 1.257
19.591999 10.862 1.234
19.589001 10.875 1.212
19.587999 10.873 1.1900001
19.587999 10.869 1.1670001
19.589001 10.861 1.1440001
19.587 10.867 1.1210001
19.584999 10.868 1.099
19.584 10.868 1.076
19.586 10.856 1.053
19.587999 10.842 1.03
19.584 10.858 1.008
19.583 10.854 0.98500001
19.583 10.851 0.96200001
19.580999 10.856 0.94
19.576 10.879 0.91900003
19.58 10.853 0.89499998
19.577 10.864 0.87300003
19.579 10.845 0.85000002
19.577 10.851 0.82700002
19.577 10.846 0.80500001
19.576 10.848 0.78200001
19.575001 10.848 0.75999999
19.573999 10.849 0.73699999
19.575001 10.84 0.71399999
19.570999 10.855 0.69199997
19.57 10.851 0.67000002
19.57 10.846 0.64700001
19.566999 10.856 0.625
19.569 10.842 0.602
19.569 10.837 0.579
19.568001 10.837 0.55699998
19.565001 10.848 0.53500003
19.563999 10.848 0.51200002
19.563 10.848 0.49000001
19.562 10.849 0.46700001
19.559999 10.854 0.44499999
19.559999 10.849 0.42199999
19.558001 10.854 0.40000001
19.580999 10.735 0.37599999
19.556999 10.854 0.35499999
19.558001 10.844 0.33199999
19.559 10.834 0.31
19.556 10.844 0.287
19.556 10.839 0.26499999
19.554001 10.843 0.242
19.554001 10.838 0.22
19.555 10.828 0.198
19.552999 10.826 0.13
19.558001 10.796 0.108
19.559 10.782 0.086000003
19.561001 10.768 0.064000003
19.566 10.739 0.041999999
19.569 10.719 0.02
19.643 10.866 2.98
19.642 10.865 2.957
19.639999 10.87 2.934
19.639999 10.869 2.911
19.639999 10.859 2.885
19.639999 10.854 2.8610001
19.639 10.853 2.8369999
19.639 10.851 2.8139999
19.635 10.866 2.793
19.636999 10.849 2.767
19.632999 10.865 2.747
19.629999 10.874 2.7249999
19.628 10.883 2.7030001
19.629 10.872 2.678
19.625999 10.881 2.6570001
19.625 10.88 2.6329999
19.625 10.874 2.609
19.628 10.855 2.582
19.632999 10.825 2.5539999
19.636 10.8 2.526
19.639 10.783 2.5
19.639 10.776 2.4760001
19.639 10.768 2.4519999
19.639999 10.758 2.427
19.639999 10.756 2.404
19.639 10.757 2.381
19.636999 10.76 2.359
19.632999 10.775 2.3380001
19.632 10.777 2.316
19.625999 10.806 2.2969999
19.620001 10.828 2.2780001
19.618 10.836 2.256
19.610001 10.873 2.2390001
19.608999 10.87 2.2160001
19.608 10.872 2.1930001
19.605 10.882 2.1719999
19.606001 10.871 2.1470001
19.606001 10.869 2.1240001
19.606001 10.862 2.0999999
19.606001 10.859 2.076
19.604 10.863 2.0539999
19.603001 10.866 2.0320001
19.6 10.874 2.01
19.6 10.867 1.9859999
19.599001 10.87 1.9630001
19.599001 10.863 1.9400001
19.6 10.857 1.916
19.594 10.883 1.896
19.594 10.875 1.873
19.597 10.855 1.847
19.593 10.872 1.827
19.591999 10.869 1.803
19.596001 10.847 1.778
19.591999 10.859 1.757
19.587999 10.876 1.7359999
19.589001 10.869 1.712
19.591 10.852 1.688
19.59 10.854 1.665
19.586 10.866 1.6440001
19.584999 10.868 1.6210001
19.582001 10.875 1.599
19.582001 10.872 1.576
19.584999 10.851 1.551
19.583 10.857 1.529
19.577 10.883 1.5089999
19.577999 10.87 1.485
19.579 10.863 1.462
19.575001 10.879 1.441
19.576 10.865 1.4170001
19.576 10.864 1.3940001
19.573999 10.87 1.372
19.572001 10.871 1.349
19.575001 10.854 1.325
19.570999 10.866 1.303
19.568001 10.88 1.2819999
19.573 10.847 1.257
19.566 10.879 1.237
19.568001 10.862 1.2130001
19.565001 10.873 1.191
19.566999 10.86 1.1670001
19.566999 10.856 1.145
19.566 10.853 1.122
19.563999 10.859 1.1
19.566 10.846 1.076
19.568001 10.828 1.052
19.563 10.853 1.031
19.562 10.852 1.0089999
19.562 10.844 0.986
19.561001 10.846 0.963
19.558001 10.857 0.94099998
19.556 10.863 0.91900003
19.552 10.878 0.89700001
19.559 10.835 0.87300003
19.556 10.851 0.85100001
19.554001 10.854 0.829
19.552 10.857 0.80599999
19.551001 10.858 0.78399998
19.551001 10.854 0.76099998
19.549999 10.854 0.73900002
19.549 10.855 0.71600002
19.549999 10.846 0.69300002
19.548 10.851 0.671
19.548 10.847 0.648
19.546 10.852 0.62599999
19.545 10.853 0.60299999
19.546 10.842 0.58099997
19.542999 10.853 0.55800003
19.542999 10.849 0.53600001
19.542 10.849 0.51300001
19.542 10.844 0.491
19.540001 10.849 0.46799999
19.539 10.849 0.44600001
19.540001 10.84 0.42300001
19.540001 10.835 0.40099999
19.535999 10.85 0.37799999
19.535 10.85 0.35600001
19.535 10.845 0.333
19.535 10.84 0.31099999
19.532 10.849 0.28799999
19.533001 10.839 0.266
19.531 10.844 0.243
19.535 10.819 0.221
19.528 10.848 0.198
19.530001 10.833 0.176
19.532 10.814 0.131
19.532 10.81 0.109
19.535 10.79 0.086999997
19.539 10.765 0.064999998
19.541 10.752 0.043000001
19.546 10.718 0.021
19.622 10.855 2.98
19.622 10.851 2.9560001
19.618 10.867 2.9360001
19.621 10.849 2.908
19.618999 10.851 2.885
19.615 10.868 2.8659999
19.615999 10.857 2.8399999
19.617001 10.846 2.8150001
19.618 10.836 2.789
19.611 10.866 2.7720001
19.613001 10.851 2.7460001
19.611 10.859 2.724
19.606001 10.878 2.704
19.603001 10.887 2.6830001
19.629999 10.742 2.632
19.635 10.709 2.6029999
19.635 10.705 2.5799999
19.636 10.695 2.5550001
19.635 10.695 2.5320001
19.638 10.674 2.5050001
19.635 10.684 2.484
19.638 10.666 2.4579999
19.636 10.671 2.4360001
19.629999 10.695 2.418
19.622 10.732 2.401
19.621 10.736 2.3789999
19.620001 10.733 2.3559999
19.612 10.771 2.339
19.610001 10.778 2.3169999
19.604 10.802 2.2980001
19.601 10.808 2.276
19.591999 10.856 2.2609999
19.589001 10.864 2.2390001
19.587999 10.862 2.2160001
19.587999 10.856 2.1919999
19.584 10.873 2.1719999
19.583 10.876 2.1489999
19.584999 10.86 2.1240001
19.580999 10.873 2.1029999
19.580999 10.871 2.0799999
19.577 10.883 2.0580001
19.579 10.872 2.0339999
19.577999 10.87 2.0109999
19.577999 10.867 1.988
19.575001 10.875 1.966
19.575001 10.873 1.942
19.576 10.861 1.918
19.573999 10.864 1.896
19.572001 10.871 1.874
19.570999 10.869 1.851
19.569 10.876 1.829
19.569 10.874 1.806
19.569 10.867 1.7819999
19.569 10.86 1.758
19.566 10.872 1.737
19.568001 10.855 1.712
19.566 10.862 1.6900001
19.568001 10.845 1.666
19.565001 10.857 1.6440001
19.562 10.869 1.623
19.561001 10.87 1.6
19.559 10.875 1.5779999
19.562 10.855 1.553
19.556999 10.877 1.533
19.556999 10.868 1.5089999
19.559 10.856 1.485
19.555 10.868 1.464
19.556999 10.856 1.4400001
19.554001 10.867 1.418
19.552999 10.864 1.395
19.552999 10.862 1.372
19.552 10.863 1.35
19.551001 10.86 1.327
19.549999 10.862 1.304
19.549 10.863 1.2819999
19.549 10.855 1.2589999
19.547001 10.861 1.237
19.547001 10.858 1.214
19.545 10.864 1.192
19.541 10.879 1.17
19.544001 10.857 1.146
19.540001 10.873 1.124
19.541 10.865 1.101
19.544001 10.846 1.077
19.542999 10.843 1.0549999
19.539 10.858 1.033
19.538 10.859 1.01
19.538 10.856 0.98799998
19.537001 10.856 0.96499997
19.535999 10.857 0.94300002
19.535999 10.849 0.92000002
19.534 10.858 0.898
19.533001 10.856 0.875
19.530001 10.866 0.85299999
19.535999 10.833 0.829
19.534 10.838 0.80699998
19.531 10.848 0.78399998
19.531 10.842 0.76200002
19.527 10.86 0.74000001
19.528 10.851 0.71700001
19.525 10.859 0.69499999
19.525 10.85 0.67199999
19.521999 10.862 0.64999998
19.518999 10.872 0.62800002
19.521 10.857 0.60500002
19.514999 10.883 0.583
19.518 10.861 0.56
19.514999 10.874 0.537
19.518 10.854 0.514
19.514 10.87 0.49200001
19.518999 10.839 0.46900001
19.517 10.845 0.447
19.516001 10.843 0.42399999
19.511999 10.859 0.40200001
19.513 10.852 0.37900001
19.51 10.862 0.35699999
19.507999 10.865 0.33399999
19.511 10.848 0.31200001
19.511 10.842 0.289
19.486 10.963 0.26699999
19.485001 10.962 0.244
19.490999 10.93 0.222
19.49 10.928 0.199
19.495001 10.897 0.176
19.504999 10.836 0.132
19.509001 10.814 0.11
19.511 10.797 0.088
19.511999 10.79 0.064999998
19.52 10.742 0.044
19.523001 10.724 0.022
19.598 10.862 2.983
19.596001 10.871 2.9619999
19.594999 10.87 2.938
19.594999 10.865 2.914
19.596001 10.855 2.888
19.594 10.859 2.8659999
19.593 10.859 2.842
19.59 10.868 2.8210001
19.59 10.862 2.796
19.601999 10.795 2.76
19.629 10.652 2.7090001
19.629999 10.64 2.6830001
19.634001 10.615 2.6559999
19.634001 10.611 2.632
19.635 10.599 2.6070001
19.634001 10.598 2.5840001
19.632 10.604 2.563
19.632999 10.593 2.5380001
19.632 10.593 2.5150001
19.628 10.612 2.4960001
19.627001 10.61 2.473
19.620001 10.642 2.4560001
19.615999 10.658 2.4360001
19.613001 10.671 2.415
19.606001 10.701 2.398
19.598 10.737 2.381
19.594999 10.748 2.3599999
19.591 10.762 2.339
19.589001 10.769 2.3180001
19.580999 10.803 2.3
19.577999 10.816 2.279
19.569 10.854 2.2620001
19.565001 10.869 2.2420001
19.563 10.877 2.22
19.563999 10.866 2.1949999
19.562 10.874 2.1730001
19.561001 10.872 2.1500001
19.559 10.88 2.128
19.563999 10.849 2.1010001
19.559999 10.862 2.0799999
19.558001 10.869 2.0580001
19.555 10.877 2.036
19.558001 10.86 2.0109999
19.558001 10.853 1.987
19.555 10.866 1.966
19.552 10.874 1.944
19.552999 10.866 1.92
19.552 10.864 1.897
19.552999 10.853 1.873
19.549999 10.864 1.851
19.549 10.863 1.829
19.547001 10.869 1.806
19.548 10.858 1.7819999
19.546 10.861 1.76
19.544001 10.868 1.738
19.544001 10.865 1.715
19.544001 10.858 1.691
19.541 10.87 1.67
19.540001 10.867 1.647
19.542999 10.85 1.622
19.539 10.866 1.601
19.535 10.878 1.58
19.535999 10.871 1.556
19.538 10.853 1.5319999
19.534 10.87 1.511
19.531 10.881 1.489
19.533001 10.864 1.465
19.531 10.87 1.443
19.531 10.867 1.42
19.530001 10.864 1.397
19.530001 10.861 1.374
19.530001 10.858 1.351
19.530001 10.851 1.3279999
19.528999 10.852 1.3049999
19.527 10.859 1.283
19.524 10.865 1.261
19.521 10.876 1.239
19.521999 10.868 1.216
19.52 10.873 1.193
19.523001 10.852 1.169
19.521 10.858 1.147
19.524 10.839 1.123
19.52 10.855 1.102
19.516001 10.871 1.08
19.516001 10.863 1.057
19.516001 10.859 1.034
19.513 10.87 1.012
19.514 10.861 0.98900002
19.517 10.842 0.96600002
19.514 10.853 0.94400001
19.517 10.83 0.92000002
19.514 10.84 0.898
19.511999 10.846 0.87599999
19.511999 10.84 0.85299999
19.5 10.897 0.833
19.493999 10.921 0.81099999
19.504999 10.864 0.78600001
19.507 10.846 0.76300001
19.482 10.817 0.043000001
19.486 10.793 0.021
19.573999 10.867 2.9860001
19.573 10.87 2.9630001
19.572001 10.871 2.9400001
19.572001 10.866 2.9159999
19.625 10.584 2.8340001
19.628 10.563 2.8069999
19.629999 10.548 2.7809999
19.632 10.531 2.7550001
19.629 10.542 2.734
19.631001 10.529 2.7090001
19.632999 10.512 2.6830001
19.628 10.534 2.665
19.632999 10.503 2.6359999
19.632 10.504 2.6140001
19.629 10.512 2.5929999
19.627001 10.522 2.572
19.622 10.539 2.552
19.620001 10.546 2.5309999
19.612 10.581 2.5150001
19.607 10.604 2.4960001
19.601999 10.623 2.477
19.597 10.646 2.4579999
19.597 10.639 2.434
19.584999 10.696 2.421
19.582001 10.709 2.401
19.58 10.713 2.3789999
19.573 10.741 2.3599999
19.569 10.758 2.3399999
19.565001 10.773 2.3199999
19.558001 10.806 2.302
19.555 10.816 2.2809999
19.551001 10.833 2.2609999
19.542999 10.87 2.243
19.539 10.882 2.2219999
19.540001 10.871 2.198
19.540001 10.868 2.174
19.542 10.853 2.1489999
19.535999 10.879 2.1300001
19.537001 10.869 2.105
19.534 10.877 2.0840001
19.533001 10.879 2.0610001
19.532 10.877 2.0380001
19.534 10.864 2.013
19.532 10.868 1.9910001
19.531 10.868 1.9680001
19.532 10.858 1.944
19.531 10.857 1.921
19.528 10.869 1.899
19.527 10.871 1.877
19.525 10.875 1.854
19.525 10.871 1.831
19.525 10.86 1.807
19.52 10.882 1.7869999
19.52 10.879 1.7640001
19.518999 10.876 1.74
19.518999 10.874 1.717
19.517 10.877 1.6950001
19.518 10.867 1.671
19.517 10.868 1.648
19.516001 10.871 1.626
19.514999 10.867 1.603
19.513 10.874 1.581
19.513 10.871 1.558
19.513 10.866 1.534
19.514 10.854 1.511
19.514 10.852 1.488
19.51 10.868 1.466
19.511 10.857 1.443
19.504 10.884 1.4220001
19.506001 10.871 1.399
19.507 10.862 1.375
19.507999 10.85 1.351
19.507 10.851 1.329
19.497 10.859 1.126
19.497 10.856 1.103
19.496 10.857 1.081
19.497999 10.839 1.057
19.497 10.84 1.034
19.493 10.856 1.013
19.493 10.852 0.99000001
19.495001 10.838 0.96700001
19.488001 10.868 0.94599998
19.488001 10.86 0.92299998
19.490999 10.844 0.89899999
19.489 10.847 0.87699997
19.488001 10.848 0.85399997
19.486 10.853 0.83200002
19.482 10.868 0.81
19.466999 10.937 0.79000002
19.466999 10.933 0.76700002
19.624001 10.497 2.9089999
19.625 10.485 2.8840001
19.625 10.481 2.8599999
19.625 10.475 2.836
19.625 10.469 2.812
19.624001 10.472 2.79
19.624001 10.467 2.766
19.625999 10.453 2.7409999
19.628 10.436 2.7149999
19.627001 10.434 2.6919999
19.624001 10.444 2.6719999
19.622 10.451 2.6500001
19.618999 10.462 2.6300001
19.610001 10.501 2.615
19.608999 10.502 2.592
19.606001 10.513 2.572
19.596001 10.557 2.5569999
19.598 10.546 2.533
19.587999 10.591 2.5179999
19.59 10.578 2.493
19.577999 10.633 2.48
19.572001 10.656 2.4619999
19.573 10.65 2.438
19.562 10.697 2.4230001
19.559999 10.705 2.402
19.558001 10.71 2.3800001
19.549 10.748 2.3629999
19.545 10.767 2.3440001
19.542 10.776 2.322
19.537001 10.797 2.303
19.533001 10.813 2.2820001
19.525999 10.843 2.2639999
19.521999 10.855 2.243
19.518999 10.868 2.2219999
19.518999 10.862 2.198
19.516001 10.87 2.1760001
19.514999 10.868 2.1530001
19.514 10.871 2.1300001
19.513 10.869 2.1070001
19.514 10.86 2.0829999
19.507 10.889 2.0639999
19.511999 10.863 2.0369999
19.507999 10.878 2.017
19.507 10.876 1.993
19.509001 10.864 1.969
19.507 10.868 1.947
19.506001 10.867 1.924
19.504999 10.868 1.901
19.506001 10.857 1.876
19.503 10.869 1.855
19.5 10.879 1.834
19.499001 10.878 1.811
19.5 10.868 1.7869999
19.472 10.867 1.105
19.471001 10.862 1.082
19.472 10.854 1.059
19.471001 10.855 1.036
19.473 10.841 1.013
19.469999 10.852 0.991
19.471001 10.843 0.96799999
19.466 10.859 0.94599998
19.466 10.855 0.92400002
19.466999 10.845 0.90100002
19.464001 10.857 0.87900001
19.465 10.848 0.85600001
19.465 10.844 0.833
19.464001 10.845 0.81
19.461 10.855 0.78799999
19.447001 10.917 0.76800001
19.450001 10.899 0.745
19.624001 10.403 2.9809999
19.624001 10.396 2.957
19.625999 10.382 2.931
19.627001 10.374 2.9070001
19.624001 10.381 2.8859999
19.622 10.389 2.865
19.622 10.384 2.842
19.622 10.376 2.8169999
19.622 10.373 2.7939999
19.622999 10.363 2.77
19.622999 10.358 2.7460001
19.618 10.379 2.7279999
19.613001 10.398 2.7090001
19.608 10.42 2.691
19.606001 10.427 2.6700001
19.601 10.445 2.651
19.594999 10.473 2.6340001
19.59 10.492 2.615
19.584999 10.513 2.596
19.580999 10.527 2.576
19.58 10.53 2.5539999
19.575001 10.55 2.5350001
19.566999 10.582 2.5179999
19.563999 10.595 2.4979999
19.558001 10.618 2.4790001
19.552 10.646 2.4619999
19.552999 10.635 2.437
19.546 10.663 2.4189999
19.537001 10.705 2.404
19.534 10.714 2.382
19.527 10.745 2.3640001
19.527 10.744 2.3410001
19.518 10.781 2.325
19.518 10.779 2.3010001
19.500999 10.859 2.2909999
19.492001 10.898 2.2739999
19.450001 10.856 1.0829999
19.448999 10.854 1.0599999
19.448999 10.85 1.0369999
19.448 10.851 1.015
19.447001 10.853 0.99199998
19.448999 10.834 0.96899998
19.447001 10.84 0.94700003
19.445999 10.841 0.92400002
19.441999 10.856 0.90200001
19.441 10.857 0.88
19.443001 10.843 0.85699999
19.440001 10.854 0.83399999
19.440001 10.85 0.81199998
19.438 10.855 0.78899997
19.434999 10.861 0.76700002
19.431 10.878 0.745
19.412001 10.964 0.72500002
19.620001 10.316 2.9860001
19.620001 10.311 2.9630001
19.618999 10.314 2.941
19.620001 10.302 2.9159999
19.622 10.289 2.8900001
19.618 10.304 2.8710001
19.622 10.28 2.8440001
19.620001 10.282 2.822
19.615 10.305 2.8039999
19.610001 10.323 2.786
19.606001 10.341 2.767
19.603001 10.353 2.747
19.599001 10.365 2.727
19.591 10.404 2.7119999
19.587 10.417 2.6919999
19.584 10.423 2.671
19.58 10.442 2.652
19.573999 10.465 2.6340001
19.569 10.488 2.6159999
19.563 10.51 2.5969999
19.562 10.51 2.575
19.555 10.542 2.5580001
19.549 10.565 2.54
19.549 10.563 2.517
19.542999 10.586 2.4979999
19.537001 10.614 2.4809999
19.530001 10.642 2.4630001
19.525 10.66 2.4430001
19.523001 10.668 2.4219999
19.513 10.711 2.4059999
19.511999 10.712 2.3840001
19.507 10.733 2.3640001
19.497 10.777 2.349
19.474001 10.881 2.3199999
19.409 10.94 1.067
19.426001 10.851 1.039
19.429001 10.832 1.015
19.427 10.838 0.99299997
19.427999 10.825 0.96899998
19.42 10.863 0.949
19.423 10.841 0.92500001
19.422001 10.842 0.903
19.419001 10.852 0.88099998
19.421 10.839 0.85699999
19.423 10.825 0.83399999
19.416 10.853 0.81300002
19.415001 10.851 0.79000002
19.410999 10.866 0.76800001
19.415001 10.843 0.745
19.410999 10.858 0.72299999
19.396999 10.922 0.70200002
19.388 10.962 0.68099999
19.615999 10.226 2.9679999
19.614 10.233 2.947
19.617001 10.213 2.921
19.615999 10.213 2.898
19.612 10.229 2.8789999
19.607 10.246 2.8610001
19.603001 10.264 2.842
19.594999 10.299 2.8269999
19.594999 10.293 2.8039999
19.589001 10.316 2.786
19.584999 10.332 2.767
19.580999 10.348 2.7479999
19.573999 10.378 2.7309999
19.572001 10.385 2.71
19.563999 10.419 2.694
19.561001 10.428 2.674
19.556999 10.442 2.654
19.552 10.463 2.6359999
19.546 10.488 2.618
19.542 10.507 2.599
19.537001 10.525 2.579
19.535999 10.524 2.5569999
19.528 10.56 2.5409999
19.524 10.573 2.52
19.516001 10.611 2.5039999
19.513 10.619 2.483
19.51 10.628 2.4619999
19.506001 10.645 2.4419999
19.497 10.686 2.4260001
19.405001 10.835 1.016
19.402 10.848 0.995
19.400999 10.844 0.972
19.4 10.845 0.949
19.399 10.846 0.92699999
19.396999 10.852 0.90399998
19.396999 10.848 0.88200003
19.396 10.849 0.85900003
19.393 10.86 0.83700001
19.393999 10.849 0.81400001
19.395 10.837 0.79100001
19.393999 10.837 0.76800001
19.393999 10.833 0.74599999
19.392 10.841 0.72299999
19.393 10.829 0.69999999
19.375999 10.908 0.68000001
19.367001 10.946 0.65899998
19.610001 10.151 2.9760001
19.608999 10.15 2.9530001
19.606001 10.162 2.934
19.601 10.184 2.9159999
19.597 10.2 2.8970001
19.587 10.242 2.8840001
19.583 10.259 2.865
19.580999 10.263 2.8440001
19.577 10.276 2.8239999
19.573 10.296 2.806
19.568001 10.311 2.7869999
19.565001 10.325 2.767
19.559999 10.346 2.7490001
19.555 10.364 2.73
19.549999 10.385 2.7119999
19.547001 10.391 2.691
19.542 10.413 2.6730001
19.534 10.447 2.6570001
19.530001 10.465 2.638
19.527 10.474 2.6170001
19.518999 10.507 2.5999999
19.514999 10.525 2.5810001
19.509001 10.546 2.563
19.502001 10.575 2.5450001
19.504999 10.557 2.5190001
19.497 10.591 2.503
19.492001 10.612 2.484
19.378 10.852 0.99599999
19.378 10.845 0.97299999
19.378 10.841 0.94999999
19.375 10.852 0.92799997
19.375 10.848 0.90499997
19.372999 10.853 0.88300002
19.372999 10.849 0.86000001
19.372 10.845 0.838
19.374001 10.831 0.81400001
19.368999 10.852 0.79299998
19.374001 10.826 0.76899999
19.368999 10.843 0.74699998
19.367001 10.849 0.72500002
19.368 10.839 0.70200002
19.368 10.835 0.67900002
19.358999 10.872 0.65799999
19.344 10.942 0.63700002
19.597 10.112 2.9909999
19.59 10.143 2.9760001
19.586 10.157 2.957
19.584 10.164 2.9360001
19.579 10.184 2.918
19.575001 10.201 2.8989999
19.57 10.222 2.882
19.565001 10.238 2.8629999
19.559999 10.259 2.845
19.555 10.278 2.8269999
19.551001 10.296 2.8080001
19.545 10.319 2.79
19.540001 10.337 2.7720001
19.537001 10.351 2.7520001
19.534 10.359 2.7309999
19.527 10.388 2.714
19.525999 10.39 2.6919999
19.518999 10.419 2.6760001
19.51 10.457 2.661
19.509001 10.455 2.638
19.500999 10.494 2.622
19.499001 10.497 2.5999999
19.493 10.518 2.582
19.489 10.532 2.562
19.493 10.511 2.5350001
19.354 10.843 0.95200002
19.353001 10.842 0.92900002
19.353001 10.838 0.90600002
19.351999 10.839 0.884
19.351 10.84 0.861
19.346001 10.859 0.83899999
19.346001 10.856 0.81699997
19.348 10.842 0.79299998
19.349001 10.833 0.77100003
19.344 10.852 0.74900001
19.343 10.849 0.72600001
19.341 10.854 0.704
19.343 10.84 0.68099999
19.341999 10.841 0.65799999
19.339001 10.851 0.63599998
19.327999 10.898 0.61400002
19.32 10.93 0.59299999
19.572001 10.124 2.973
19.568001 10.138 2.954
19.566 10.144 2.9330001
19.558001 10.181 2.9189999
19.555 10.191 2.8989999
19.551001 10.205 2.8800001
19.542 10.241 2.865
19.540001 10.249 2.845
19.533001 10.275 2.8280001
19.528999 10.291 2.809
19.524 10.31 2.79
19.521 10.319 2.77
19.514999 10.346 2.753
19.51 10.364 2.734
19.507 10.373 2.714
19.500999 10.4 2.6960001
19.497 10.417 2.677
19.489 10.448 2.661
19.486 10.46 2.6400001
19.482 10.472 2.6199999
19.33 10.845 0.93000001
19.327 10.852 0.90799999
19.327999 10.844 0.88499999
19.326 10.85 0.86299998
19.323 10.859 0.84100002
19.325001 10.846 0.81699997
19.329 10.823 0.79400003
19.325001 10.838 0.77200001
19.320999 10.848 0.75
19.32 10.851 0.727
19.322001 10.835 0.704
19.320999 10.835 0.68199998
19.322001 10.826 0.65899998
19.32 10.831 0.63599998
19.318001 10.837 0.61400002
19.306999 10.882 0.59299999
19.290001 10.959 0.57200003
19.549999 10.128 2.9760001
19.545 10.146 2.9579999
19.541 10.16 2.9389999
19.535 10.185 2.9219999
19.530001 10.204 2.904
19.528999 10.203 2.881
19.525 10.217 2.862
19.516001 10.259 2.849
19.511 10.278 2.8299999
19.504999 10.301 2.813
19.499001 10.324 2.7950001
19.497 10.333 2.7750001
19.493 10.346 2.7550001
19.489 10.36 2.7349999
19.481001 10.393 2.7190001
19.474001 10.422 2.7019999
19.294001 10.9 0.912
19.306999 10.834 0.88599998
19.304001 10.844 0.86400002
19.301001 10.853 0.84200001
19.299 10.858 0.81900001
19.299999 10.847 0.796
19.299 10.848 0.773
19.299 10.844 0.75099999
19.294001 10.863 0.72899997
19.296 10.85 0.70599997
19.295 10.85 0.68300003
19.296 10.841 0.66000003
19.294001 10.846 0.63800001
19.295 10.837 0.61500001
19.292999 10.842 0.59299999
19.292 10.841 0.56999999
19.271999 10.928 0.54900002
19.271 10.931 0.52700001
19.533001 10.106 2.973
19.525 10.141 2.9590001
19.521999 10.151 2.9389999
19.518 10.165 2.9200001
19.513 10.185 2.902
19.507 10.208 2.8840001
19.502001 10.227 2.8659999
19.495001 10.255 2.8499999
19.493 10.259 2.8280001
19.487 10.287 2.812
19.481001 10.306 2.793
19.476999 10.322 2.7739999
19.476 10.323 2.7520001
19.278 10.857 0.866
19.283001 10.831 0.84200001
19.278999 10.845 0.81999999
19.280001 10.833 0.79699999
19.278999 10.833 0.77399999
19.275999 10.844 0.75199997
19.274 10.848 0.72899997
19.275 10.84 0.70700002
19.275999 10.831 0.68400002
19.271999 10.846 0.662
19.271999 10.841 0.639
19.271 10.839 0.616
19.274 10.823 0.59299999
19.266001 10.855 0.57099998
19.271999 10.823 0.54799998
19.257999 10.884 0.52700001
19.239 10.964 0.50599998
19.509001 10.118 2.9779999
19.504 10.138 2.96
19.499001 10.157 2.9419999
19.492001 10.185 2.9260001
19.489 10.195 2.9059999
19.483999 10.213 2.8870001
19.475 10.251 2.8729999
19.475 10.246 2.8499999
19.469 10.273 2.8329999
19.257 10.841 0.84299999
19.257999 10.832 0.81999999
19.254 10.849 0.79900002
19.253 10.846 0.77600002
19.254999 10.834 0.75300002
19.252001 10.843 0.73000002
19.250999 10.844 0.708
19.25 10.844 0.685
19.25 10.841 0.66299999
19.247 10.85 0.63999999
19.249001 10.837 0.61699998
19.247999 10.837 0.59500003
19.246 10.843 0.57200003
19.245001 10.843 0.55000001
19.245001 10.838 0.52700001
19.237 10.869 0.505
19.222 10.932 0.48300001
19.49 10.104 2.977
19.485001 10.126 2.9590001
19.48 10.142 2.941
19.472 10.175 2.9260001
19.469999 10.183 2.905
19.466999 10.19 2.8840001
19.229 10.855 0.80000001
19.233999 10.828 0.77600002
19.23 10.843 0.75400001
19.23 10.838 0.73100001
19.233 10.82 0.708
19.228001 10.84 0.68599999
19.226 10.845 0.66399997
19.226999 10.837 0.64099997
19.226999 10.832 0.61799997
19.223 10.846 0.59600002
19.229 10.811 0.57300001
19.222 10.841 0.551
19.225 10.824 0.528
19.223 10.829 0.505
19.218 10.847 0.48300001
19.202 10.912 0.461
19.188999 10.968 0.43900001
19.469 10.103 2.9779999
19.462 10.128 2.9619999
19.212 10.824 0.77700001
19.208 10.838 0.755
19.204 10.851 0.73299998
19.209 10.825 0.70999998
19.205999 10.835 0.68699998
19.204 10.84 0.66500002
19.205999 10.827 0.64200002
19.198 10.855 0.62
19.201 10.839 0.597
19.198999 10.845 0.57499999
19.202999 10.823 0.551
19.201 10.827 0.52899998
19.198999 10.829 0.50599998
19.198999 10.827 0.484
19.194 10.843 0.461
19.188 10.868 0.43900001
19.169001 10.947 0.417
19.181999 10.848 0.73400003
19.184999 10.828 0.71100003
19.186001 10.821 0.68800002
19.183001 10.83 0.66600001
19.184 10.822 0.64300001
19.184999 10.812 0.62
19.183001 10.818 0.59799999
19.174 10.85 0.57599998
19.176001 10.841 0.55299997
19.174 10.842 0.52999997
19.174 10.837 0.50800002
19.177 10.823 0.48500001
19.174999 10.827 0.46200001
19.174 10.824 0.44
19.167 10.853 0.417
19.146 10.941 0.396
19.155001 10.856 0.713
19.160999 10.825 0.68900001
19.159 10.828 0.667
19.156 10.84 0.64499998
19.156 10.836 0.62199998
19.153999 10.841 0.59899998
19.153999 10.836 0.57700002
19.155001 10.827 0.55400002
19.153 10.832 0.53100002
19.156 10.814 0.50800002
19.155001 10.814 0.486
19.15 10.833 0.463
19.15 10.828 0.44100001
19.146 10.842 0.41800001
19.148001 10.828 0.396
19.129 10.905 0.37400001
19.115 10.962 0.35100001
19.136 10.83 0.66799998
19.136 10.825 0.64499998
19.136999 10.815 0.62199998
19.132999 10.831 0.60000002
19.129 10.841 0.57800001
19.134001 10.818 0.55500001
19.129999 10.832 0.53200001
19.129 10.83 0.50999999
19.128 10.831 0.48699999
19.128 10.828 0.46399999
19.125999 10.833 0.442
19.125 10.833 0.419
19.124001 10.833 0.39700001
19.125999 10.819 0.37400001
19.117001 10.851 0.352
19.094999 10.944 0.329
19.112 10.829 0.64600003
19.112 10.826 0.62400001
19.115 10.807 0.60100001
19.110001 10.826 0.579
19.105 10.841 0.55599999
19.106001 10.832 0.53299999
19.107 10.826 0.51099998
19.101999 10.842 0.48800001
19.101999 10.837 0.46599999
19.101 10.837 0.44299999
19.107 10.808 0.41999999
19.1 10.832 0.398
19.101 10.828 0.375
19.096001 10.841 0.35299999
19.099001 10.827 0.33000001
19.073 10.935 0.30700001
19.073 10.93 0.285
19.089001 10.819 0.625
19.087 10.826 0.602
19.087 10.821 0.57999998
19.083 10.835 0.55699998
19.086 10.817 0.53399998
19.083 10.827 0.51200002
19.080999 10.832 0.48899999
19.077 10.842 0.46700001
19.073999 10.852 0.44400001
19.079 10.825 0.421
19.079 10.822 0.39899999
19.077 10.826 0.37599999
19.076 10.826 0.35299999
19.076 10.822 0.331
19.073999 10.827 0.308
19.058001 10.893 0.28600001
19.033001 10.995 0.26300001
19.063999 10.821 0.58099997
19.063 10.82 0.55800003
19.059999 10.829 0.53600001
19.056 10.841 0.51300001
19.056 10.836 0.49000001
19.058001 10.827 0.46799999
19.056999 10.827 0.44499999
19.058001 10.812 0.42199999
19.048 10.853 0.40000001
19.054001 10.822 0.377
19.056 10.811 0.354
19.051001 10.827 0.33199999
19.052999 10.817 0.30899999
19.049999 10.825 0.287
19.046 10.836 0.264
19.021 10.937 0.241
19.01 10.982 0.21799999
19.039 10.824 0.55900002
19.039 10.821 0.537
19.038 10.82 0.514
19.034 10.831 0.491
19.032 10.836 0.46900001
19.035 10.822 0.44600001
19.032 10.827 0.42300001
19.033001 10.822 0.40099999
19.030001 10.827 0.37799999
19.033001 10.812 0.35499999
19.032 10.812 0.333
19.032 10.807 0.31
19.028 10.821 0.28799999
19.027 10.821 0.26499999
19.024 10.829 0.242
19.003 10.912 0.219
19.016001 10.818 0.53799999
19.014 10.821 0.51499999
19.011999 10.825 0.49200001
19.011 10.826 0.47
19.009001 10.831 0.447
19.006001 10.841 0.42500001
19.011999 10.812 0.40200001
19.004 10.841 0.37900001
19.009001 10.815 0.35600001
19.004999 10.826 0.33399999
19.004999 10.825 0.31099999
19.004999 10.821 0.289
19.004999 10.816 0.266
19.002001 10.825 0.243
18.997 10.84 0.221
18.987 10.835 0.49399999
18.986 10.834 0.47099999
18.987 10.826 0.44800001
18.985001 10.829 0.426
18.983999 10.831 0.403
18.985001 10.821 0.38
18.982 10.83 0.35800001
18.985001 10.814 0.33500001
18.98 10.829 0.31200001
18.98 10.825 0.28999999
18.979 10.825 0.26699999
18.976 10.834 0.244
18.976999 10.829 0.222
18.952999 10.914 0.153
18.945999 10.938 0.13
18.962999 10.834 0.472
18.962999 10.83 0.449
18.965 10.819 0.426
18.964001 10.821 0.40400001
18.965 10.811 0.38100001
18.962 10.821 0.359
18.961 10.82 0.336
18.959999 10.82 0.31299999
18.959999 10.813 0.29100001
18.959 10.814 0.26800001
18.959 10.81 0.245
18.957001 10.815 0.223
18.951 10.828 0.155
18.933001 10.899 0.131
18.924999 10.926 0.108
18.940001 10.825 0.428
18.938999 10.825 0.405
18.938 10.825 0.382
18.937 10.824 0.36000001
18.934999 10.828 0.33700001
18.938 10.815 0.31400001
18.937 10.815 0.292
18.931999 10.828 0.26899999
18.929001 10.838 0.24600001
18.931999 10.824 0.22400001
18.931 10.813 0.156
18.929001 10.817 0.133
18.92 10.85 0.11
18.899 10.929 0.086000003
18.917 10.821 0.40599999
18.916 10.819 0.38299999
18.917999 10.809 0.361
18.917 10.81 0.338
18.916 10.81 0.315
18.913 10.814 0.29300001
18.91 10.823 0.27000001
18.913 10.809 0.24699999
18.91 10.817 0.22499999
18.906 10.821 0.15700001
18.906 10.817 0.134
18.903 10.825 0.111
18.903 10.82 0.088
18.884001 10.896 0.064999998
18.886999 10.879 0.041999999
18.896999 10.803 0.384
18.893 10.818 0.36199999
18.892 10.818 0.33899999
18.891001 10.818 0.31600001
18.888 10.826 0.294
18.889999 10.814 0.271
18.889999 10.809 0.248
18.882999 10.834 0.22499999
18.885 10.815 0.18000001
18.882999 10.821 0.15700001
18.881001 10.825 0.13500001
18.882999 10.815 0.112
18.878 10.828 0.089000002
18.881001 10.814 0.067000002
18.871 10.849 0.043000001
18.851999 10.92 0.018999999
18.867001 10.822 0.34
18.865999 10.822 0.317
18.867001 10.817 0.29499999
18.865999 10.812 0.27200001
18.864 10.816 0.249
18.858 10.838 0.226
18.863001 10.811 0.18099999
18.861 10.815 0.15800001
18.858 10.82 0.13600001
18.858 10.819 0.113
18.858999 10.809 0.090000004
18.860001 10.804 0.068000004
18.851 10.832 0.045000002
18.855 10.812 0.022
18.841999 10.825 0.31799999
18.848 10.798 0.296
18.844999 10.807 0.273
18.844999 10.802 0.25
18.84 10.81 0.182
18.84 10.805 0.15899999
18.836 10.819 0.13699999
18.836 10.814 0.114
18.833 10.823 0.090999998
18.834999 10.812 0.068999998
18.830999 10.821 0.046
18.829 10.826 0.023
18.823 10.806 0.29699999
18.819 10.816 0.27399999
18.819 10.81 0.25099999
18.819 10.8 0.183
18.816 10.809 0.16
18.816999 10.799 0.138
18.809999 10.825 0.115
18.811001 10.817 0.092
18.811001 10.812 0.07
18.813999 10.797 0.046999998
18.811001 10.806 0.024
18.794001 10.816 0.252
18.790001 10.823 0.184
18.792999 10.808 0.161
18.792 10.808 0.139
18.790001 10.812 0.116
18.789 10.812 0.093000002
18.788 10.811 0.07
18.787001 10.811 0.048
18.785 10.815 0.025
18.768 10.817 0.185
18.768 10.811 0.162
18.771 10.797 0.14
18.767 10.806 0.117
18.767 10.805 0.093999997
18.764 10.81 0.071000002
18.761 10.817 0.048999999
18.764 10.804 0.026000001
18.745001 10.811 0.186
18.743999 10.81 0.163
18.743 10.811 0.141
18.742001 10.811 0.118
18.743 10.805 0.094999999
18.74 10.812 0.071999997
18.740999 10.804 0.050000001
18.732 10.837 0.026000001
18.719999 10.816 0.164
18.721001 10.81 0.142
18.721001 10.805 0.119
18.716 10.819 0.096000001
18.715 10.818 0.072999999
18.716 10.813 0.050000001
18.712999 10.822 0.028000001
18.698 10.806 0.142
18.695 10.814 0.12
18.693001 10.818 0.097000003
18.695 10.808 0.074000001
18.693001 10.812 0.050999999
18.694 10.802 0.028999999
18.672001 10.808 0.097999997
18.673 10.802 0.075000003
18.672001 10.801 0.052000001
18.663 10.83 0.028999999
18.669001 10.805 0.0070000002
18.643999 10.82 0.075999998
18.648001 10.8 0.052999999
18.649 10.795 0.030999999
18.643999 10.809 0.0080000004
18.621 10.812 0.030999999
18.621 10.808 0.0089999996
18.597 10.81 0.0089999996
20.48 10.868 0.25099999
20.395 10.869 0.37099999
20.408001 10.875 0.331
20.403999 10.873 0.29100001
20.386999 10.864 0.25
20.382999 10.862 0.20999999
20.299 10.863 0.49000001
20.306999 10.868 0.44999999
20.299999 10.864 0.41
20.306999 10.867 0.37
20.280001 10.853 0.329
20.285999 10.856 0.289
20.278 10.851 0.249
20.323999 10.876 0.20900001
20.346001 10.888 0.169
20.364 10.897 0.12899999
20.226999 10.872 0.56900001
20.226999 10.872 0.52899998
20.209999 10.863 0.48899999
20.209999 10.862 0.449
20.229 10.872 0.40900001
20.202 10.858 0.368
20.212 10.863 0.329
20.257 10.887 0.289
20.275 10.897 0.249
20.304001 10.912 0.20900001
20.332001 10.927 0.17
20.358 10.941 0.12899999
20.393 10.96 0.089000002
20.124001 10.862 0.68699998
20.146 10.874 0.64700001
20.129999 10.865 0.60699999
20.125999 10.862 0.56699997
20.134001 10.867 0.52700001
20.125999 10.862 0.48699999
20.129999 10.864 0.447
20.143999 10.872 0.40799999
19.686001 10.625 0.359
20.215 10.91 0.329
20.247 10.927 0.289
20.267 10.938 0.249
20.299 10.955 0.20999999
20.320999 10.967 0.17
20.34 10.977 0.12899999
20.392 11.005 0.089000002
20.431 11.026 0.048999999
19.487 10.567 2.767
20.042999 10.864 0.60500002
20.032 10.858 0.565
20.054001 10.87 0.52600002
20.073999 10.881 0.486
20.110001 10.9 0.447
19.643999 10.648 0.398
19.645 10.648 0.359
20.201 10.949 0.329
20.240999 10.971 0.28999999
20.257 10.98 0.25
20.288 10.996 0.20999999
20.326 11.017 0.17
19.489 10.612 2.7309999
19.504999 10.621 2.694
20.049 10.913 0.52600002
20.083 10.931 0.48699999
20.108 10.945 0.44800001
20.146999 10.966 0.40900001
19.625 10.682 0.359
19.639999 10.689 0.31999999
20.219 11.005 0.28999999
19.666 10.703 0.0080000004
19.497999 10.661 2.6949999
19.507999 10.666 2.6570001
19.516001 10.67 2.619
20.125999 11 0.40900001
19.638 10.733 0.36000001
19.615 10.72 0.31999999
19.648001 10.738 0.046999998
19.603001 10.713 0.0080000004
19.49 10.7 2.6570001
19.516001 10.715 2.6210001
19.493999 10.702 2.579
19.483999 10.697 2.539
19.771 10.851 0.28400001
19.77 10.85 0.244
19.771 10.85 0.205
19.754999 10.841 0.16599999
19.761999 10.845 0.126
19.663 10.79 0.086999997
19.573999 10.742 0.046999998
19.532 10.719 0.0080000004
19.714001 10.87 2.97
19.709 10.867 2.9289999
19.726 10.877 2.892
19.726 10.876 2.852
19.76 10.895 2.8169999
19.745001 10.887 2.7750001
19.733999 10.881 2.733
19.750999 10.89 2.6949999
19.75 10.889 2.655
19.497 10.75 2.582
19.509001 10.756 2.5439999
19.507 10.755 2.5050001
19.52 10.762 2.467
19.695999 10.855 0.16500001
19.648001 10.828 0.126
19.570999 10.785 0.086000003
19.531 10.764 0.046999998
19.517 10.755 0.0080000004
19.642 10.875 2.9619999
19.632999 10.87 2.9200001
19.625999 10.866 2.8800001
19.642 10.875 2.842
19.649 10.878 2.803
19.608999 10.857 2.7579999
19.628 10.867 2.721
19.653 10.88 2.6849999
19.667999 10.889 2.6470001
19.641001 10.874 2.6040001
19.49 10.79 2.5439999
19.502001 10.797 2.507
19.51 10.801 2.4679999
19.521999 10.808 2.4300001
19.514 10.803 2.3900001
19.528 10.811 2.352
19.504 10.793 0.046999998
19.504 10.793 0.0080000004
19.542 10.865 2.9890001
19.546 10.867 2.95
19.552999 10.87 2.911
19.552 10.87 2.872
19.570999 10.88 2.835
19.593 10.892 2.7980001
19.570999 10.88 2.7550001
19.582001 10.886 2.717
19.603001 10.898 2.681
19.58 10.885 2.638
19.579 10.884 2.598
19.566999 10.877 2.5569999
19.513 10.847 2.51
19.513 10.847 2.471
19.506001 10.843 2.431
19.511999 10.846 2.392
19.531 10.857 2.355
19.52 10.851 2.3139999
19.528 10.855 2.276
19.525 10.899 2.9890001
19.521999 10.897 2.9489999
19.527 10.899 2.9100001
19.507 10.888 2.868
19.516001 10.893 2.829
19.514 10.892 2.79
19.523001 10.897 2.7509999
19.504999 10.887 2.7090001
19.517 10.893 2.671
19.518 10.894 2.632
19.517 10.893 2.592
19.528999 10.9 2.5539999
19.507999 10.888 2.5120001
19.507 10.888 2.473
19.507 10.887 2.4330001
19.514999 10.892 2.395
19.534 10.902 2.358
19.530001 10.9 2.3180001
19.516001 10.893 2.277
19.537001 10.905 2.24
19.518999 10.895 2.198
19.48 10.919 2.9849999
19.511999 10.937 2.951
19.511 10.937 2.911
19.511999 10.937 2.8710001
19.517 10.94 2.832
19.511999 10.937 2.7920001
19.499001 10.929 2.7509999
19.511 10.936 2.7130001
19.52 10.941 2.674
19.52 10.941 2.635
19.506001 10.933 2.5929999
19.532 10.947 2.5569999
19.514999 10.938 2.516
19.518999 10.94 2.477
19.521999 10.941 2.437
19.517 10.939 2.3970001
19.518999 10.94 2.358
19.493999 10.925 2.316
19.518999 10.94 2.279
19.523001 10.942 2.24
19.530001 10.946 2.2019999
19.533001 10.947 2.1630001
19.525 10.942 2.122
19.528 10.944 2.0829999
19.479 10.963 2.9879999
19.507999 10.979 2.9530001
19.507999 10.979 2.9130001
19.509001 10.979 2.8740001
19.525999 10.988 2.836
19.521999 10.986 2.796
19.518 10.984 2.756
19.506001 10.977 2.7149999
19.511 10.979 2.6760001
19.507999 10.978 2.6359999
19.527 10.988 2.599
19.500999 10.974 2.556
19.509001 10.978 2.517
19.525 10.987 2.48
19.516001 10.982 2.4389999
19.517 10.983 2.4000001
19.521 10.984 2.3610001
19.514999 10.981 2.3199999
19.516001 10.982 2.2809999
19.546 10.999 2.2449999
19.52 10.984 2.2030001
19.535999 10.992 2.165
19.516001 10.981 2.1229999
19.540001 10.994 2.086
19.542999 10.996 2.0469999
19.524 10.985 2.006
19.524 10.985 1.967
19.517 11.028 2.957
19.523001 11.032 2.918
19.511999 11.025 2.8770001
19.527 11.034 2.839
19.504 11.021 2.796
19.527 11.034 2.76
19.511999 11.025 2.7179999
19.507 11.022 2.678
19.521 11.03 2.6400001
19.516001 11.027 2.5999999
19.511 11.024 2.5599999
19.525999 11.032 2.5220001
19.528 11.034 2.4820001
19.552 11.047 2.4460001
19.511 11.024 2.401
19.513 11.025 2.362
19.518 11.027 2.323
19.490999 11.012 2.28
19.511 11.023 2.243
19.518 11.028 2.2049999
19.518 11.027 2.165
19.499001 11.016 2.1240001
19.514999 11.026 2.086
19.506001 11.02 2.0450001
19.51 11.023 2.007
19.516001 11.026 1.9680001
19.523001 11.03 1.929
19.513 11.024 1.8890001
19.518 11.074 2.96
19.492001 11.059 2.9170001
19.511999 11.071 2.8800001
19.511 11.07 2.8399999
19.517 11.073 2.8010001
19.509001 11.068 2.76
19.514999 11.072 2.721
19.502001 11.064 2.6800001
19.506001 11.066 2.641
19.531 11.08 2.6040001
19.52 11.074 2.563
19.511 11.069 2.5220001
19.516001 11.072 2.483
19.517 11.072 2.444
19.513 11.07 2.404
19.497999 11.061 2.3629999
19.497999 11.061 2.323
19.518 11.073 2.286
19.509001 11.067 2.2449999
19.507999 11.067 2.2060001
19.511 11.068 2.1659999
19.51 11.068 2.1270001
19.502001 11.063 2.0869999
19.511 11.068 2.0480001
19.524 11.075 2.01
19.531 11.079 1.971
19.517 11.071 1.9299999
19.518 11.072 1.891
19.528999 11.078 1.853
19.528 11.077 1.813
19.646999 11.192 2.7420001
19.587999 11.158 2.694
19.527 11.124 2.6459999
19.521 11.12 2.6059999
19.517 11.118 2.5650001
19.504 11.11 2.5239999
19.502001 11.109 2.484
19.511999 11.115 2.4460001
19.513 11.115 2.4059999
19.509001 11.113 2.3659999
19.500999 11.108 2.326
19.497999 11.106 2.286
19.513 11.114 2.2479999
19.507999 11.111 2.2079999
19.524 11.121 2.1700001
19.645 11.237 2.825
19.580999 11.2 2.776
19.534 11.173 2.7290001
19.506001 11.157 2.6860001
19.518 11.164 2.648
19.518999 11.164 2.608
19.493999 11.15 2.5650001
19.504 11.155 2.527
19.490999 11.147 2.4849999
19.504 11.155 2.447
19.507 11.157 2.408
19.499001 11.152 2.3670001
19.493999 11.149 2.3269999
19.514999 11.161 2.29
19.548 11.18 2.2539999
19.667999 11.248 1.671
19.621 11.269 2.905
19.57 11.239 2.8570001
19.514 11.207 2.809
19.511999 11.206 2.7690001
19.518999 11.21 2.73
19.497 11.197 2.687
19.497999 11.198 2.648
19.521 11.211 2.6110001
19.507999 11.203 2.569
19.496 11.196 2.5280001
19.502001 11.199 2.4890001
19.511999 11.205 2.451
19.509001 11.203 2.411
19.531 11.216 2.3740001
19.546 11.225 2.336
19.679001 11.3 1.673
19.628 11.271 1.6289999
19.65 11.283 1.592
19.6 11.304 2.9849999
19.548 11.273 2.937
19.511 11.252 2.891
19.528999 11.262 2.8540001
19.521999 11.258 2.813
19.504999 11.248 2.7709999
19.507 11.249 2.7309999
19.500999 11.246 2.6900001
19.502001 11.246 2.651
19.506001 11.249 2.612
19.513 11.252 2.573
19.497999 11.243 2.5309999
19.517 11.255 2.494
19.541 11.268 2.457
19.683001 11.348 1.675
19.642 11.325 1.632
19.643 11.325 1.5930001
19.656 11.332 1.554
19.711 11.364 1.518
19.504 11.294 2.973
19.509001 11.296 2.934
19.511 11.297 2.8940001
19.49 11.285 2.8510001
19.504999 11.293 2.813
19.518 11.301 2.7750001
19.509001 11.296 2.734
19.507999 11.295 2.694
19.5 11.29 2.6530001
19.51 11.296 2.615
19.507999 11.295 2.575
19.559 11.324 2.5409999
19.705999 11.408 1.679
19.629 11.364 1.633
19.641001 11.371 1.594
19.657 11.38 1.556
19.716 11.414 1.52
19.497999 11.336 2.9749999
19.516001 11.346 2.938
19.523001 11.35 2.8989999
19.495001 11.334 2.855
19.495001 11.333 2.8150001
19.5 11.336 2.7750001
19.517 11.346 2.7379999
19.495001 11.333 2.6949999
19.511999 11.344 2.6570001
19.532 11.355 2.6199999
19.666 11.431 1.677
19.636999 11.414 1.635
19.646 11.419 1.596
19.636999 11.414 1.556
19.705 11.454 1.521
19.499001 11.382 2.9779999
19.503 11.384 2.9389999
19.5 11.382 2.898
19.507 11.386 2.859
19.502001 11.383 2.819
19.496 11.379 2.7780001
19.533001 11.401 2.743
19.648001 11.465 1.638
19.65 11.466 1.598
19.646999 11.465 1.558
19.677 11.482 1.52
19.493 11.424 2.98
19.496 11.425 2.941
19.514999 11.437 2.904
19.482 11.417 2.859
19.509001 11.433 2.822
19.65 11.512 1.6390001
19.65 11.513 1.6
19.643999 11.509 1.559
19.677999 11.528 1.522
19.511 11.479 2.9860001
19.504 11.475 2.9449999
19.535999 11.493 2.9100001
19.466999 10.136 2.9820001
19.606001 10.169 2.9319999
19.48 10.204 2.9809999
19.489 10.203 2.9189999
19.598 10.227 2.8659999
19.489 10.271 2.98
19.466 10.261 2.915
19.485001 10.262 2.8540001
19.659 10.304 2.806
19.483999 10.335 2.977
19.473 10.329 2.9130001
19.483999 10.328 2.852
19.49 10.325 2.789
19.631001 10.359 2.7379999
19.497999 10.405 2.9760001
19.466 10.393 2.911
19.478001 10.392 2.849
19.483 10.39 2.7869999
19.5 10.39 2.7249999
19.648001 10.426 2.674
19.495001 10.463 2.911
19.500999 10.461 2.849
19.479 10.451 2.7839999
19.493999 10.452 2.7219999
19.509001 10.454 2.661
19.488001 10.524 2.845
19.490999 10.521 2.783
19.482 10.515 2.7190001
19.487 10.512 2.6570001
19.507 10.514 2.596
19.575001 10.528 2.5380001
19.476 10.581 2.779
19.490999 10.582 2.7179999
19.469999 10.572 2.6530001
19.5 10.576 2.5929999
19.517 10.577 2.5309999
19.507 10.651 2.717
19.485001 10.641 2.652
19.503 10.642 2.5910001
19.489 10.634 2.527
19.525999 10.641 2.467
19.500999 10.71 2.651
19.497999 10.706 2.5880001
19.500999 10.702 2.5250001
19.497999 10.698 2.4619999
19.514999 10.699 2.401
19.780001 10.871 2.9890001
19.528999 10.779 2.5880001
19.496 10.766 2.523
19.493 10.761 2.46
19.518 10.764 2.3989999
19.572001 10.775 2.339
19.562 10.877 2.967
19.579 10.878 2.9059999
19.59 10.878 2.8440001
19.587 10.873 2.78
19.621 10.879 2.72
19.688 10.893 2.6619999
19.702 10.893 2.5999999
19.502001 10.834 2.5209999
19.492001 10.827 2.457
19.499001 10.925 2.96
19.496 10.92 2.8959999
19.5 10.917 2.8340001
19.504999 10.915 2.7709999
19.502001 10.91 2.7079999
19.601999 10.78 0.074000001
19.496 10.989 2.9579999
19.495001 10.985 2.8940001
19.528 10.99 2.8340001
19.594999 10.855 0.25799999
19.594 10.851 0.19599999
19.539 10.917 0.442
19.534 10.912 0.38
19.509001 10.901 0.317
19.124001 10.878 0.61799997
19.049 10.853 0.55500001
19.006001 10.837 0.49200001
19.014 10.836 0.43099999
19.024 10.835 0.36899999
19.395 11.035 0.87099999
19.264999 10.994 0.80500001
19.212 10.975 0.741
19.143 10.952 0.67799997
19.101 10.936 0.61500001
19.051001 10.918 0.55199999
19.002001 10.9 0.48899999
19.129 11.008 0.61199999
19.07 10.988 0.54900002
19.597 10.121 2.973
19.486 10.138 2.9649999
19.614 10.197 2.911
19.481001 10.207 2.9660001
19.482 10.206 2.901
19.603001 10.262 2.846
19.485001 10.281 2.967
19.466999 10.271 2.901
19.49 10.28 2.8380001
19.566 10.315 2.779
19.483999 10.353 2.9679999
19.475 10.348 2.902
19.48 10.348 2.8380001
19.493999 10.353 2.7739999
19.561001 10.384 2.714
19.465 10.414 2.9030001
19.487 10.423 2.839
19.488001 10.422 2.7750001
19.483999 10.419 2.7090001
19.573 10.46 2.651
20.514999 10.851 0.19
20.554001 10.868 0.123
20.541 10.86 0.057
19.483999 10.494 2.8399999
19.487 10.493 2.7750001
19.490999 10.494 2.711
19.500999 10.497 2.6459999
19.531 10.512 2.5840001
19.629999 10.556 2.526
20.355 10.853 0.38699999
20.391001 10.869 0.32100001
20.367001 10.854 0.18799999
20.377001 10.857 0.122
20.414 10.873 0.056000002
19.493999 10.57 2.777
19.493999 10.569 2.7119999
19.493999 10.567 2.6470001
19.49 10.564 2.582
19.525999 10.579 2.5190001
19.632 10.63 2.461
20.209 10.861 0.583
20.233999 10.871 0.51700002
20.219 10.862 0.45100001
20.215 10.859 0.38499999
20.225 10.862 0.31900001
20.257 10.876 0.25299999
20.306999 10.899 0.18700001
19.499001 10.645 2.7130001
19.492001 10.64 2.648
19.488001 10.636 2.582
19.500999 10.641 2.5179999
19.51 10.644 2.454
19.634001 10.703 2.3970001
20.056 10.867 0.77700001
20.063 10.869 0.71200001
20.073 10.872 0.64600003
20.056999 10.863 0.57999998
20.063 10.864 0.514
20.094999 10.878 0.449
19.639999 10.656 0.37900001
19.490999 10.71 2.5829999
19.504 10.715 2.5190001
19.509001 10.715 2.454
19.525 10.722 2.3900001
19.622999 10.77 2.332
19.906 10.874 0.97000003
19.9 10.869 0.90499997
19.886999 10.861 0.83899999
19.879999 10.856 0.773
19.899 10.864 0.708
19.962999 10.894 0.64300001
20.004999 10.912 0.57800001
19.628 10.859 2.987
19.648001 10.87 2.9230001
19.646999 10.867 2.8570001
19.646999 10.866 2.7920001
19.683001 10.882 2.7290001
19.697001 10.887 2.665
19.702 10.888 2.599
19.489 10.781 2.5190001
19.506001 10.788 2.4549999
19.514 10.791 2.3900001
19.518 10.791 2.325
19.634001 10.846 2.267
19.705 10.879 2.2060001
19.708 10.88 2.141
19.712 10.88 2.076
19.716 10.88 2.0109999
19.712999 10.877 1.9450001
19.718 10.878 1.88
19.74 10.887 1.816
19.716 10.873 1.749
19.733 10.88 1.684
19.722 10.873 1.619
19.725 10.873 1.553
19.740999 10.879 1.489
19.74 10.877 1.423
19.742001 10.877 1.358
19.745001 10.876 1.2920001
19.746 10.875 1.227
19.749001 10.875 1.1619999
19.719999 10.859 1.096
19.767 10.881 1.0319999
19.729 10.86 0.96499997
19.749001 10.868 0.89999998
19.76 10.872 0.83499998
19.511 10.875 2.9779999
19.511999 10.873 2.9130001
19.530001 10.882 2.849
19.551001 10.891 2.7850001
19.562 10.895 2.721
19.552999 10.889 2.655
19.549 10.885 2.589
19.549 10.883 2.5239999
19.507999 10.862 2.4560001
19.503 10.858 2.3900001
19.521 10.865 2.326
19.534 10.87 2.2620001
19.533001 10.868 2.1960001
19.559999 10.879 2.1329999
19.554001 10.875 2.0669999
19.563 10.877 2.0020001
19.544001 10.866 1.936
19.573999 10.88 1.873
19.573 10.877 1.807
19.572001 10.875 1.742
19.561001 10.868 1.676
19.555 10.864 1.6109999
19.566999 10.868 1.546
19.579 10.872 1.482
19.577999 10.87 1.4170001
19.607 10.883 1.353
19.596001 10.876 1.2869999
19.580999 10.867 1.221
19.591999 10.87 1.1569999
19.58 10.863 1.091
19.575001 10.859 1.026
19.582001 10.861 0.96100003
19.492001 10.937 2.977
19.500999 10.94 2.9130001
19.497 10.937 2.8469999
19.514999 10.944 2.783
19.489 10.929 2.7160001
19.506001 10.936 2.652
19.516001 10.94 2.5869999
19.503 10.931 2.5209999
19.507 10.932 2.4560001
19.497999 10.926 2.3900001
19.511 10.931 2.326
19.51 10.929 2.2609999
19.537001 10.94 2.197
19.523001 10.932 2.131
19.513 10.925 2.0650001
19.521 10.927 2
19.528999 10.93 1.936
19.518999 10.923 1.87
19.521999 10.923 1.8049999
19.525999 10.923 1.74
19.514999 10.916 1.674
19.523001 10.919 1.61
19.521 10.916 1.544
19.52 10.914 1.479
19.518 10.911 1.414
19.530001 10.915 1.349
19.523001 10.91 1.284
19.534 10.914 1.219
19.532 10.912 1.154
19.485001 10.887 1.0880001
19.49 11.009 2.9779999
19.504 11.014 2.914
19.509001 11.015 2.849
19.5 11.009 2.783
19.5 11.008 2.7179999
19.492001 11.002 2.652
19.500999 11.005 2.5869999
19.492001 10.999 2.5209999
19.509001 11.006 2.457
