ply
format ascii 1.0
comment PCL generated
element vertex 739
property float x
property float y
property float z
element camera 1
property float view_px
property float view_py
property float view_pz
property float x_axisx
property float x_axisy
property float x_axisz
property float y_axisx
property float y_axisy
property float y_axisz
property float z_axisx
property float z_axisy
property float z_axisz
property float focal
property float scalex
property float scaley
property float centerx
property float centery
property int viewportx
property int viewporty
property float k1
property float k2
end_header
-22.136847 6.593154 0.046923086
-22.04846 6.585217 0.051810808
-21.98325 6.5825009 0.018687498
-22.9275 6.6960998 0.0462
-22.842781 6.6878476 0.047826089
-22.224669 6.6100001 0.073833339
-22.186375 6.6059999 0.056250002
-22.021135 6.6425133 0.084000006
-21.968876 6.6530118 0.034215912
-23.038795 6.7139187 0.051879995
-22.964535 6.7075338 0.057266671
-22.812523 6.7327461 0.045343276
-22.789909 6.7688613 0.052415393
-22.228098 6.7795663 0.068100013
-22.149433 6.7667375 0.047990575
-22.049715 6.7426553 0.052990742
-21.969271 6.7247572 0.041594591
-23.1245 6.8830004 0.017000001
-22.912001 6.8979998 0.048
-22.834311 6.8848133 0.047406252
-22.778446 6.8485479 0.049024582
-22.230335 6.8026671 0.07
-23.117001 6.9949999 0.045000002
-23.026239 6.9490962 0.026380954
-22.942667 6.9323654 0.04681709
-22.875368 6.9345098 0.060693882
-22.797001 6.9000001 0.052999999
-23.353487 7.0549788 0.066591829
-23.246534 7.0481715 0.069170736
-23.148829 7.0332131 0.0676383
-23.049328 7.0268655 0.067459464
-22.957266 7.0182939 0.071470581
-22.878229 7.0104103 0.074000001
-22.129499 6.593667 0.14266667
-22.07675 6.5880833 0.12108332
-23.037001 6.698 0.176
-22.929335 6.698 0.15033334
-22.843098 6.6901546 0.14646153
-22.315001 6.6293335 0.18600002
-22.242266 6.618 0.15200002
-22.134487 6.6216488 0.17235138
-22.066305 6.6512828 0.14547169
-23.033045 6.7160454 0.15118182
-22.947529 6.7061582 0.14778946
-22.81179 6.7318583 0.14914081
-22.791439 6.7732711 0.15006252
-22.311399 6.7900004 0.16499999
-22.242849 6.7856736 0.14897403
-22.147985 6.769341 0.15078352
-22.059019 6.7379107 0.14649597
-22.923502 6.8907499 0.15525
-22.829729 6.8802948 0.15125002
-22.780045 6.8516674 0.15177783
-22.318144 6.810358 0.17835714
-22.276867 6.805335 0.16426668
-23.487499 6.9840002 0.1875
-23.014 6.9973335 0.14700001
-22.929211 6.9319792 0.14622918
-22.873079 6.942987 0.15323287
-22.790001 6.9050002 0.13600001
-23.451263 7.0724483 0.1517681
-23.350061 7.0609708 0.14952859
-23.247915 7.0528517 0.15162294
-23.151978 7.0397835 0.14963932
-23.054031 7.0278244 0.15067649
-22.954594 7.0176501 0.14977194
-22.878784 7.0112157 0.1488108
-23.571001 7.1035714 0.15514286
-22.174 6.592 0.244
-22.939667 6.6956668 0.25533336
-22.83807 6.690793 0.24368966
-22.417999 6.6499996 0.29250002
-22.3437 6.6380496 0.25044999
-22.237999 6.6244817 0.25633332
-22.154627 6.6549911 0.24566667
-23.027277 6.7174559 0.2520909
-22.942303 6.706305 0.24452175
-22.816523 6.7334929 0.25184417
-22.79188 6.7738576 0.24945241
-22.321001 6.7902861 0.23200001
-22.244259 6.7867117 0.24913698
-22.148996 6.753027 0.25014392
-22.094 6.7462997 0.2106
-22.926334 6.8910003 0.24566667
-22.828764 6.884829 0.25027657
-22.778162 6.8533268 0.25134426
-22.410574 6.8271432 0.27928573
-22.346498 6.8141713 0.25521055
-22.269445 6.8047781 0.24966666
-23.542376 6.9264832 0.2450345
-23.450403 6.9562831 0.26069409
-23.397001 6.9893336 0.29000002
-23.014547 6.9363642 0.27109092
-22.946339 6.9275174 0.25173333
-22.869661 6.9242625 0.24218868
-22.791668 6.901 0.22966668
-23.551003 7.0581627 0.25318921
-23.460344 7.0287156 0.25182095
-23.345182 7.0445461 0.20954545
-23.258444 7.0504446 0.20811112
-23.152056 7.0377221 0.21027778
-23.056644 7.0222864 0.21235715
-22.954649 7.0152354 0.21505882
-22.881834 7.0040007 0.2095
-23.584286 7.1100006 0.23842859
-22.938999 6.6939998 0.30900002
-22.842566 6.6927667 0.35103333
-22.513 6.6890001 0.377
-22.438997 6.6598754 0.35556251
-22.340252 6.6419163 0.35225004
-22.245085 6.660347 0.34806171
-22.1945 6.6814995 0.30916667
-23.026552 6.7183504 0.35085002
-22.953856 6.7107143 0.35471427
-22.818043 6.7320781 0.35079226
-22.793776 6.7775264 0.3486
-22.317301 6.7932 0.35479996
-22.240601 6.7634211 0.35454077
-22.187853 6.7525759 0.31907505
-23.429001 6.8955002 0.3795
-23.379749 6.8949995 0.38800001
-22.922001 6.8979998 0.308
-22.824259 6.8815894 0.34689742
-22.779667 6.8531442 0.34883785
-22.502499 6.8187499 0.36775002
-22.442213 6.833663 0.35695392
-22.355057 6.8179569 0.35023335
-22.2799 6.8056321 0.3422631
-23.617001 6.9429998 0.31099999
-23.541166 6.9245424 0.35391665
-23.432348 6.9259758 0.33432561
-23.369297 6.9558892 0.3567583
-23.017143 6.9412503 0.34542859
-22.950903 6.9241519 0.34832874
-22.861549 6.9100409 0.35238776
-22.776001 6.9029999 0.36699998
-23.53018 7.0546408 0.34107694
-23.451654 7.0330548 0.34970269
-23.379189 7.0116558 0.35571873
-22.841784 6.6947379 0.44552177
-22.536715 6.6854291 0.46657142
-22.449001 6.664434 0.44730437
-22.34161 6.6698136 0.45564407
-22.288002 6.6762862 0.4132143
-23.023335 6.7203331 0.45366663
-22.958588 6.711412 0.45282352
-22.820877 6.7366452 0.45116463
-22.792892 6.7761312 0.44826323
-22.325014 6.7493253 0.46776611
-22.277956 6.7633848 0.42496923
-23.41 6.8959999 0.43400002
-23.342197 6.8903604 0.45559999
-23.292166 6.8796668 0.47983336
-22.9175 6.8909998 0.43799999
-22.820131 6.8794212 0.44573683
-22.781572 6.8522091 0.45016202
-22.531244 6.8519263 0.46102437
-22.448959 6.8385572 0.44962499
-22.354534 6.8180599 0.45125005
-22.288288 6.8049998 0.42042857
-23.5175 6.92875 0.42925
-23.444056 6.9152222 0.45488894
-23.32786 6.9550171 0.42688131
-23.276754 6.9572082 0.46877366
-23.018944 6.9400296 0.4553636
-22.949652 6.9267845 0.44710815
-22.859446 6.9105349 0.45117241
-22.799 6.902 0.412
-23.512669 7.028667 0.42033333
-23.438601 7.0402918 0.43898267
-23.358681 7.0168386 0.4526251
-23.28825 7.0035 0.48124999
-22.856667 6.6961112 0.54411113
-22.547943 6.6857367 0.5523684
-22.444542 6.6763787 0.55391896
-22.383469 6.6848679 0.52413338
-23.026001 6.7245002 0.55825001
-22.949551 6.7119508 0.54900002
-22.823004 6.7419338 0.54650009
-22.791233 6.7783847 0.5459615
-22.643002 6.7178001 0.56299996
-22.598499 6.7014999 0.5625
-22.420589 6.7419562 0.5771488
-22.37446 6.7552752 0.53347945
-23.340578 6.8884735 0.53915787
-23.252457 6.8827505 0.54837507
-23.195 6.8860002 0.59500003
-22.818001 6.8774629 0.54865378
-22.781548 6.8501668 0.54978573
-22.62464 6.8664093 0.5698182
-22.549145 6.8580766 0.55032909
-22.446308 6.8359585 0.55189788
-22.375729 6.8157802 0.53707314
-23.422716 6.9085712 0.53414291
-23.351891 6.9512219 0.55444443
-23.239635 6.9661365 0.54456306
-23.186958 6.9471302 0.58126086
-23.022387 6.9428825 0.55264711
-22.949919 6.9286003 0.54945725
-22.855852 6.9112954 0.55066168
-22.7855 6.9024997 0.57225001
-23.415668 7.0291667 0.51833332
-23.348179 7.0234413 0.54439706
-23.282471 7.0104122 0.56076473
-22.858858 6.697 0.6450001
-22.543089 6.6917825 0.65030438
-22.481001 6.6918178 0.62581819
-23.118 6.7694998 0.63349998
-23.0371 6.7305002 0.65820003
-22.9475 6.7138329 0.65150005
-22.829138 6.740077 0.6495294
-22.7586 6.7612 0.65140003
-22.649866 6.7121344 0.65273339
-22.521219 6.7265215 0.6763913
-22.466225 6.7555504 0.63987494
-23.327251 6.8927498 0.63600004
-23.2645 6.869 0.61249995
-23.166832 6.8811674 0.63608336
-22.934 6.8979998 0.616
-22.826231 6.8929234 0.6537692
-22.774208 6.866972 0.64340568
-22.641066 6.8815989 0.65321523
-22.550629 6.8630352 0.65001166
-22.467203 6.833096 0.64414901
-23.362999 6.9005003 0.61449999
-23.228031 6.9864373 0.64437503
-23.151966 6.9529743 0.653
-23.03993 6.9317856 0.65735722
-22.950285 6.9297447 0.6491791
-22.855064 6.9130011 0.64844775
-22.78089 6.9038892 0.6568889
-22.6786 6.9036002 0.66900003
-23.328074 7.0178585 0.62442857
-23.258497 7.0154209 0.64985991
-23.198 7 0.68800002
-22.850668 6.6973333 0.7343334
-22.643501 6.6964998 0.7705
-22.5625 6.69525 0.71724999
-23.029644 6.7265716 0.74564284
-22.94179 6.7149472 0.74868411
-22.834677 6.7239456 0.75221634
-22.754078 6.7386923 0.75153852
-22.640629 6.7194824 0.76296294
-22.559185 6.7509689 0.74371886
-22.497999 6.783 0.70200002
-23.101999 6.8709998 0.72000003
-23.077 6.8959999 0.741
-22.826445 6.8961105 0.73388892
-22.748522 6.891191 0.73623806
-22.64739 6.8845596 0.75019473
-22.551172 6.8473511 0.74642766
-22.490833 6.826334 0.70266664
-23.225 6.9914379 0.73843747
-23.143728 6.9794254 0.74938363
-23.058878 6.9458265 0.75018519
-22.946928 6.9316516 0.75013649
-22.854088 6.9145741 0.74713248
-22.745533 6.9076934 0.7565102
-22.681002 6.9062862 0.75785714
-23.229706 7.0122347 0.72941172
-23.184729 7.0097275 0.7511819
-22.849501 6.6900001 0.86199999
-23.028667 6.72925 0.84916663
-22.949902 6.7173996 0.84915012
-22.840658 6.7191424 0.84911442
-22.749422 6.7349467 0.85257894
-22.649351 6.7566228 0.84553248
-22.592667 6.7863331 0.80299997
-22.840399 6.8947997 0.82560009
-22.725273 6.8893642 0.85900009
-22.643456 6.8623333 0.85537398
-22.590643 6.8469667 0.81819355
-23.209999 6.9699998 0.81199998
-23.133497 6.9821243 0.84177494
-23.05164 6.9612298 0.84656829
-22.955713 6.9346433 0.85167164
-22.852175 6.9247684 0.85075372
-22.753386 6.9113846 0.84977138
-22.679167 6.9023337 0.81666672
-23.202999 7.0110002 0.801
-23.1453 7.0081 0.83330005
-23.091499 7.0089998 0.89100003
-22.841627 6.6871252 0.96124995
-23.025074 6.7334285 0.94814283
-22.944502 6.7189288 0.95121419
-22.838263 6.7228951 0.94899994
-22.740868 6.7633328 0.95003343
-22.688429 6.7732854 0.90650004
-22.812 6.8979998 0.91799998
-22.727739 6.8572464 0.96134782
-22.677841 6.862143 0.92534924
-23.110334 6.9759998 0.91133332
-23.039904 6.9731126 0.94269025
-22.956696 6.9481525 0.95288599
-22.8461 6.932363 0.95154995
-22.758774 6.9107194 0.95147383
-22.68 6.9050002 0.96100003
-23.041 7.0037503 0.96474999
-22.845573 6.6865001 1.0266428
-23.029287 6.7353578 1.0491427
-22.952875 6.7218747 1.0540625
-22.828758 6.7404385 1.0546484
-22.786388 6.7792783 1.0271667
-22.811148 6.8311501 1.0721
-22.776543 6.8548546 1.046526
-23.030117 6.972466 1.0512
-22.952496 6.9523492 1.0507392
-22.849352 6.9311595 1.0495245
-22.775946 6.9093099 1.0473573
-22.845751 6.6902504 1.17275
-23.041357 6.7376428 1.147143
-22.958601 6.7254996 1.1496999
-22.826384 6.7447557 1.1481824
-22.796288 6.7917151 1.1441429
-22.814318 6.833395 1.1411581
-22.788462 6.8590889 1.149099
-23.030182 6.9680257 1.1449742
-22.946661 6.9490399 1.1506186
-22.850441 6.9269481 1.1480911
-22.783455 6.9148483 1.1511211
-22.833416 6.6927505 1.2442501
-23.039288 6.7402143 1.2522144
-22.954103 6.7253685 1.2440526
-22.825035 6.7454653 1.2469736
-22.797001 6.7931247 1.2565
-22.808849 6.8313994 1.251511
-22.789366 6.859427 1.2453414
-23.021744 6.9688721 1.2476922
-22.948011 6.9503603 1.2456669
-22.847635 6.9278107 1.2493691
-22.782484 6.9157305 1.2519027
-22.839375 6.6906252 1.344
-23.034437 6.7418127 1.3472501
-22.946531 6.7285886 1.3494706
-22.825844 6.748939 1.3468963
-22.798336 6.7933331 1.3393334
-22.81012 6.8304076 1.3534693
-22.790417 6.8627434 1.3462434
-23.021133 6.9704204 1.3493421
-22.949472 6.9523339 1.3481667
-22.847408 6.9314275 1.3511221
-22.785816 6.9152951 1.3499546
-22.846001 6.691 1.4456667
-23.033735 6.744133 1.4458667
-22.948874 6.7306252 1.4485
-22.825314 6.7491903 1.4500251
-22.798252 6.7870002 1.4082501
-22.810566 6.8276873 1.4483751
-22.789837 6.8637667 1.4511917
-23.019781 6.9726219 1.4490812
-22.94956 6.9541864 1.4500144
-22.848879 6.934114 1.447859
-22.787216 6.9153047 1.4575652
-23.004999 7 1.414
-22.841499 6.6905003 1.544
-23.031803 6.7450666 1.5511999
-22.949862 6.7312145 1.5440717
-22.825575 6.750041 1.550492
-22.799999 6.7819996 1.5604999
-22.809042 6.8285942 1.551149
-22.792051 6.8599877 1.5508873
-23.024399 6.9732103 1.5484999
-22.948935 6.9570136 1.5515618
-22.850536 6.9350553 1.5493696
-22.78545 6.9170547 1.5529463
-22.832335 6.691 1.6503333
-23.043062 6.7445626 1.6470002
-22.960842 6.7340527 1.6469474
-22.824213 6.7530484 1.6517599
-22.799999 6.7859998 1.628
-22.808907 6.8328824 1.6607441
-22.792946 6.8566308 1.6446292
-23.0233 6.9765406 1.6510271
-22.949638 6.955452 1.6517805
-22.846079 6.9357686 1.6487948
-22.784342 6.9187112 1.6488268
-23.042648 6.7501183 1.7490001
-22.950294 6.7351179 1.752
-22.827568 6.7520704 1.7496115
-22.799 6.7880001 1.7079999
-22.810427 6.8364062 1.7506105
-22.792183 6.8652697 1.7473285
-23.024876 6.9788055 1.7527072
-22.950031 6.9600019 1.7516611
-22.851814 6.9384799 1.7482599
-22.787876 6.9210525 1.7511054
-23.025 7.0035 1.763
-23.042555 6.7501111 1.8562777
-22.948406 6.7378626 1.8537725
-22.831884 6.7513223 1.8486383
-22.811945 6.8329659 1.8512292
-22.791792 6.867506 1.8469402
-23.024 6.9814467 1.8504738
-22.947426 6.9632902 1.8471448
-22.847816 6.9390726 1.852313
-22.785166 6.9219646 1.8483573
-23.027601 7.0028 1.8514
-23.04125 6.6944995 1.9825
-22.9743 6.6866007 1.9815
-23.101 6.7080002 1.9910001
-23.025785 6.7322865 1.9375715
-22.940844 6.7249742 1.9560788
-22.828966 6.7543631 1.9476031
-22.811682 6.8358407 1.9513913
-22.79306 6.8649387 1.9471078
-23.023838 6.9849601 1.9348804
-22.942022 6.975821 1.9416419
-22.850399 6.9502068 1.9550688
-22.785915 6.9229379 1.9525505
-23.015928 7.0217857 1.9689287
-22.962181 7.0173702 1.9827405
-22.883999 7.0135002 1.9860001
-22.969667 6.5920005 2.0882223
-23.035543 6.6383338 2.0520835
-22.946861 6.6529284 2.0552771
-22.9203 6.7225547 2.0514445
-22.832952 6.7547507 2.0508933
-22.813005 6.8377199 2.0547602
-22.794813 6.8615851 2.0444148
-22.843302 6.9575748 2.0481904
-22.787041 6.9220843 2.0492766
-23.011688 7.0636249 2.033
-22.94775 7.0616074 2.0404885
-22.862024 7.0425825 2.0605464
-23.014999 7.1075001 2.076
-22.976538 7.118679 2.0833216
-22.8675 7.1075001 2.095
-22.9865 6.4969997 2.1950002
-23.047066 6.5516338 2.1487999
-22.960413 6.5604148 2.1606386
-23.072001 6.6020002 2.1059999
-22.932817 6.6422186 2.150079
-22.920771 6.7201929 2.1491158
-22.831705 6.7575927 2.1495867
-22.794001 6.7940001 2.1229999
-22.811773 6.8389072 2.1482463
-22.794287 6.8636365 2.1500361
-22.840471 6.9592261 2.1487129
-22.788511 6.9197445 2.1499801
-22.848867 7.0526066 2.1502354
-23.006998 7.16325 2.1422501
-22.9527 7.1577406 2.1444407
-22.855028 7.140193 2.1582339
-22.977848 7.2141542 2.1830001
-22.995001 6.3959999 2.2920001
-23.105 6.4495001 2.2814999
-23.041746 6.4520321 2.2598069
-22.971098 6.4673457 2.2630417
-23.063429 6.5077147 2.2098572
-22.950785 6.5481071 2.2487781
-22.930706 6.6393919 2.2488878
-23.002001 6.7579999 2.2950001
-22.939156 6.7351155 2.2506156
-22.83423 6.7571158 2.250478
-22.813229 6.8379874 2.2494686
-22.794117 6.8737459 2.2456043
-22.900999 6.9705 2.2705002
-22.843744 6.9530077 2.248796
-22.788908 6.9205222 2.2490911
-22.850834 7.0528049 2.2500446
-22.973499 7.198 2.2049999
-22.835737 7.1496401 2.24788
-22.94977 7.2503567 2.244169
-22.845682 7.2379518 2.2621875
-22.964146 7.3101435 2.2837143
-23.106667 6.3646669 2.370667
-23.03285 6.362268 2.3619511
-22.98271 6.3740249 2.3685365
-23.1105 6.4215002 2.3140001
-23.056091 6.4120908 2.3226364
-22.965313 6.4485054 2.3507614
-22.944899 6.5484395 2.3486485
-23.030001 6.6325002 2.3645
-22.943003 6.6240406 2.3346798
-23.022169 6.763833 2.3585835
-22.952751 6.750917 2.347625
-22.83713 6.7582989 2.3498251
-22.813246 6.8386674 2.3487778
-22.795097 6.8747501 2.3502183
-23.039001 6.9835 2.3755002
-22.923361 6.9691596 2.3717999
-22.845863 6.9482765 2.3467357
-22.788557 6.9243708 2.3468702
-22.945669 7.0923338 2.3726668
-22.861933 7.0646071 2.339875
-23.017 7.1199999 2.3915
-22.83559 7.1505852 2.350059
-22.933167 7.289834 2.3060002
-22.822098 7.2529397 2.3468518
-22.798336 7.27 2.336
-22.943945 7.3475714 2.3490331
-22.842493 7.3319511 2.3632081
-22.793167 7.340167 2.378
-22.9508 7.4150004 2.3852003
-23.116251 6.2805004 2.4705
-23.033215 6.2679095 2.4700608
-22.990391 6.2797828 2.4713047
-23.112501 6.321167 2.4235001
-23.03916 6.3152633 2.429579
-22.979513 6.3540769 2.4516389
-22.961433 6.450913 2.4497931
-23.041201 6.5504494 2.4611001
-22.954056 6.5352268 2.4374664
-23.03475 6.7642508 2.4569168
-22.957546 6.7558703 2.4493225
-22.838778 6.7594147 2.4475348
-22.814262 6.8405428 2.4500203
-22.794144 6.8791018 2.4481034
-23.006668 6.991333 2.4810002
-22.943733 6.9807496 2.4486346
-22.850508 6.954349 2.4511793
-22.788046 6.9265327 2.4506552
-22.94375 7.0339999 2.4507501
-22.868 7.098 2.408
-23.02 7.1735001 2.4375
-22.956001 7.1697497 2.4530001
-22.845203 7.1625595 2.4399865
-23.000999 7.2020001 2.4719999
-22.969 7.2086668 2.4890001
-22.821106 7.2514672 2.449048
-22.797501 7.2795 2.424
-22.925699 7.3891997 2.411
-22.820181 7.3521314 2.4381406
-22.793289 7.3683114 2.4571776
-22.934736 7.4430881 2.4506385
-22.851727 7.4311719 2.4652762
-22.792229 7.4231367 2.4748642
-22.938999 7.507 2.493
-23.121431 6.1847143 2.5781431
-23.029501 6.1763749 2.5737813
-22.995335 6.195333 2.5770001
-23.121998 6.2296667 2.5307779
-23.023035 6.2284918 2.5434546
-22.989071 6.2638111 2.5546665
-23.000999 6.3140001 2.527
-22.977327 6.3505402 2.5509028
-23.106499 6.474 2.5675001
-23.050802 6.4658337 2.5552669
-22.966845 6.4403057 2.539423
-23.105 6.5209999 2.5090001
-23.0825 6.5095 2.5202498
-22.9755 6.5059996 2.5135
-23.032249 6.7652502 2.5518126
-22.953108 6.7550015 2.5474644
-22.838873 6.7629056 2.5500107
-22.81444 6.8404617 2.5503073
-22.795048 6.8782864 2.5391431
-23.024633 6.9902639 2.5552108
-22.947538 6.9867582 2.5490925
-22.843298 6.9579463 2.5518103
-22.788967 6.9271841 2.5480182
-23.111 7.0209999 2.5829999
-23.038065 7.0140624 2.5574999
-22.961401 7.0164003 2.5362
-22.838501 7.1975002 2.5054998
-22.949844 7.2569222 2.546
-22.830929 7.2594347 2.540647
-22.979 7.3120003 2.5960002
-22.812145 7.342648 2.5523863
-22.795916 7.3720279 2.5405555
-22.924667 7.4862223 2.5136671
-22.832253 7.465425 2.5316799
-22.791214 7.4487538 2.5524378
-22.930981 7.5301423 2.5539794
-22.851999 7.5267148 2.5704603
-22.787001 7.5163994 2.5817001
-23.126667 6.0910006 2.6876667
-23.040751 6.0847001 2.67995
-23.235001 6.1799998 2.6700001
-23.132999 6.1383886 2.6376114
-23.024281 6.1470194 2.6514323
-22.996456 6.1797271 2.6590004
-23.009193 6.2236929 2.6541536
-22.98761 6.2558265 2.6486132
-23.11075 6.3754997 2.6750002
-23.045485 6.3608961 2.6612756
-22.979214 6.3409877 2.6406627
-23.105749 6.4204998 2.618
-23.062201 6.4180002 2.6148002
-22.976002 6.4066668 2.6118333
-23.031223 6.7727227 2.6510556
-22.945427 6.7557511 2.6480362
-22.841003 6.7623372 2.6487405
-22.816042 6.8419995 2.6337872
-22.780266 6.8565335 2.663573
-23.041203 6.9906998 2.641
-22.943823 6.9842443 2.6488669
-22.837418 6.9606385 2.6422677
-22.780722 6.9392428 2.660176
-23.030998 7.0222502 2.6482499
-22.977339 7.0216007 2.6371424
-22.841398 7.2854004 2.6120002
-22.959444 7.3545551 2.6474447
-22.821053 7.3540878 2.6419241
-22.796202 7.3863997 2.6503999
-22.952 7.402 2.6919999
-22.808681 7.4285364 2.6515002
-22.789398 7.4545436 2.6472056
-23.004999 7.5910001 2.668
-22.934351 7.5823503 2.6196003
-22.842871 7.5725923 2.6299689
-22.781393 7.5453148 2.6520436
-23.011 7.5999999 2.681
-22.92388 7.6313519 2.6670587
-22.853861 7.6247902 2.6739821
-22.776449 7.61725 2.6856999
-23.117001 5.9934998 2.7944999
-23.062801 5.9908004 2.7848001
-23.215 6.04 2.793
-23.142473 6.046412 2.747824
-23.036263 6.0562806 2.7546017
-23.013023 6.1462665 2.7504184
-22.996855 6.1802859 2.7534997
-23.118126 6.2796249 2.779125
-23.023436 6.2451954 2.7606738
-22.99041 6.2502151 2.7376072
-23.119001 6.3265719 2.7305715
-23.049002 6.32515 2.7277501
-22.986168 6.3083334 2.7080002
-23.031925 6.77177 2.747308
-22.956617 6.7570004 2.7530775
-22.847771 6.7610893 2.7466066
-22.792334 6.791667 2.7263334
-22.819588 6.8160591 2.7481766
-22.741617 6.849134 2.7510395
-22.696667 6.824667 2.7936668
-23.120001 6.99225 2.7479999
-23.047848 6.9897699 2.7503076
-22.945852 6.9809194 2.7504897
-22.851521 6.9699259 2.7490923
-22.745256 6.9418101 2.7509077
-22.692501 6.9254999 2.7944999
-23.119583 7.0149164 2.7645833
-23.046476 7.0140243 2.7527502
-22.976278 7.005055 2.7443888
-22.819777 7.3876667 2.7168889
-22.941156 7.4516926 2.7535386
-22.819326 7.442152 2.7451956
-22.793043 7.468348 2.7400868
-22.805716 7.515429 2.7460001
-22.780884 7.5490584 2.748009
-23.014999 7.632 2.727
-22.929045 7.6756668 2.7204766
-22.844919 7.6727586 2.7313709
-22.771845 7.646935 2.7534149
-22.920107 7.7237372 2.7674735
-22.860365 7.7252512 2.7774234
-22.777599 7.7104673 2.7860003
-23.143789 5.9516258 2.852
-23.055443 5.963048 2.8579526
-23.222 6.027 2.8110001
-23.032246 6.049633 2.8502941
-23.1304 6.1854005 2.8856001
-23.018597 6.1504335 2.8513336
-22.994801 6.1758003 2.8314998
-23.116638 6.2310004 2.8332727
-23.033308 6.2220001 2.8235383
-22.994251 6.2209997 2.809
-23.038498 6.7760005 2.8530002
-22.96526 6.7607045 2.8485925
-22.85215 6.7610197 2.8484132
-22.763248 6.7960005 2.8775001
-22.676802 6.7934008 2.8690002
-23.166998 6.8870001 2.8608332
-22.825333 6.8101668 2.8421667
-22.73279 6.8263602 2.8368449
-22.676594 6.8501282 2.8596511
-23.209 6.9860001 2.8565001
-23.161001 6.9980001 2.8596668
-23.028294 6.9872351 2.8560002
-22.949598 6.9806361 2.8508546
-22.849741 6.9676652 2.8479829
-22.741222 6.9515142 2.8429997
-22.676453 6.9337506 2.8560572
-23.140532 7.0202775 2.8526108
-23.052301 7.0157828 2.850174
-22.989573 7.0059996 2.8248572
-22.828335 7.4828339 2.8187499
-22.790001 7.4849997 2.8099999
-22.934778 7.5353336 2.8487775
-22.825565 7.5203481 2.8561306
-22.786768 7.5610924 2.8406389
-22.808001 7.6269999 2.846
-22.769365 7.6517496 2.8486698
-22.914001 7.7764444 2.8293333
-22.852745 7.7668104 2.8293383
-22.762905 7.7478371 2.8549857
-22.906801 7.8216004 2.8662002
-22.862 7.821701 2.8763611
-22.771799 7.814734 2.8791335
-23.224335 5.8686666 2.9743335
-23.144415 5.8591261 2.9590836
-23.071699 5.8677254 2.9636002
-23.215668 5.911334 2.9233332
-23.177 5.9130001 2.9107499
-23.049826 5.9503226 2.9489031
-23.128334 6.0950003 2.9800003
-23.032438 6.0501003 2.9497757
-23.123413 6.1387653 2.9401176
-23.037836 6.1250558 2.9285274
-22.998501 6.1300001 2.9015002
-23.027 6.7756877 2.9500003
-22.955582 6.7637496 2.9498754
-22.851446 6.7604742 2.9442108
-22.754 6.79285 2.9613001
-22.649637 6.7896929 2.9608612
-23.233669 6.8953338 2.9590001
-23.169142 6.8800011 2.9577143
-22.829386 6.806232 2.9459229
-22.750547 6.8031821 2.9386361
-22.632595 6.8479676 2.9477844
-22.597 6.8655 2.9915001
-23.808668 6.9833336 2.9686668
-23.796667 6.9840002 2.967
-23.256201 6.9164004 2.9586003
-23.031137 6.9890008 2.9520454
-22.949133 6.9822836 2.9487495
-22.856356 6.9646049 2.9526787
-22.748661 6.9576092 2.9460363
-22.643473 6.9350324 2.951041
-22.594999 6.909801 2.9860001
-23.221666 7.0298095 2.9656191
-23.149122 7.0230198 2.9485407
-23.059931 7.0177908 2.9479074
-22.985001 7.0054998 2.9445
-22.719 7.0180001 2.9260001
-22.925999 7.5910001 2.911
-22.827581 7.5723338 2.9250836
-22.789669 7.5805836 2.9137502
-22.922857 7.6240005 2.9502859
-22.839376 7.6337495 2.9786251
-22.776758 7.6522717 2.9445097
-22.801001 7.711 2.9319999
-22.758808 7.7510238 2.9497769
-22.925571 7.8521428 2.9482858
-22.845589 7.8653126 2.9377232
-22.756828 7.8447394 2.956183
-22.856747 7.9199147 2.9822285
-22.785667 7.9086666 2.9903333
0 0 0 1 0 0 0 1 0 0 0 1 0 0 0 0 0 739 1 0 0
