ply
format ascii 1.0
comment PCL generated
element vertex 837
property float x
property float y
property float z
element camera 1
property float view_px
property float view_py
property float view_pz
property float x_axisx
property float x_axisy
property float x_axisz
property float y_axisx
property float y_axisy
property float y_axisz
property float z_axisx
property float z_axisy
property float z_axisz
property float focal
property float scalex
property float scaley
property float centerx
property float centery
property int viewportx
property int viewporty
property float k1
property float k2
end_header
15.986 -5.3074999 0.0040000002
16.050154 -5.3083081 0.0060769231
15.968748 -5.2565207 0.053666674
16.066576 -5.2563863 0.049086016
16.106001 -5.2346387 0.03906944
15.969113 -5.1555557 0.055777777
16.095232 -5.158422 0.055038463
16.109211 -5.1487594 0.04962096
15.97806 -5.0347643 0.034294117
16.0623 -5.0387001 0.0359
16.114283 -5.0570741 0.054680683
15.988499 -4.9196672 0.025166668
16.048706 -4.9385877 0.061441176
16.122166 -4.9667501 0.066750005
14.688 -4.8039999 0.01175
14.763301 -4.8094501 0.037850004
14.853308 -4.8148203 0.051641032
14.945902 -4.8162675 0.056170728
15.973647 -4.8558235 0.044294119
16.057365 -4.8944082 0.047816329
16.172083 -4.8620529 0.049544387
16.20406 -4.8501177 0.046764709
17.194 -4.802 0.061000001
17.262892 -4.8394766 0.062861539
17.349312 -4.8400879 0.046946898
17.447805 -4.8303061 0.046085723
17.507145 -4.8200006 0.0064285723
14.6865 -4.7540002 0.017666668
14.737316 -4.7697887 0.062736847
14.968893 -4.7530007 0.036830772
15.018369 -4.7364211 0.082078956
15.974692 -4.7600775 0.050307695
16.18907 -4.7475524 0.048284475
16.203438 -4.7695003 0.045937501
17.254223 -4.7393336 0.046333332
17.3606 -4.7035999 0.043200005
17.458187 -4.7470169 0.055508129
17.508324 -4.7529998 0.0093214288
14.698 -4.6919999 0.0070000002
14.760624 -4.6439195 0.044405401
14.85074 -4.6443577 0.051571425
14.956579 -4.6657085 0.045677427
15.0232 -4.6750007 0.071114279
15.973857 -4.693429 0.044714291
16.058016 -4.6601515 0.047409102
16.158684 -4.6748848 0.047329534
16.205 -4.684 0.057999998
17.262508 -4.6864429 0.056163933
17.346573 -4.6913013 0.050123289
17.441605 -4.6912889 0.045539472
17.511 -4.6810002 0.0020000001
14.716 -4.5830002 0.046
15.986083 -4.5393333 0.05916667
16.077 -4.5626922 0.02923077
16.132378 -4.5425901 0.053770486
15.98165 -4.4514003 0.052399993
16.134056 -4.4493976 0.047404259
15.969945 -4.3490553 0.048499998
16.047981 -4.3394041 0.058319137
16.129883 -4.3579464 0.044922482
15.96 -4.3000002 0.0040000002
16.050602 -4.2944002 0.0093999999
16.128769 -4.2938461 0.011846155
15.974501 -5.21 0.11066668
16.056263 -5.2125263 0.10942105
15.970675 -5.1562753 0.15649997
16.067455 -5.1600819 0.15273254
16.105995 -5.1387076 0.14116456
15.969001 -5.0522003 0.1568
16.096712 -5.0567141 0.1574762
16.111704 -5.0489497 0.14707568
15.9806 -4.9612002 0.13020001
16.082201 -4.9385004 0.13859999
16.117176 -4.9631228 0.15628302
14.7755 -4.8074999 0.11
14.858941 -4.8078823 0.12970588
14.9495 -4.8101945 0.14805554
15.039944 -4.8111424 0.15679999
15.975874 -4.8390002 0.14325
16.072556 -4.8908887 0.13005556
16.172037 -4.8615108 0.14964053
16.204336 -4.8437862 0.15007144
17.169588 -4.833745 0.16227451
17.253296 -4.8372254 0.14757943
17.349567 -4.827817 0.14737408
17.409384 -4.8180771 0.11061539
14.783332 -4.7668891 0.11988889
14.839999 -4.7780352 0.16792861
15.066645 -4.7524199 0.14308606
15.112668 -4.7397223 0.18577778
15.974999 -4.7564616 0.15184616
16.189482 -4.7446847 0.14797226
16.20306 -4.7714844 0.15087879
17.158443 -4.7434449 0.15388888
17.263 -4.7046671 0.14733334
17.365183 -4.7479033 0.15904197
17.410299 -4.7511277 0.11355319
14.7916 -4.6760001 0.11920001
14.856688 -4.6399775 0.14557782
14.952911 -4.6386518 0.15345654
15.0575 -4.6626592 0.14763159
15.119265 -4.671 0.17535295
15.974668 -4.6540003 0.14655556
16.064001 -4.6665335 0.1314
16.15546 -4.657701 0.14959647
17.0825 -4.6884999 0.19599999
17.164261 -4.6816707 0.16090162
17.251852 -4.6856589 0.14867073
17.34948 -4.6885467 0.1495233
17.40843 -4.6891432 0.11514286
15.97575 -4.5475001 0.15091668
16.129606 -4.5488925 0.14820001
15.971776 -4.4358711 0.15948386
16.051243 -4.4218483 0.16721211
16.124987 -4.4527855 0.14513795
15.965125 -4.387125 0.11637501
16.049398 -4.3873506 0.12035
16.123096 -4.3827734 0.12164516
15.977333 -5.1131668 0.20866667
16.054522 -5.1154346 0.21456522
16.1075 -5.1118336 0.21250001
15.970776 -5.0641112 0.2567037
16.062208 -5.0634575 0.25833341
16.107792 -5.0419202 0.24503957
15.9855 -4.9545002 0.2375
16.094154 -4.9440765 0.25923079
16.113434 -4.9557805 0.24978155
14.941002 -4.8047152 0.21457143
15.057514 -4.8097439 0.24051429
15.13838 -4.8127298 0.25783786
15.2 -4.802 0.266
15.961375 -4.8485003 0.25800002
16.0396 -4.8510003 0.2332
16.171457 -4.86127 0.24992691
16.203604 -4.8436332 0.24823335
17.067797 -4.8277283 0.266
17.149521 -4.830255 0.2490273
17.249775 -4.8228855 0.24822758
17.314802 -4.8171 0.21329999
14.877462 -4.7795386 0.22546154
14.944188 -4.7862854 0.25747621
15.038 -4.7981663 0.27533334
15.155809 -4.7539148 0.24248722
15.210188 -4.7289376 0.28793749
15.967801 -4.7504001 0.24530001
16.021002 -4.7504001 0.26339999
16.18849 -4.7468586 0.25067258
16.202602 -4.7658668 0.2492667
17.044998 -4.739222 0.27144444
17.122002 -4.7350001 0.22033334
17.269661 -4.7475157 0.26728815
17.31776 -4.753305 0.21779169
14.887601 -4.6644001 0.2174
14.949855 -4.6340432 0.24838297
15.052732 -4.6357312 0.25234148
15.156226 -4.6628284 0.24534412
15.215112 -4.670445 0.28255552
15.976469 -4.6441174 0.25282353
16.007 -4.6829996 0.2385
16.156357 -4.6580529 0.24955551
16.200001 -4.697 0.278
17.065834 -4.6753125 0.26708335
17.145531 -4.6790009 0.25157699
17.249691 -4.6828985 0.25098982
17.312054 -4.6890526 0.21568422
15.975459 -4.5364585 0.25516671
16.05323 -4.5110002 0.28361538
16.123344 -4.5507159 0.2469925
15.979809 -4.4728851 0.23450002
16.05142 -4.4706979 0.23495351
16.119753 -4.4762864 0.22805358
15.9739 -5.0090003 0.3215
16.058119 -5.0162802 0.32160002
16.104376 -5.0150003 0.31375
15.972331 -4.9644995 0.36833334
16.063776 -4.9666672 0.35868058
16.110374 -4.9417529 0.34543201
14.957 -4.803 0.308
15.049385 -4.8186159 0.3446154
15.154401 -4.8082247 0.34637499
15.232562 -4.8114061 0.36306244
15.965199 -4.8308005 0.3502
16.097 -4.8922 0.32360002
16.16934 -4.8593645 0.34908798
16.204554 -4.8417497 0.34672222
16.969997 -4.8205876 0.36941177
17.04705 -4.8238177 0.34953764
17.148676 -4.8209448 0.34810904
17.216043 -4.8137093 0.32216668
14.971715 -4.7678094 0.33038095
15.037091 -4.7801847 0.3582558
15.151334 -4.7911115 0.3537778
15.250836 -4.7507443 0.34979206
15.306499 -4.7218332 0.39200002
15.969085 -4.7491665 0.35250002
16.191696 -4.7478108 0.34933677
16.205935 -4.7589107 0.35500002
16.9624 -4.7443004 0.3563
17.0135 -4.7390003 0.3175
17.17494 -4.7480388 0.37077671
17.221819 -4.7521281 0.32130763
14.979714 -4.6456437 0.32028574
15.051329 -4.6286731 0.34869388
15.145746 -4.633471 0.3489216
15.254584 -4.6599708 0.34752429
15.30825 -4.6676869 0.38662505
15.965063 -4.6439376 0.35374999
16.099001 -4.6570001 0.30599999
16.157114 -4.6575651 0.3526752
16.202911 -4.6818185 0.37509093
16.970144 -4.671 0.36244687
17.049597 -4.6734333 0.35076314
17.153158 -4.6782546 0.35282356
17.217594 -4.6825008 0.32096878
15.049 -4.5970001 0.34200001
15.97939 -4.5563612 0.34630555
16.053135 -4.5551739 0.3466087
16.118412 -4.5679407 0.33379409
15.976002 -4.9205832 0.42400002
16.055719 -4.9231939 0.41997221
16.119801 -4.9173002 0.41160002
15.181667 -4.8033333 0.41166669
15.26153 -4.8077645 0.43885291
15.330999 -4.8075414 0.47104168
15.970895 -4.8728423 0.4631052
16.055302 -4.8797255 0.46435004
16.165831 -4.8616524 0.44580162
16.205194 -4.8369999 0.45525858
16.87512 -4.8178792 0.46930304
16.952044 -4.8200955 0.44717026
17.048817 -4.8174305 0.44929007
17.116968 -4.8159666 0.42043331
15.071247 -4.7682495 0.43739286
15.143682 -4.7863684 0.45844737
15.255762 -4.7878098 0.44319049
15.34269 -4.7484884 0.45240942
15.407 -4.7090001 0.493
15.962547 -4.7511821 0.44609094
16.190947 -4.7450919 0.4489311
16.205103 -4.7625685 0.45694116
16.858126 -4.7433124 0.46768749
16.910999 -4.7516003 0.41079998
17.077509 -4.7496367 0.47701135
17.124395 -4.7525482 0.42634419
15.077118 -4.6414709 0.42629412
15.148582 -4.6237731 0.45213208
15.246312 -4.6333108 0.44706672
15.349806 -4.6594777 0.45211509
15.404716 -4.6577148 0.48171434
15.973066 -4.6439676 0.44693339
16.052164 -4.6370564 0.45330551
16.164188 -4.6648932 0.45063713
16.206814 -4.6655617 0.45268747
16.8708 -4.6666999 0.46609998
16.948208 -4.6668944 0.45098838
17.053753 -4.6734338 0.45638385
17.119911 -4.6814351 0.42519566
15.9855 -4.5895 0.40850002
16.018667 -4.594667 0.414
16.1315 -4.592 0.41750002
15.360116 -4.8043466 0.54080766
15.425231 -4.8049231 0.57192314
15.982836 -4.870944 0.55000001
16.047117 -4.8702202 0.54567641
16.164259 -4.85639 0.54875451
16.205843 -4.8401427 0.55347145
16.779999 -4.8087997 0.56508005
16.848232 -4.8119106 0.55110252
16.94697 -4.8147202 0.54771876
17.019815 -4.8117409 0.52351856
15.162763 -4.7644701 0.53779411
15.246675 -4.783093 0.55446512
15.367569 -4.7773194 0.53177267
15.433261 -4.7478004 0.555915
15.962334 -4.7434168 0.54058337
16.191675 -4.7489543 0.5504235
16.204947 -4.7558074 0.54936534
16.75535 -4.7637825 0.57017392
16.810333 -4.7610006 0.51983333
16.97924 -4.7555318 0.57770967
17.027798 -4.751071 0.53249997
15.169182 -4.634182 0.52468181
15.247694 -4.6222439 0.54961216
15.34914 -4.6308799 0.5459137
15.446914 -4.6610942 0.55091369
15.510751 -4.651 0.59375
15.975251 -4.6586881 0.54756248
16.049047 -4.6576343 0.54563409
16.172968 -4.6661673 0.55172217
16.208 -4.6559286 0.55535722
16.767969 -4.6609674 0.57219356
16.846716 -4.659164 0.54610002
16.957851 -4.6687493 0.55721575
17.02808 -4.6781411 0.52840823
15.2265 -4.5915003 0.54550004
15.368 -4.8010001 0.60399997
15.458187 -4.8042502 0.63631248
15.5204 -4.8024001 0.685
15.982615 -4.8639235 0.6522308
16.049221 -4.8676438 0.64612329
16.169052 -4.8554115 0.65334576
16.206129 -4.8382869 0.64696825
16.683546 -4.8060913 0.67709094
16.755575 -4.8100986 0.65343648
16.851904 -4.8099627 0.64622498
16.920666 -4.8089633 0.62429625
15.261874 -4.7694063 0.63937497
15.346707 -4.7839756 0.65085363
15.466006 -4.7729492 0.63407606
15.530926 -4.7462697 0.6632902
15.979167 -4.7440004 0.6323334
16.19249 -4.743762 0.65060514
16.204878 -4.7607083 0.646523
16.667534 -4.7668004 0.66540003
16.737446 -4.780611 0.63383329
16.877523 -4.7568245 0.68078959
16.933052 -4.7502403 0.63402581
15.272112 -4.633666 0.62594444
15.352644 -4.6160717 0.64707142
15.4575 -4.6351423 0.63410723
15.542789 -4.6615362 0.65731239
15.97791 -4.6596818 0.64572734
16.054695 -4.6533051 0.64880574
16.174576 -4.66399 0.65160537
16.206306 -4.6573076 0.65146154
16.675913 -4.6575217 0.67591304
16.749985 -4.6557693 0.6502769
16.854988 -4.6630702 0.65839994
16.927135 -4.6738644 0.63510811
15.273 -4.599 0.60799998
15.341 -4.5910001 0.662
15.412 -4.5929999 0.69099998
16.166 -4.5970001 0.64999998
15.539667 -4.8026667 0.72733343
15.981922 -4.8619232 0.75400001
16.050577 -4.8661499 0.74765754
16.165556 -4.8533535 0.74686283
16.205984 -4.8301854 0.7528519
16.57 -4.803 0.792
16.661125 -4.8060412 0.74976599
16.753138 -4.8077059 0.74106902
16.826168 -4.8067923 0.72349995
15.297 -4.7449999 0.70099998
15.356818 -4.7673941 0.73724246
15.448559 -4.7793016 0.75204653
15.566659 -4.7679319 0.73595178
15.624632 -4.7414746 0.77244723
15.982 -4.7390003 0.76099998
16.192957 -4.7482462 0.74869573
16.205271 -4.7556429 0.74857146
16.574358 -4.7814288 0.77400005
16.639446 -4.7902637 0.75215787
16.771931 -4.7687898 0.78029835
16.835646 -4.7534013 0.73793703
15.374739 -4.6191583 0.7408421
15.449499 -4.6143799 0.74309999
15.558243 -4.6337132 0.74684864
15.635338 -4.6616626 0.75864208
15.975668 -4.6530004 0.74542862
16.054468 -4.6491337 0.75283331
16.173487 -4.6623306 0.75122935
16.206999 -4.6641998 0.75011992
16.571335 -4.6568332 0.76783329
16.649326 -4.6491141 0.75181967
16.754583 -4.6562638 0.75583911
16.829514 -4.6713982 0.73716676
15.378334 -4.594667 0.71700001
15.435801 -4.5960002 0.77520007
15.619499 -4.8045001 0.81449997
15.987125 -4.8610005 0.85312492
16.049929 -4.8639088 0.84669697
16.158319 -4.8552103 0.84838897
16.203514 -4.8253222 0.84738719
16.5734 -4.8025002 0.82480001
16.64809 -4.8050919 0.83177269
16.72843 -4.8032861 0.82714289
15.3942 -4.7505999 0.80880004
15.454025 -4.7565494 0.84887499
15.552425 -4.7776222 0.84693336
15.663096 -4.7596259 0.83984387
15.721811 -4.7355475 0.87956619
15.971 -4.7329998 0.85699999
16.192883 -4.7432671 0.85193348
16.205772 -4.7537313 0.85088468
16.48267 -4.7820005 0.87613344
16.551182 -4.7890925 0.85458463
16.661606 -4.7823334 0.86439514
16.736097 -4.7563438 0.83913559
15.456225 -4.6352906 0.84041929
15.553853 -4.6108236 0.84382361
15.666797 -4.6436715 0.83564287
15.725862 -4.665585 0.86541528
15.964154 -4.653616 0.84476924
16.048334 -4.6456389 0.84880549
16.174881 -4.6587296 0.84960431
16.204622 -4.6673517 0.85045946
16.4771 -4.6573005 0.87169999
16.549511 -4.644454 0.85106057
16.656622 -4.6532388 0.85653549
16.734867 -4.6673141 0.83665168
15.470112 -4.5953331 0.83522218
15.521848 -4.5947695 0.87130767
15.96793 -4.8427143 0.94900006
16.045202 -4.8568377 0.94933826
16.162565 -4.847384 0.94926274
16.202951 -4.8338575 0.94347626
16.445999 -4.809 0.92400002
16.573 -4.8010001 0.95700002
16.632799 -4.8042006 0.92679995
15.482375 -4.7414999 0.91824996
15.547042 -4.7563543 0.95002073
15.647001 -4.7757044 0.94795465
15.757495 -4.7569709 0.94619447
15.808268 -4.7350669 0.98160005
16.19297 -4.7398939 0.95224243
16.210579 -4.7434406 0.95004004
16.363285 -4.7532859 0.98064291
16.452942 -4.7848387 0.95213228
16.55673 -4.7828474 0.95700002
16.639561 -4.7552824 0.94050366
15.545436 -4.6369128 0.94521731
15.653373 -4.6088891 0.93481487
15.755706 -4.6353283 0.94256353
15.847258 -4.6473842 0.96092302
15.947634 -4.6504211 0.95368415
16.057615 -4.6422935 0.95326471
16.177671 -4.658597 0.9517476
16.213629 -4.658185 0.94344437
16.386169 -4.6465006 0.98400009
16.453732 -4.64077 0.94959623
16.550112 -4.6442685 0.95543593
16.636663 -4.6634459 0.9408254
15.567867 -4.5921998 0.94333345
15.640215 -4.5926428 0.9783572
15.705 -4.598 0.991
15.808 -4.8039999 1.016
15.965045 -4.8333182 1.0471817
16.051273 -4.8535085 1.0480793
16.163277 -4.8456354 1.0494375
16.204624 -4.833375 1.0381875
16.495001 -4.8010001 1.036
15.581215 -4.7417135 1.0232857
15.64877 -4.7573457 1.051577
15.753963 -4.7769995 1.0481178
15.839528 -4.7772646 1.0510943
15.915 -4.7979999 1.08
16.194111 -4.7527361 1.0499812
16.216145 -4.7405372 1.0543659
16.357231 -4.7780538 1.0526001
16.45495 -4.7816148 1.0545418
16.54427 -4.7525673 1.0421399
16.603001 -4.7410002 1.006
15.580858 -4.673286 1.0228572
15.634177 -4.6428237 1.0579411
15.762667 -4.6086292 1.0390371
15.856465 -4.6283822 1.0465531
15.927911 -4.6479697 1.0557576
16.052879 -4.6405458 1.0475758
16.174465 -4.6525474 1.0462142
16.21162 -4.6707349 1.0457059
16.357611 -4.6390824 1.0501631
16.450615 -4.6372771 1.0511847
16.539577 -4.6608014 1.0453706
16.6 -4.6950002 1.003
15.659832 -4.5885835 1.0359583
15.725751 -4.5909505 1.0670999
15.82 -4.598 1.0880001
15.967824 -4.833652 1.1540869
16.052378 -4.8519845 1.1485374
16.162926 -4.8413019 1.1490726
16.203501 -4.8305001 1.140375
15.672503 -4.7406359 1.1329092
15.748619 -4.7581205 1.14886
15.847414 -4.7779589 1.1478126
15.9695 -4.7915001 1.15175
16.193361 -4.7630601 1.1457273
16.244238 -4.7682166 1.1497
16.351776 -4.7794089 1.1489156
16.447729 -4.751379 1.1448481
16.5 -4.7779999 1.104
15.684 -4.6578002 1.1273
15.741769 -4.6446152 1.1722307
15.863308 -4.6089234 1.1363462
15.948121 -4.6266327 1.1499181
16.052029 -4.6353717 1.1508287
16.152645 -4.6395421 1.1471525
16.254938 -4.6316738 1.1517146
16.351685 -4.6309857 1.1464427
16.446474 -4.6574478 1.1470404
15.6915 -4.5945001 1.1099999
15.757912 -4.5867944 1.1477649
15.830547 -4.5941815 1.1664544
15.928 -4.5999999 1.1950001
15.968556 -4.832305 1.2501667
16.051651 -4.8483944 1.2497121
16.159382 -4.8415318 1.24883
16.203835 -4.8200836 1.2485833
16.371 -4.802 1.214
15.765064 -4.7390003 1.2331289
15.836781 -4.7574148 1.2465121
15.944715 -4.7808571 1.2598572
16.0525 -4.7020001 1.2745
16.194502 -4.7850556 1.2444445
16.246107 -4.7729187 1.2503835
16.350098 -4.7517738 1.2479689
16.406363 -4.7413635 1.2047272
15.768367 -4.6583161 1.2280526
15.828582 -4.6390829 1.2714999
15.963856 -4.6082387 1.2303333
16.047682 -4.627728 1.2511363
16.148746 -4.6341181 1.2506863
16.247452 -4.6236238 1.2492609
16.352444 -4.653367 1.2499775
16.403502 -4.6650004 1.2043333
15.791499 -4.5809999 1.212
15.853124 -4.5849514 1.2477314
15.941208 -4.5930839 1.2654586
16.014999 -4.5960002 1.29
15.976838 -4.8334055 1.3491893
16.049305 -4.8452277 1.3499243
16.160666 -4.8378935 1.3491827
16.204704 -4.8197646 1.3655295
15.843905 -4.7277622 1.3287619
15.953667 -4.7710671 1.3542668
16.194233 -4.7816477 1.3515882
16.247839 -4.7542973 1.3516014
16.307142 -4.7342148 1.3099999
15.864526 -4.6542387 1.3364285
15.934084 -4.6251669 1.3630832
16.065226 -4.6115503 1.336675
16.157328 -4.6155515 1.3481381
16.255428 -4.6490426 1.3544663
16.310093 -4.6622858 1.3126667
15.8834 -4.5836 1.3136001
15.954421 -4.5827508 1.3491729
16.04517 -4.5875726 1.3661143
16.163418 -4.5939169 1.35375
15.983889 -4.8322592 1.4447037
16.049784 -4.8401594 1.4507102
16.163376 -4.8351274 1.4486213
16.204657 -4.8199382 1.4523126
15.959885 -4.7505422 1.4532574
16.194548 -4.7568035 1.4549805
16.207468 -4.7490697 1.4510114
15.88 -4.6430001 1.4119999
15.959678 -4.6445584 1.4533236
16.0452 -4.6108003 1.473
16.166513 -4.6314054 1.4553449
16.211086 -4.6577506 1.4476799
15.9798 -4.5822001 1.4198
16.053209 -4.5805254 1.4504387
16.115593 -4.5859628 1.449074
15.979174 -4.8285174 1.5507244
16.04957 -4.8353853 1.5506462
16.155254 -4.8308573 1.5482615
16.206343 -4.8202186 1.547875
15.968543 -4.7530417 1.5530002
16.193245 -4.7532735 1.5513425
16.207054 -4.7492328 1.5503507
15.97072 -4.645349 1.5515348
16.051249 -4.6106882 1.5741875
16.170347 -4.6352687 1.5492098
16.20816 -4.6530771 1.5515845
15.991 -4.592 1.549
16.047703 -4.5914588 1.5518918
16.111952 -4.5875497 1.53465
15.974214 -4.8243642 1.6482424
16.050112 -4.8312392 1.6475769
16.159695 -4.8280225 1.6482275
16.206381 -4.817286 1.6520476
15.970835 -4.7527003 1.6485336
16.194386 -4.7512536 1.6554933
16.205935 -4.7505474 1.6461333
15.972551 -4.6407251 1.6551001
16.058498 -4.6103125 1.6475313
16.173307 -4.6363487 1.6499821
16.208399 -4.6493249 1.6501564
15.991 -4.5900002 1.6625
16.039915 -4.5939431 1.6502571
16.122 -4.5999999 1.62
15.978586 -4.8235521 1.7445172
16.048059 -4.8288465 1.7482461
16.158583 -4.8253775 1.7486334
16.204788 -4.8168945 1.746158
15.968962 -4.7492595 1.7502593
16.193085 -4.7511067 1.7493331
16.204855 -4.7494359 1.7518181
15.967978 -4.6406813 1.7507728
16.055849 -4.6093931 1.7466669
16.173193 -4.6343093 1.7512751
16.205936 -4.6494808 1.7453419
15.987249 -4.5907497 1.7447499
16.050249 -4.5964999 1.7461667
16.1598 -4.5979996 1.7428001
16.202999 -4.5929999 1.795
15.98704 -4.8235993 1.8436004
16.047905 -4.8236132 1.8485
16.159903 -4.8227115 1.8489223
16.204819 -4.8075452 1.8432727
15.968555 -4.7549639 1.8481849
16.192673 -4.751224 1.8490372
16.205196 -4.747788 1.8475908
15.966891 -4.6417389 1.8484132
16.062742 -4.6062574 1.8469355
16.175892 -4.6351376 1.848613
16.20775 -4.6445932 1.8493127
15.982001 -4.5948005 1.8454001
16.047071 -4.5951076 1.8465713
16.148251 -4.5984998 1.8564999
15.984306 -4.8185644 1.945087
16.049637 -4.8197975 1.950623
16.156666 -4.8171735 1.9465436
16.201 -4.8125 1.9245
15.968421 -4.7562256 1.9463549
16.192253 -4.75 1.950907
16.204945 -4.7493706 1.9447429
15.969087 -4.6429119 1.946578
16.059408 -4.6074538 1.9499091
16.175455 -4.6364655 1.9489021
16.206207 -4.643465 1.9509655
15.989333 -4.5916667 1.9450001
16.042814 -4.5962634 1.9502895
16.161604 -4.5963001 1.9588002
16.2005 -4.5970001 1.9054999
15.98167 -4.8169336 2.0510669
16.045803 -4.8130155 2.0512457
16.15572 -4.814507 2.0488467
15.968532 -4.7543125 2.0506873
16.068001 -4.7989998 2.0780001
16.191601 -4.7496414 2.046633
16.20463 -4.7481141 2.0524285
15.964365 -4.6361737 2.0476727
16.050451 -4.6059999 2.0526998
16.179974 -4.6404366 2.0479167
16.205719 -4.639688 2.0562186
15.989166 -4.5883331 2.0466669
16.047142 -4.594286 2.0492284
16.143999 -4.5970454 2.0594094
16.203249 -4.5979996 2.0395
15.979601 -4.8147006 2.1467667
16.048548 -4.8118038 2.1514246
16.153898 -4.8127298 2.1496282
15.965386 -4.7545476 2.1502576
16.190031 -4.7511206 2.1500347
16.204107 -4.7431784 2.1542501
15.964 -4.636642 2.1503775
16.050219 -4.6068263 2.1489568
16.180943 -4.6401267 2.1487374
16.20396 -4.6468525 2.1464071
15.9718 -4.5939336 2.1533999
16.05587 -4.5955172 2.154258
16.163654 -4.5937591 2.148138
16.201668 -4.5983334 2.165
15.979289 -4.8135476 2.2509677
16.044983 -4.8118072 2.2482417
16.153425 -4.8098893 2.2483838
16.204 -4.8043337 2.2606666
15.965863 -4.7525678 2.2462976
16.059 -4.8000002 2.277
16.190109 -4.7504821 2.2491667
16.204252 -4.7498927 2.2475717
15.96258 -4.63728 2.2456508
16.058556 -4.6052217 2.2459447
16.183313 -4.6422358 2.2461793
16.203527 -4.6484251 2.2491748
15.966899 -4.5957003 2.2570002
16.048445 -4.5946946 2.2507503
16.15687 -4.5965643 2.2581539
16.200001 -4.5869999 2.2509999
15.980031 -4.8107424 2.3525164
16.047428 -4.8085189 2.3460534
16.153866 -4.8077297 2.3472834
16.202 -4.802 2.339
15.959079 -4.749999 2.3512893
16.053001 -4.7981429 2.3418572
16.188971 -4.7554054 2.3497474
16.204868 -4.7442608 2.343087
15.955604 -4.6410227 2.350023
16.062111 -4.6083336 2.3532221
16.186136 -4.6475687 2.3472993
16.204399 -4.6466799 2.3515201
15.966599 -4.591857 2.3532572
16.046576 -4.5933619 2.3503408
16.152489 -4.5954108 2.3526866
16.201401 -4.5976005 2.3620002
15.977345 -4.8094487 2.4482753
16.042198 -4.8064117 2.449863
16.145248 -4.8057041 2.4493866
16.204 -4.8080001 2.414
15.95223 -4.7507186 2.4534101
16.062626 -4.7978125 2.4454374
16.184696 -4.7583022 2.4487135
16.201748 -4.7479172 2.4420002
15.942035 -4.6445861 2.4454482
16.052999 -4.6035004 2.4145
16.185459 -4.65276 2.4497442
16.203751 -4.6428337 2.4365001
15.96236 -4.5588908 2.4567273
16.052288 -4.5532632 2.4536996
16.142817 -4.576046 2.4558036
16.204 -4.5945001 2.4425001
15.971 -4.4990001 2.4990001
16.061251 -4.4960003 2.4942501
16.108 -4.4919996 2.4959998
15.967754 -4.8176522 2.5608981
16.040558 -4.8150196 2.5627398
16.146349 -4.8041501 2.52525
15.947127 -4.7507 2.5465248
16.060886 -4.7954993 2.546077
16.178001 -4.759263 2.5512238
16.203428 -4.7490001 2.5364285
15.948401 -4.6515675 2.5470672
16.187151 -4.6498513 2.548589
16.203222 -4.6471114 2.5538888
15.950924 -4.5487313 2.5433168
16.028999 -4.5123339 2.5063334
16.134224 -4.5573649 2.5505867
15.963951 -4.4543829 2.5570834
16.053907 -4.4511147 2.5457823
16.111162 -4.4596128 2.5619416
15.962 -4.3920002 2.5880001
16.08325 -4.3917499 2.5911248
16.112667 -4.3911667 2.5906668
15.960701 -4.853332 2.6517694
16.04678 -4.8465157 2.6543188
16.141832 -4.8097506 2.6296668
15.944003 -4.7491822 2.6508789
16.077608 -4.7918696 2.6545653
16.173477 -4.7593818 2.6502256
16.204 -4.7410002 2.6703334
15.956588 -4.6582651 2.6518233
16.186928 -4.6524181 2.6491942
16.201908 -4.6375451 2.6519094
15.950462 -4.5499272 2.6514387
16.139069 -4.5605526 2.6495531
16.202499 -4.5929999 2.6195002
15.952063 -4.4447184 2.6498752
16.066166 -4.4403334 2.6420002
16.117874 -4.4488688 2.6479614
15.964703 -4.3576674 2.6520345
16.051144 -4.34971 2.6433918
16.114523 -4.35988 2.6607699
15.9795 -4.29 2.6922498
16.056301 -4.2914004 2.6897001
16.111502 -4.2868338 2.6916666
15.963218 -4.9199028 2.7678049
16.039778 -4.9150801 2.76842
15.951871 -4.8614078 2.7378521
16.065981 -4.8628697 2.7461665
16.112 -4.8309999 2.7030001
15.947893 -4.7483926 2.7485006
16.075741 -4.7864079 2.7455187
16.172554 -4.7593856 2.7502542
16.205 -4.7336001 2.7486
15.954645 -4.6563544 2.7502258
16.18688 -4.6504788 2.7490861
16.203251 -4.6554165 2.7498331
15.962049 -4.5594764 2.7477617
16.057821 -4.570559 2.7568531
16.154425 -4.5737572 2.7478974
16.20575 -4.5767503 2.7497499
15.95452 -4.4445186 2.7466664
16.089666 -4.4643335 2.7833335
16.120115 -4.4436116 2.7422826
15.956587 -4.3504829 2.7485173
16.078802 -4.3594003 2.7436001
16.121527 -4.3477707 2.7493439
15.970577 -4.2486882 2.7507114
16.052401 -4.2412143 2.7419286
16.118341 -4.2560673 2.7575538
15.979876 -4.1918745 2.7928748
16.063068 -4.1901999 2.7854669
16.117365 -4.1826367 2.7890003
16.004 -5.0110002 2.8970001
15.962205 -4.9585891 2.8525066
16.052469 -4.944243 2.8533823
15.93903 -4.8434544 2.8463335
16.068888 -4.860065 2.8487065
15.954999 -4.7478967 2.8493447
16.071468 -4.7863002 2.8497334
16.169939 -4.7561717 2.8487289
16.205 -4.73 2.836
15.954913 -4.6561179 2.845
16.185139 -4.6503491 2.8493814
16.205 -4.6750002 2.852
15.96709 -4.5760889 2.8485
16.054068 -4.574348 2.853174
16.165604 -4.5806131 2.8512359
16.202 -4.5796671 2.8243332
15.961749 -4.4217501 2.8238752
16.06275 -4.4200001 2.8299999
16.116001 -4.4107776 2.816
15.960971 -4.3482742 2.8490303
16.056997 -4.3741174 2.8661764
16.12121 -4.3412871 2.8420205
15.956519 -4.2443705 2.8564808
16.063999 -4.2220001 2.806
16.122757 -4.2498059 2.8501005
15.972074 -4.1519418 2.8521926
16.050949 -4.1405163 2.8366499
16.117016 -4.1546488 2.8545086
15.986 -4.0908747 2.8821249
16.051617 -4.0821929 2.8855767
16.119177 -4.0835299 2.8812943
15.960635 -5.0210004 2.9620678
16.03796 -5.0186667 2.9682713
15.949302 -4.9695754 2.9396746
16.062351 -4.9565563 2.9476998
15.947067 -4.8501997 2.9488003
16.065647 -4.8656716 2.9452469
16.125999 -4.8080001 2.905
15.955895 -4.7479649 2.9473577
16.057196 -4.7808909 2.9555001
16.167704 -4.7540431 2.9499848
16.202 -4.724 2.915
15.950276 -4.6555834 2.9495833
16.184399 -4.6517129 2.9500237
16.201 -4.6919999 2.9089999
15.962499 -4.5759454 2.9488611
16.046883 -4.5721178 2.9523923
16.161964 -4.5774274 2.9500659
16.201 -4.5764999 2.9460001
15.968908 -4.3224549 2.9219091
16.062834 -4.3170004 2.9243333
16.111572 -4.3148575 2.9144289
15.965 -4.2520323 2.9542899
16.054235 -4.2626467 2.9685297
16.123854 -4.2424669 2.9410672
15.955499 -4.1448894 2.9492788
16.124538 -4.1500158 2.9494147
15.897 -4.0710001 2.9519999
15.970717 -4.0506978 2.9492271
16.053097 -4.0347743 2.9349515
16.118774 -4.0542727 2.9537106
15.985143 -3.9805713 2.9872859
16.046253 -3.9807501 2.9817145
16.11644 -3.9852004 2.9762805
0 0 0 1 0 0 0 1 0 0 0 1 0 0 0 0 0 837 1 0 0
