ply
format ascii 1.0
comment PCL generated
element vertex 1767
property float x
property float y
property float z
element camera 0
property float view_px
property float view_py
property float view_pz
property float x_axisx
property float x_axisy
property float x_axisz
property float y_axisx
property float y_axisy
property float y_axisz
property float z_axisx
property float z_axisy
property float z_axisz
property float focal
property float scalex
property float scaley
property float centerx
property float centery
property int viewportx
property int viewporty
property float k1
property float k2
end_header
-19.915001 -1.127 0.30599999
-19.908001 -1.125 0.296
-19.898001 -1.12 0.28600001
-19.878 -1.1109999 0.27500001
-19.863001 -1.104 0.26499999
-19.858 -1.103 0.255
-19.844999 -1.097 0.245
-19.837 -1.0930001 0.235
-19.833 -1.092 0.226
-19.82 -1.086 0.215
-19.798 -1.076 0.205
-19.785 -1.0700001 0.19499999
-19.792999 -1.074 0.186
-19.768 -1.063 0.176
-19.764 -1.061 0.16599999
-19.754999 -1.057 0.15700001
-19.768999 -1.064 0.148
-19.773001 -1.067 0.14
-19.778 -1.0700001 0.131
-19.742001 -1.053 0.12
-19.752001 -1.058 0.112
-19.77 -1.067 0.103
-19.752001 -1.059 0.093999997
-19.752001 -1.0599999 0.085000001
-19.757 -1.063 0.075999998
-19.747999 -1.059 0.066
-19.761 -1.066 0.057999998
-19.752001 -1.062 0.048999999
-19.753 -1.063 0.039999999
-19.743999 -1.059 0.029999999
-19.747 -1.061 0.021
-19.747 -1.062 0.012
-20.007 -1.178 0.40099999
-20.02 -1.1849999 0.39300001
-20.013 -1.182 0.38299999
-19.982 -1.168 0.37
-19.996 -1.175 0.36199999
-19.969999 -1.163 0.34999999
-19.952999 -1.155 0.33899999
-19.952999 -1.156 0.329
-19.931999 -1.146 0.31799999
-19.919001 -1.14 0.308
-19.910999 -1.136 0.29699999
-19.896 -1.13 0.287
-19.889 -1.127 0.27700001
-19.881001 -1.123 0.26699999
-19.872 -1.12 0.257
-19.858999 -1.114 0.24699999
-19.851 -1.11 0.237
-19.833 -1.102 0.226
-19.82 -1.096 0.21600001
-19.82 -1.097 0.207
-19.799 -1.087 0.19599999
-19.785999 -1.081 0.18700001
-19.785999 -1.082 0.177
-19.768999 -1.074 0.167
-19.764 -1.072 0.15800001
-19.76 -1.0700001 0.149
-19.756001 -1.069 0.139
-19.761 -1.072 0.131
-19.747 -1.066 0.121
-19.757 -1.071 0.112
-19.743 -1.0650001 0.103
-19.747999 -1.067 0.093999997
-19.747999 -1.068 0.085000001
-19.735001 -1.062 0.075000003
-19.735001 -1.062 0.066
-19.739 -1.0650001 0.057999998
-19.735001 -1.064 0.048999999
-19.726 -1.0599999 0.039000001
-19.716999 -1.056 0.029999999
-19.731001 -1.063 0.022
-19.722 -1.059 0.012
-20.011999 -1.193 0.384
-19.997999 -1.186 0.373
-19.981001 -1.179 0.361
-19.975 -1.176 0.35100001
-19.948 -1.164 0.33899999
-19.938 -1.159 0.329
-19.931999 -1.156 0.31900001
-19.945999 -1.164 0.31099999
-19.907 -1.145 0.29800001
-19.898001 -1.141 0.28799999
-19.881001 -1.133 0.27700001
-19.877001 -1.132 0.26699999
-19.872999 -1.13 0.25799999
-19.862 -1.126 0.248
-19.841999 -1.1160001 0.237
-19.837999 -1.115 0.227
-19.829 -1.1109999 0.21799999
-19.812 -1.103 0.207
-19.799 -1.097 0.197
-19.791 -1.094 0.18799999
-19.778 -1.0880001 0.178
-19.76 -1.08 0.168
-19.756001 -1.0779999 0.15800001
-19.747 -1.074 0.149
-19.738001 -1.0700001 0.139
-19.739 -1.071 0.13
-19.721001 -1.063 0.12
-19.739 -1.072 0.112
-19.735001 -1.071 0.103
-19.721001 -1.0650001 0.093000002
-19.726 -1.067 0.085000001
-19.712999 -1.061 0.075000003
-19.722 -1.066 0.067000002
-19.716999 -1.0650001 0.057
-19.726 -1.0700001 0.048999999
-19.712999 -1.064 0.039000001
-19.74 -1.077 0.030999999
-19.718 -1.067 0.022
-19.722 -1.0700001 0.013
-19.996 -1.197 0.36399999
-19.981001 -1.1900001 0.35299999
-19.965 -1.182 0.34200001
-19.954 -1.177 0.331
-19.954 -1.178 0.322
-19.924 -1.164 0.31
-19.907 -1.156 0.29899999
-19.907 -1.1569999 0.28999999
-19.893999 -1.151 0.27900001
-19.886 -1.147 0.26899999
-19.868 -1.1390001 0.25799999
-19.868999 -1.14 0.249
-19.860001 -1.136 0.23899999
-19.829 -1.1210001 0.228
-19.839001 -1.126 0.219
-19.812 -1.114 0.208
-19.820999 -1.119 0.2
-19.804001 -1.1109999 0.189
-19.783001 -1.101 0.17900001
-19.768999 -1.095 0.169
-19.763 -1.092 0.15899999
-19.77 -1.096 0.15099999
-19.752001 -1.0880001 0.141
-19.747999 -1.086 0.131
-19.735001 -1.08 0.122
-19.708 -1.067 0.111
-19.712999 -1.0700001 0.103
-19.716999 -1.073 0.093999997
-19.709 -1.069 0.085000001
-19.704 -1.067 0.075000003
-19.709 -1.0700001 0.067000002
-19.712999 -1.073 0.057999998
-19.709 -1.071 0.048999999
-19.695999 -1.0650001 0.039000001
-19.709 -1.072 0.030999999
-19.705 -1.071 0.022
-19.705 -1.071 0.013
-19.975 -1.198 0.34400001
-19.950001 -1.186 0.33199999
-19.931999 -1.178 0.32100001
-19.934 -1.1799999 0.31200001
-19.924 -1.175 0.301
-19.912001 -1.17 0.29100001
-19.903 -1.166 0.28099999
-19.889999 -1.16 0.27000001
-19.882 -1.156 0.25999999
-19.867001 -1.149 0.25
-19.863001 -1.148 0.23999999
-19.856001 -1.145 0.23
-19.83 -1.132 0.219
-19.823999 -1.13 0.20999999
-19.822001 -1.1289999 0.2
-19.799999 -1.119 0.19
-19.791 -1.115 0.18000001
-19.796 -1.118 0.171
-19.774 -1.108 0.161
-19.77 -1.1059999 0.152
-19.747999 -1.096 0.141
-19.735001 -1.09 0.131
-19.731001 -1.0880001 0.122
-19.722 -1.084 0.113
-19.704 -1.076 0.103
-19.712999 -1.081 0.093999997
-19.704 -1.077 0.085000001
-19.700001 -1.076 0.075999998
-19.718 -1.085 0.068000004
-19.700001 -1.077 0.057999998
-19.709 -1.082 0.050000001
-19.700001 -1.0779999 0.039999999
-19.683001 -1.069 0.030999999
-19.683001 -1.0700001 0.022
-19.691999 -1.075 0.013
-19.940001 -1.193 0.322
-19.944 -1.1950001 0.31299999
-19.929001 -1.188 0.30199999
-19.903 -1.176 0.29100001
-19.9 -1.175 0.28099999
-19.886 -1.168 0.271
-19.872999 -1.1619999 0.25999999
-19.874001 -1.163 0.25099999
-19.861 -1.1569999 0.241
-19.857 -1.156 0.23100001
-19.839001 -1.147 0.221
-19.830999 -1.1440001 0.211
-19.822001 -1.14 0.20100001
-19.818001 -1.138 0.192
-19.796 -1.128 0.18099999
-19.783001 -1.122 0.171
-19.775 -1.118 0.162
-19.771 -1.117 0.152
-19.753 -1.108 0.142
-19.749001 -1.107 0.133
-19.735001 -1.101 0.123
-19.712999 -1.09 0.113
-19.701 -1.085 0.103
-19.700001 -1.085 0.093999997
-19.700001 -1.085 0.086000003
-19.687 -1.079 0.075999998
-19.691999 -1.082 0.067000002
-19.687 -1.08 0.057999998
-19.683001 -1.079 0.048999999
-19.688 -1.081 0.039999999
-19.688 -1.082 0.032000002
-19.688 -1.082 0.023
-19.679001 -1.0779999 0.013
-19.945 -1.206 0.30500001
-19.910999 -1.1900001 0.292
-19.907 -1.188 0.28299999
-19.900999 -1.186 0.273
-19.882999 -1.177 0.26199999
-19.865 -1.169 0.25099999
-19.861 -1.1670001 0.242
-19.853001 -1.164 0.23199999
-19.834999 -1.155 0.221
-19.830999 -1.154 0.212
-19.822001 -1.15 0.20200001
-19.818001 -1.149 0.192
-19.792 -1.136 0.182
-19.778999 -1.13 0.17200001
-19.771 -1.126 0.162
-19.749001 -1.1160001 0.152
-19.753 -1.119 0.14300001
-19.745001 -1.115 0.133
-19.736 -1.1109999 0.124
-19.718 -1.103 0.114
-19.718 -1.103 0.105
-19.705 -1.097 0.094999999
-19.705 -1.098 0.086000003
-19.684 -1.087 0.077
-19.674 -1.0829999 0.067000002
-19.67 -1.082 0.048999999
-19.666 -1.08 0.039999999
-19.684 -1.09 0.032000002
-19.67 -1.0829999 0.023
-19.91 -1.2 0.28400001
-19.900999 -1.196 0.27399999
-19.886999 -1.1900001 0.26300001
-19.877001 -1.1849999 0.25299999
-19.870001 -1.182 0.243
-19.857 -1.176 0.233
-19.844 -1.17 0.223
-19.829 -1.163 0.212
-19.823 -1.161 0.20299999
-19.813999 -1.1569999 0.193
-19.809999 -1.155 0.184
-19.792 -1.147 0.17299999
-19.784 -1.143 0.164
-19.784 -1.1440001 0.154
-19.763 -1.133 0.14399999
-19.75 -1.127 0.134
-19.745001 -1.126 0.125
-19.723 -1.115 0.115
-19.723 -1.1160001 0.106
-19.705999 -1.107 0.096000001
-19.697001 -1.103 0.086999997
-19.697001 -1.104 0.078000002
-19.691 -1.101 0.068999998
-19.896999 -1.206 0.26499999
-19.881001 -1.198 0.25400001
-19.879 -1.198 0.245
-19.849001 -1.182 0.233
-19.858 -1.188 0.22499999
-19.830999 -1.175 0.213
-19.827 -1.174 0.204
-19.819 -1.17 0.19400001
-19.801001 -1.161 0.184
-19.778999 -1.151 0.17299999
-19.778999 -1.151 0.164
-19.771999 -1.148 0.154
-19.763 -1.1440001 0.145
-19.75 -1.138 0.13500001
-19.737 -1.132 0.125
-19.740999 -1.135 0.117
-19.719 -1.124 0.106
-19.709999 -1.12 0.097000003
-19.715 -1.123 0.088
-19.688 -1.11 0.078000002
-19.68 -1.1059999 0.068999998
-19.674999 -1.104 0.059999999
-19.666 -1.1 0.050000001
-19.858999 -1.198 0.244
-19.858999 -1.198 0.235
-19.851 -1.1950001 0.22499999
-19.844999 -1.192 0.215
-19.836 -1.188 0.205
-19.815001 -1.178 0.19499999
-19.815001 -1.178 0.185
-19.802 -1.1720001 0.175
-19.792999 -1.168 0.16599999
-19.775999 -1.16 0.155
-19.768 -1.1569999 0.146
-19.764 -1.155 0.13699999
-19.75 -1.149 0.127
-19.742001 -1.145 0.117
-19.729 -1.1390001 0.108
-19.733 -1.141 0.098999999
-19.707001 -1.128 0.088
-19.698 -1.125 0.079000004
-19.693001 -1.123 0.07
-19.665001 -1.109 0.059999999
-19.68 -1.117 0.052000001
-19.861 -1.21 0.226
-19.837999 -1.199 0.215
-19.837 -1.199 0.206
-19.827999 -1.1950001 0.19599999
-19.823999 -1.194 0.18700001
-19.82 -1.192 0.177
-19.802 -1.184 0.167
-19.783001 -1.174 0.15700001
-19.771999 -1.169 0.147
-19.754999 -1.161 0.13699999
-19.754999 -1.1619999 0.12800001
-19.746 -1.158 0.118
-19.715 -1.142 0.108
-19.729 -1.15 0.098999999
-19.704 -1.138 0.089000002
-19.707001 -1.1390001 0.079999998
-19.688999 -1.131 0.07
-19.676001 -1.125 0.061000001
-19.681 -1.127 0.052000001
-19.844 -1.2130001 0.21699999
-19.846001 -1.214 0.207
-19.834999 -1.209 0.198
-19.82 -1.202 0.18700001
-19.815001 -1.2 0.178
-19.794001 -1.189 0.167
-19.789 -1.188 0.15800001
-19.775999 -1.182 0.148
-19.771999 -1.1799999 0.138
-19.76 -1.174 0.12899999
-19.733 -1.161 0.118
-19.729 -1.159 0.109
-19.725 -1.158 0.1
-19.712 -1.151 0.090000004
-19.698 -1.145 0.079999998
-19.698 -1.146 0.071000002
-19.672001 -1.133 0.061000001
-19.667999 -1.131 0.052000001
-19.827 -1.215 0.198
-19.83 -1.217 0.189
-19.823 -1.214 0.17900001
-19.802999 -1.204 0.168
-19.790001 -1.198 0.15800001
-19.781 -1.194 0.149
-19.777 -1.193 0.139
-19.764 -1.186 0.13
-19.756001 -1.183 0.12
-19.750999 -1.181 0.111
-19.721001 -1.166 0.1
-19.716 -1.164 0.090999998
-19.708 -1.16 0.082000002
-19.694 -1.154 0.071999997
-19.681 -1.148 0.061999999
-19.667999 -1.142 0.035
-19.83 -1.229 0.18000001
-19.822001 -1.225 0.17
-19.799 -1.214 0.16
-19.781 -1.205 0.15000001
-19.777 -1.2029999 0.14
-19.768 -1.199 0.131
-19.747 -1.189 0.12
-19.747 -1.1900001 0.111
-19.733999 -1.183 0.101
-19.725 -1.179 0.092
-19.708 -1.171 0.082000002
-19.695 -1.164 0.072999999
-19.690001 -1.163 0.063000001
-19.686001 -1.161 0.054000001
-19.673 -1.154 0.045000002
-19.667999 -1.153 0.035999998
-19.804001 -1.227 0.161
-19.777 -1.2130001 0.15000001
-19.777 -1.214 0.141
-19.768 -1.21 0.131
-19.754999 -1.2029999 0.121
-19.743 -1.198 0.112
-19.739 -1.196 0.102
-19.726 -1.1900001 0.093000002
-19.704 -1.179 0.082999997
-19.708 -1.182 0.074000001
-19.677 -1.166 0.064000003
-19.695 -1.176 0.055
-19.677 -1.1670001 0.046
-19.673 -1.165 0.037
-19.773001 -1.222 0.15099999
-19.785999 -1.229 0.142
-19.773001 -1.223 0.132
-19.757999 -1.215 0.122
-19.739 -1.206 0.112
-19.733999 -1.204 0.103
-19.726 -1.2 0.093000002
-19.716999 -1.196 0.083999999
-19.726 -1.201 0.075000003
-19.695 -1.1849999 0.064999998
-19.686001 -1.182 0.056000002
-19.691 -1.184 0.046999998
-19.673 -1.176 0.037
-19.781 -1.237 0.133
-19.753 -1.223 0.123
-19.756001 -1.225 0.114
-19.743 -1.219 0.104
-19.735001 -1.215 0.093999997
-19.712999 -1.204 0.083999999
-19.712999 -1.205 0.075000003
-19.708 -1.2029999 0.066
-19.704 -1.201 0.057
-19.695 -1.197 0.048
-19.669001 -1.184 0.037999999
-19.669001 -1.184 0.028999999
-19.665001 -1.182 0.02
-19.756001 -1.235 0.114
-19.75 -1.233 0.105
-19.743 -1.23 0.096000001
-19.733 -1.225 0.086000003
-19.704 -1.21 0.075999998
-19.691 -1.204 0.066
-19.691 -1.205 0.057
-19.687 -1.2029999 0.048
-19.672001 -1.1950001 0.037999999
-19.669001 -1.194 0.028999999
-19.746 -1.2410001 0.106
-19.740999 -1.24 0.086999997
-19.722 -1.23 0.077
-19.705 -1.221 0.067000002
-19.705 -1.222 0.057999998
-19.687 -1.2130001 0.048999999
-19.687 -1.2130001 0.039999999
-19.683001 -1.212 0.029999999
-19.695999 -1.227 0.059
-19.695999 -1.228 0.048999999
-19.674 -1.217 0.039999999
-19.674 -1.217 0.030999999
-19.674 -1.2180001 0.022
-19.687 -1.235 0.032000002
-19.665001 -1.223 0.022
-19.681 -1.24 0.041000001
-19.67 -1.2359999 0.023
-20.648001 -0.30000001 2.665
-20.639 -0.32600001 2.658
-20.643 -0.32300001 2.6429999
-19.673 -1.079 0.072999999
-20.636 -0.34799999 2.6530001
-20.646999 -0.33899999 2.641
-20.659 -0.33000001 2.6300001
-19.716 -1.063 0.112
-19.709999 -1.068 0.098999999
-19.688999 -1.084 0.086000003
-19.687 -1.085 0.072999999
-20.628 -0.373 2.6470001
-20.643999 -0.36000001 2.6370001
-20.646999 -0.35800001 2.622
-20.639 -0.36399999 2.6029999
-19.738001 -1.062 0.15000001
-19.722 -1.074 0.13699999
-19.726 -1.071 0.124
-19.712999 -1.081 0.112
-19.702999 -1.089 0.098999999
-19.694 -1.096 0.086000003
-19.686001 -1.102 0.072999999
-19.67 -1.115 0.061000001
-20.629 -0.391 2.6440001
-20.625 -0.39399999 2.6259999
-20.653 -0.37200001 2.6210001
-20.646999 -0.377 2.602
-20.656 -0.37 2.5899999
-19.743 -1.075 0.163
-19.74 -1.076 0.15000001
-19.753 -1.067 0.13699999
-19.721001 -1.091 0.124
-19.721001 -1.091 0.112
-19.709999 -1.1 0.098999999
-19.705999 -1.104 0.086000003
-19.686001 -1.119 0.072999999
-19.690001 -1.1160001 0.061000001
-19.666 -1.1339999 0.048
-20.634001 -0.40599999 2.6429999
-20.629999 -0.40900001 2.625
-20.627001 -0.41100001 2.608
-20.65 -0.39399999 2.5999999
-20.660999 -0.38499999 2.5880001
-20.653999 -0.38999999 2.569
-19.789 -1.056 0.20200001
-19.778 -1.0650001 0.189
-19.763 -1.075 0.176
-19.761 -1.077 0.163
-19.740999 -1.092 0.15000001
-19.745001 -1.089 0.13699999
-19.737 -1.095 0.124
-19.722 -1.108 0.112
-19.714001 -1.114 0.098999999
-19.694 -1.1289999 0.086000003
-19.698 -1.126 0.072999999
-19.681999 -1.138 0.061000001
-19.666 -1.15 0.048
-20.643999 -0.417 2.6589999
-20.625 -0.43099999 2.6359999
-20.625 -0.43200001 2.6199999
-20.643 -0.41800001 2.6099999
-20.642 -0.41800001 2.5940001
-20.652 -0.41100001 2.5810001
-20.667 -0.39899999 2.5710001
-19.809 -1.057 0.229
-19.792999 -1.069 0.215
-19.805 -1.059 0.20200001
-19.785 -1.075 0.189
-19.785 -1.075 0.176
-19.761 -1.0930001 0.163
-19.749001 -1.102 0.15000001
-19.749001 -1.102 0.13699999
-19.737 -1.1109999 0.124
-19.716999 -1.127 0.112
-19.729 -1.118 0.098999999
-19.705 -1.136 0.086000003
-19.684999 -1.151 0.074000001
-19.684999 -1.151 0.061000001
-19.677 -1.1569999 0.048
-19.673 -1.16 0.035999998
-20.643 -0.43599999 2.6559999
-20.641001 -0.43799999 2.638
-20.636999 -0.44 2.6210001
-20.629 -0.447 2.602
-20.632999 -0.44400001 2.5869999
-20.639999 -0.43799999 2.5739999
-20.643 -0.43599999 2.559
-20.655001 -0.42699999 2.5469999
-20.645 -0.435 2.527
-19.834999 -1.053 0.26800001
-19.837999 -1.051 0.255
-19.837 -1.051 0.242
-19.813999 -1.069 0.229
-19.815001 -1.068 0.21600001
-19.802999 -1.077 0.20200001
-19.788 -1.089 0.189
-19.768999 -1.104 0.176
-19.768999 -1.104 0.163
-19.768999 -1.104 0.15000001
-19.745001 -1.122 0.13699999
-19.740999 -1.125 0.125
-19.733 -1.131 0.112
-19.712999 -1.146 0.098999999
-19.701 -1.155 0.086000003
-19.693001 -1.161 0.074000001
-19.684 -1.168 0.061000001
-19.677 -1.173 0.048
-20.636999 -0.45899999 2.6500001
-20.641001 -0.456 2.635
-20.635 -0.461 2.6170001
-20.631001 -0.46399999 2.599
-20.625999 -0.46700001 2.582
-20.629999 -0.465 2.5669999
-20.636999 -0.45899999 2.5539999
-20.653 -0.447 2.543
-20.667 -0.43700001 2.5320001
-20.684 -0.42399999 2.5220001
-19.863001 -1.048 0.29499999
-19.861 -1.05 0.28200001
-19.847 -1.061 0.26800001
-19.839001 -1.067 0.255
-19.834999 -1.0700001 0.242
-19.819 -1.082 0.228
-19.811001 -1.0880001 0.215
-19.808001 -1.091 0.20200001
-19.785 -1.108 0.189
-19.781 -1.1109999 0.176
-19.781 -1.1109999 0.163
-19.757 -1.1289999 0.15000001
-19.757 -1.1289999 0.13699999
-19.745001 -1.138 0.125
-19.733 -1.147 0.112
-19.716 -1.161 0.098999999
-19.716999 -1.159 0.086000003
-19.697001 -1.175 0.074000001
-19.688999 -1.181 0.061000001
-19.674 -1.192 0.048999999
-19.674 -1.192 0.035999998
-20.650999 -0.46700001 2.652
-20.638 -0.477 2.631
-20.648001 -0.47 2.618
-20.646999 -0.47 2.602
-20.635 -0.479 2.582
-20.639 -0.47600001 2.5669999
-20.629999 -0.48300001 2.5480001
-20.646 -0.47099999 2.5369999
-20.65 -0.46799999 2.523
-20.660999 -0.45899999 2.5109999
-19.912001 -1.028 0.33500001
-19.896999 -1.04 0.322
-19.906 -1.033 0.30899999
-19.891001 -1.044 0.29499999
-19.871 -1.059 0.28200001
-19.855 -1.072 0.26800001
-19.84 -1.082 0.255
-19.839001 -1.0829999 0.242
-19.830999 -1.089 0.229
-19.819 -1.098 0.215
-19.799999 -1.113 0.20200001
-19.796 -1.115 0.189
-19.785 -1.124 0.176
-19.773001 -1.133 0.163
-19.767 -1.138 0.15000001
-19.753 -1.148 0.13699999
-19.745001 -1.155 0.125
-19.733 -1.164 0.112
-19.716999 -1.176 0.098999999
-19.712999 -1.179 0.086000003
-19.705 -1.1849999 0.074000001
-19.697001 -1.191 0.061000001
-19.697001 -1.191 0.048
-19.673 -1.209 0.035999998
-19.669001 -1.212 0.023
-20.643999 -0.491 2.6459999
-20.643999 -0.491 2.6300001
-20.636999 -0.49599999 2.6110001
-20.635 -0.49700001 2.595
-20.636 -0.49700001 2.579
-20.639 -0.495 2.5639999
-20.627001 -0.50400001 2.5439999
-20.638 -0.495 2.5320001
-20.634001 -0.49900001 2.5139999
-20.664 -0.47600001 2.5090001
-20.677 -0.46599999 2.4979999
-19.940001 -1.023 0.36300001
-19.929001 -1.0319999 0.34900001
-19.933001 -1.029 0.336
-19.91 -1.046 0.322
-19.889999 -1.061 0.308
-19.895 -1.058 0.29499999
-19.882999 -1.066 0.28200001
-19.870001 -1.076 0.26800001
-19.847 -1.094 0.255
-19.851 -1.091 0.242
-19.827 -1.109 0.228
-19.819 -1.115 0.215
-19.804001 -1.126 0.20200001
-19.816 -1.117 0.189
-19.784 -1.141 0.176
-19.784 -1.141 0.163
-19.773001 -1.15 0.15000001
-19.757 -1.1619999 0.13699999
-19.753 -1.165 0.125
-19.725 -1.186 0.112
-19.725 -1.186 0.098999999
-19.716999 -1.192 0.086000003
-19.701 -1.204 0.074000001
-19.700001 -1.204 0.061000001
-19.688999 -1.2130001 0.048999999
-19.672001 -1.225 0.035999998
-19.667999 -1.228 0.024
-20.646999 -0.50700003 2.6440001
-20.646 -0.50700003 2.6270001
-20.648001 -0.50599998 2.612
-20.641001 -0.51099998 2.5940001
-20.641001 -0.51200002 2.5769999
-20.636 -0.51499999 2.5599999
-20.621 -0.52700001 2.5380001
-20.639999 -0.51300001 2.529
-20.631001 -0.51899999 2.51
-20.646 -0.50800002 2.5
-20.67 -0.49000001 2.4920001
-20.664 -0.49399999 2.474
-19.952 -1.031 0.389
-19.940001 -1.04 0.37599999
-19.945 -1.036 0.36300001
-19.941 -1.039 0.34900001
-19.917999 -1.057 0.33500001
-19.906 -1.066 0.322
-19.91 -1.062 0.30899999
-19.870001 -1.0930001 0.294
-19.882999 -1.0829999 0.28200001
-19.878 -1.086 0.26800001
-19.870001 -1.092 0.255
-19.849001 -1.108 0.242
-19.830999 -1.122 0.228
-19.827 -1.125 0.215
-19.808001 -1.1390001 0.20200001
-19.804001 -1.142 0.189
-19.799999 -1.145 0.176
-19.784 -1.1569999 0.163
-19.768 -1.169 0.15000001
-19.771999 -1.166 0.13699999
-19.747999 -1.184 0.125
-19.74 -1.1900001 0.112
-19.736 -1.193 0.098999999
-19.716 -1.2079999 0.086000003
-19.704 -1.217 0.074000001
-19.697001 -1.223 0.061000001
-19.697001 -1.223 0.048999999
-19.676001 -1.238 0.035999998
-20.659 -0.51700002 2.661
-20.653999 -0.52100003 2.6429999
-20.643 -0.52899998 2.6229999
-20.646999 -0.52600002 2.608
-20.65 -0.523 2.5940001
-20.642 -0.52999997 2.575
-20.649 -0.52399999 2.5610001
-20.641001 -0.52999997 2.5420001
-20.652 -0.52200001 2.53
-20.643999 -0.528 2.5120001
-20.632 -0.537 2.4909999
-20.650999 -0.523 2.4820001
-20.666 -0.51200002 2.471
-20.684 -0.498 2.4619999
-19.982 -1.025 0.43000001
-19.997 -1.0140001 0.41800001
-19.986 -1.022 0.40400001
-19.972 -1.033 0.38999999
-19.964001 -1.039 0.37599999
-19.948999 -1.05 0.36199999
-19.929001 -1.0650001 0.34799999
-19.91 -1.079 0.33500001
-19.917999 -1.073 0.322
-19.898001 -1.0880001 0.308
-19.878 -1.103 0.294
-19.886 -1.097 0.28099999
-19.874001 -1.1059999 0.26800001
-19.854 -1.1210001 0.255
-19.851 -1.124 0.242
-19.843 -1.1289999 0.228
-19.827999 -1.141 0.215
-19.812 -1.153 0.20200001
-19.812 -1.153 0.189
-19.796 -1.164 0.176
-19.788 -1.17 0.163
-19.775999 -1.179 0.15000001
-19.768 -1.1849999 0.13699999
-19.752001 -1.197 0.125
-19.74 -1.206 0.112
-19.729 -1.215 0.098999999
-19.719999 -1.221 0.086999997
-19.719999 -1.221 0.074000001
-19.712 -1.227 0.048999999
-20.660999 -0.53399998 2.642
-20.653999 -0.53899997 2.6240001
-20.656 -0.53799999 2.608
-20.639999 -0.55000001 2.5869999
-20.643 -0.54699999 2.572
-20.65 -0.542 2.559
-20.642 -0.54799998 2.54
-20.634001 -0.55400002 2.5209999
-20.641001 -0.54799998 2.5079999
-20.641001 -0.54900002 2.4920001
-20.632999 -0.55500001 2.473
-20.655001 -0.53799999 2.4649999
-20.656 -0.537 2.4489999
-20.667999 -0.52899998 2.437
-20.028 -1.007 0.472
-20.013 -1.0190001 0.458
-20.011999 -1.02 0.44499999
-20.002001 -1.027 0.43099999
-19.983 -1.041 0.417
-19.979 -1.044 0.403
-19.978001 -1.045 0.38999999
-19.972 -1.049 0.37599999
-19.957001 -1.0599999 0.36199999
-19.941 -1.072 0.34900001
-19.93 -1.081 0.33500001
-19.906 -1.099 0.32100001
-19.902 -1.101 0.308
-19.902 -1.101 0.29499999
-19.886 -1.114 0.28099999
-19.874001 -1.123 0.26800001
-19.862 -1.131 0.255
-19.851 -1.14 0.241
-19.827 -1.1569999 0.228
-19.832001 -1.154 0.215
-19.823999 -1.16 0.20200001
-19.808001 -1.1720001 0.189
-19.799999 -1.178 0.176
-19.788 -1.187 0.163
-19.768 -1.202 0.15000001
-19.768 -1.202 0.13699999
-19.76 -1.2079999 0.125
-19.747999 -1.217 0.112
-19.728001 -1.232 0.098999999
-19.725 -1.234 0.086999997
-20.683001 -0.53600001 2.6630001
-20.684999 -0.53399998 2.648
-20.673 -0.54299998 2.628
-20.653 -0.55800003 2.6040001
-20.652 -0.55800003 2.5880001
-20.648001 -0.56199998 2.5699999
-20.650999 -0.55900002 2.556
-20.650999 -0.55900002 2.54
-20.653999 -0.55699998 2.5250001
-20.653999 -0.55699998 2.5090001
-20.653 -0.55800003 2.493
-20.649 -0.56099999 2.4749999
-20.648001 -0.56099999 2.4590001
-20.656 -0.55599999 2.4460001
-20.660999 -0.55199999 2.4319999
-20.667 -0.54799998 2.418
-20.028999 -1.024 0.49900001
-20.056 -1.0039999 0.48699999
-20.042 -1.0140001 0.47299999
-20.040001 -1.016 0.45899999
-20.025999 -1.026 0.44499999
-20.011 -1.038 0.43099999
-20.007 -1.04 0.417
-19.987 -1.0549999 0.403
-19.98 -1.0599999 0.38999999
-19.961 -1.074 0.37599999
-19.952999 -1.08 0.36199999
-19.945 -1.086 0.34900001
-19.934 -1.095 0.33500001
-19.922001 -1.103 0.32100001
-19.91 -1.112 0.308
-19.902 -1.118 0.29499999
-19.889999 -1.127 0.28099999
-19.870001 -1.142 0.26800001
-19.870001 -1.142 0.255
-19.862 -1.148 0.242
-19.834999 -1.168 0.228
-19.839001 -1.165 0.215
-19.819 -1.1799999 0.20200001
-19.815001 -1.182 0.189
-19.799999 -1.194 0.176
-19.792 -1.2 0.163
-19.771999 -1.215 0.15000001
-19.768 -1.2180001 0.13699999
-19.768 -1.2180001 0.125
-19.752001 -1.23 0.112
-19.743 -1.2359999 0.098999999
-19.739 -1.239 0.086999997
-19.739 -1.239 0.074000001
-20.695999 -0.54500002 2.665
-20.679001 -0.55800003 2.642
-20.677 -0.55900002 2.6259999
-20.664 -0.56800002 2.605
-20.653999 -0.57599998 2.585
-20.649 -0.579 2.5680001
-20.667999 -0.565 2.559
-20.652 -0.57700002 2.5369999
-20.652 -0.57800001 2.5209999
-20.650999 -0.57800001 2.5050001
-20.643 -0.58399999 2.4860001
-20.639 -0.58700001 2.4690001
-20.642 -0.58499998 2.454
-20.653 -0.57700002 2.4419999
-20.648001 -0.57999998 2.425
-20.667 -0.56599998 2.415
-20.665001 -0.56800002 2.3989999
-20.091 -0.99400002 0.52899998
-20.072001 -1.0089999 0.514
-20.055 -1.021 0.5
-20.056999 -1.02 0.486
-20.040001 -1.033 0.472
-20.038 -1.034 0.45899999
-20.021999 -1.046 0.44400001
-20.018 -1.048 0.43099999
-20.003 -1.0599999 0.417
-19.986 -1.073 0.403
-19.988001 -1.071 0.38999999
-19.975 -1.08 0.37599999
-19.952999 -1.097 0.36199999
-19.948 -1.101 0.34799999
-19.933001 -1.1109999 0.33500001
-19.922001 -1.12 0.32100001
-19.917999 -1.123 0.308
-19.900999 -1.135 0.294
-19.893999 -1.141 0.28099999
-19.879999 -1.151 0.26800001
-19.862 -1.164 0.25400001
-19.858 -1.1670001 0.241
-19.839001 -1.181 0.228
-19.843 -1.178 0.215
-19.830999 -1.187 0.20200001
-19.823 -1.193 0.189
-19.802999 -1.2079999 0.176
-19.799 -1.211 0.163
-19.775 -1.229 0.15000001
-19.767 -1.235 0.138
-19.763 -1.238 0.125
-19.767 -1.235 0.112
-19.763 -1.238 0.098999999
-19.759001 -1.2410001 0.074000001
-19.759001 -1.2410001 0.061000001
-19.767 -1.235 0.0099999998
-20.708 -0.55400002 2.6659999
-20.695 -0.56400001 2.645
-20.683001 -0.57300001 2.625
-20.665001 -0.58600003 2.602
-20.658001 -0.59100002 2.5840001
-20.662001 -0.588 2.569
-20.658001 -0.59100002 2.552
-20.649 -0.59799999 2.533
-20.649 -0.59799999 2.517
-20.649 -0.59899998 2.5009999
-20.648001 -0.59899998 2.4849999
-20.646999 -0.59899998 2.4690001
-20.650999 -0.597 2.454
-20.65 -0.597 2.438
-20.646 -0.60100001 2.421
-20.66 -0.58999997 2.4100001
-20.67 -0.583 2.398
-20.673 -0.58099997 2.3829999
-20.113001 -0.995 0.56999999
-20.113001 -0.995 0.55699998
-20.101 -1.0039999 0.54299998
-20.087 -1.0140001 0.528
-20.091999 -1.011 0.51499999
-20.076 -1.022 0.50099999
-20.056999 -1.0369999 0.486
-20.033001 -1.054 0.47099999
-20.034 -1.054 0.458
-20.034 -1.054 0.44499999
-20.011 -1.071 0.43000001
-20.014999 -1.068 0.417
-19.995001 -1.082 0.403
-19.996 -1.082 0.38999999
-19.965 -1.105 0.375
-19.952999 -1.114 0.361
-19.952999 -1.113 0.34799999
-19.941999 -1.122 0.33500001
-19.93 -1.131 0.32100001
-19.913 -1.143 0.308
-19.900999 -1.152 0.294
-19.892 -1.159 0.28099999
-19.886 -1.163 0.26800001
-19.874001 -1.1720001 0.255
-19.855 -1.186 0.241
-19.851 -1.189 0.228
-19.847 -1.192 0.215
-19.827 -1.207 0.20200001
-19.827 -1.206 0.189
-19.806999 -1.221 0.176
-19.806999 -1.221 0.163
-19.799 -1.227 0.15000001
-19.783001 -1.239 0.138
-19.783001 -1.239 0.112
-19.783001 -1.239 0.098999999
-19.783001 -1.239 0.086000003
-19.783001 -1.239 0.074000001
-19.783001 -1.239 0.035
-19.787001 -1.2359999 0.022
-19.797001 -1.229 0.0089999996
-20.77 -0.52700001 2.6860001
-20.702 -0.57700002 2.645
-20.698 -0.57999998 2.6270001
-20.681 -0.59299999 2.605
-20.683001 -0.59100002 2.589
-20.681 -0.59299999 2.573
-20.655001 -0.61199999 2.5480001
-20.666 -0.60399997 2.536
-20.648001 -0.61699998 2.5139999
-20.665001 -0.60500002 2.5039999
-20.660999 -0.60799998 2.4860001
-20.648001 -0.61699998 2.4660001
-20.648001 -0.61699998 2.45
-20.655001 -0.61199999 2.437
-20.653999 -0.61299998 2.421
-20.639 -0.62400001 2.4000001
-20.667999 -0.602 2.3940001
-20.669001 -0.602 2.3789999
-20.674999 -0.597 2.365
-20.173 -0.96799999 0.61500001
-20.146 -0.98799998 0.59899998
-20.139999 -0.99199998 0.58499998
-20.129999 -1 0.57099998
-20.128 -1.001 0.55699998
-20.107 -1.017 0.542
-20.099001 -1.022 0.528
-20.086 -1.0319999 0.514
-20.087999 -1.03 0.50099999
-20.069 -1.045 0.486
-20.049 -1.059 0.472
-20.046 -1.062 0.458
-20.038 -1.067 0.44400001
-20.018 -1.082 0.43000001
-20.014999 -1.084 0.417
-19.992001 -1.101 0.40200001
-19.98 -1.11 0.389
-19.976999 -1.113 0.375
-19.965 -1.1210001 0.36199999
-19.951 -1.131 0.34799999
-19.927 -1.149 0.33399999
-19.941999 -1.138 0.32100001
-19.913 -1.159 0.30700001
-19.909 -1.1619999 0.294
-19.895 -1.173 0.28099999
-19.881001 -1.183 0.26800001
-19.862 -1.197 0.25400001
-19.870001 -1.191 0.241
-19.867001 -1.193 0.228
-19.858999 -1.199 0.215
-19.851 -1.205 0.20200001
-19.839001 -1.214 0.189
-19.819 -1.229 0.176
-19.811001 -1.234 0.163
-19.806999 -1.237 0.15000001
-19.802999 -1.24 0.138
-19.811001 -1.234 0.125
-19.811001 -1.234 0.112
-19.815001 -1.2309999 0.098999999
-19.823 -1.226 0.086000003
-19.815001 -1.232 0.072999999
-19.811001 -1.235 0.061000001
-19.819 -1.229 0.048
-19.818001 -1.229 0.035
-19.809999 -1.235 0.022
-19.818001 -1.229 0.0089999996
-20.782 -0.537 2.687
-20.750999 -0.55900002 2.6600001
-20.711 -0.58899999 2.6289999
-20.691999 -0.60299999 2.6059999
-20.676001 -0.61500001 2.5840001
-20.676001 -0.61500001 2.5680001
-20.671 -0.61799997 2.55
-20.665001 -0.62300003 2.5320001
-20.650999 -0.63300002 2.5109999
-20.653999 -0.63099998 2.497
-20.658001 -0.62800002 2.4820001
-20.649 -0.634 2.464
-20.66 -0.62599999 2.4519999
-20.656 -0.63 2.434
-20.648001 -0.63499999 2.4159999
-20.643999 -0.639 2.3989999
-20.650999 -0.63300002 2.385
-20.665001 -0.62300003 2.3740001
-20.660999 -0.62599999 2.3570001
-20.653999 -0.63099998 2.339
-20.177999 -0.98100001 0.64200002
-20.174999 -0.98400003 0.62800002
-20.167999 -0.98900002 0.61400002
-20.155001 -0.99800003 0.60000002
-20.149 -1.002 0.58600003
-20.138 -1.011 0.57099998
-20.125999 -1.02 0.55699998
-20.1 -1.038 0.542
-20.094999 -1.0420001 0.528
-20.087999 -1.0470001 0.514
-20.077999 -1.0549999 0.5
-20.069 -1.061 0.486
-20.045 -1.079 0.47099999
-20.046 -1.0779999 0.458
-20.030001 -1.09 0.44400001
-20.030001 -1.09 0.43000001
-20.007 -1.107 0.41600001
-19.992001 -1.118 0.40200001
-19.99 -1.119 0.389
-19.972 -1.132 0.375
-19.973 -1.132 0.36199999
-19.961 -1.14 0.34799999
-19.952999 -1.146 0.33500001
-19.931999 -1.161 0.32100001
-19.924999 -1.1670001 0.308
-19.913 -1.176 0.294
-19.905001 -1.181 0.28099999
-19.896999 -1.187 0.26800001
-19.870001 -1.207 0.25400001
-19.870001 -1.207 0.241
-19.862 -1.2130001 0.228
-19.858 -1.216 0.215
-19.849001 -1.223 0.20200001
-19.841999 -1.227 0.189
-19.837999 -1.23 0.176
-19.841999 -1.227 0.163
-19.839001 -1.23 0.15099999
-19.843 -1.227 0.138
-19.847 -1.224 0.125
-19.837 -1.2309999 0.112
-19.855 -1.2180001 0.098999999
-19.843 -1.227 0.086000003
-19.834 -1.233 0.072999999
-19.837999 -1.23 0.059999999
-19.841999 -1.227 0.048
-19.85 -1.221 0.035
-19.846001 -1.224 0.022
-19.851999 -1.22 0.0089999996
-20.792 -0.54699999 2.6719999
-20.759001 -0.57099998 2.6429999
-20.712999 -0.60500002 2.6099999
-20.700001 -0.61500001 2.5899999
-20.686001 -0.625 2.5680001
-20.677 -0.63200003 2.549
-20.667999 -0.639 2.53
-20.655001 -0.64700001 2.51
-20.663 -0.64200002 2.497
-20.658001 -0.64499998 2.48
-20.669001 -0.63800001 2.4679999
-20.669001 -0.63800001 2.4519999
-20.657 -0.64600003 2.4319999
-20.653 -0.64999998 2.415
-20.656 -0.64700001 2.4000001
-20.646 -0.65499997 2.381
-20.659 -0.64600003 2.3699999
-20.663 -0.64200002 2.355
-20.684 -0.62699997 2.346
-20.655001 -0.648 2.322
-20.216 -0.97000003 0.68599999
-20.212 -0.97299999 0.67199999
-20.212 -0.97299999 0.65799999
-20.204 -0.97899997 0.64399999
-20.183001 -0.99400002 0.62800002
-20.176001 -0.99900001 0.61400002
-20.164 -1.008 0.60000002
-20.149 -1.0190001 0.58499998
-20.136999 -1.028 0.57099998
-20.129999 -1.033 0.55699998
-20.107 -1.05 0.54100001
-20.103001 -1.053 0.528
-20.087999 -1.064 0.51300001
-20.068001 -1.0779999 0.49900001
-20.056 -1.087 0.48500001
-20.056999 -1.087 0.47099999
-20.045 -1.095 0.45699999
-20.038 -1.101 0.44400001
-20.025999 -1.109 0.43000001
-20.011 -1.12 0.41600001
-20.003 -1.126 0.40200001
-19.992001 -1.1339999 0.389
-19.986 -1.138 0.375
-19.964001 -1.154 0.361
-19.955999 -1.16 0.34799999
-19.952999 -1.163 0.33399999
-19.945 -1.168 0.32100001
-19.927999 -1.1799999 0.30700001
-19.914 -1.191 0.294
-19.905001 -1.198 0.28099999
-19.893 -1.206 0.26699999
-19.886 -1.212 0.25400001
-19.886 -1.212 0.241
-19.878 -1.217 0.228
-19.879999 -1.215 0.215
-19.868 -1.224 0.20200001
-19.858 -1.232 0.189
-19.870001 -1.223 0.177
-19.870001 -1.223 0.164
-19.874001 -1.22 0.15099999
-19.865999 -1.226 0.138
-19.874001 -1.22 0.125
-19.874001 -1.22 0.112
-19.882 -1.214 0.098999999
-19.878 -1.217 0.086000003
-19.870001 -1.223 0.072999999
-19.874001 -1.22 0.059999999
-19.874001 -1.22 0.046999998
-19.874001 -1.22 0.034000002
-19.870001 -1.223 0.021
-19.865999 -1.226 0.0089999996
-20.792 -0.56599998 2.652
-20.754 -0.59399998 2.622
-20.712 -0.62400001 2.5910001
-20.693001 -0.63800001 2.5680001
-20.700001 -0.63300002 2.5550001
-20.672001 -0.653 2.529
-20.664 -0.65899998 2.51
-20.66 -0.662 2.493
-20.656 -0.66500002 2.4760001
-20.666 -0.65799999 2.464
-20.669001 -0.65499997 2.4489999
-20.658001 -0.66399997 2.4289999
-20.657 -0.66399997 2.4130001
-20.645 -0.67299998 2.3940001
-20.643999 -0.67400002 2.378
-20.653999 -0.667 2.365
-20.658001 -0.66299999 2.3510001
-20.665001 -0.65799999 2.3380001
-20.688 -0.64200002 2.329
-20.667999 -0.65700001 2.3069999
-20.252001 -0.96100003 0.71600002
-20.240999 -0.96799999 0.70099998
-20.23 -0.977 0.68699998
-20.216999 -0.986 0.67199999
-20.198999 -0.99900001 0.65600002
-20.186001 -1.008 0.64200002
-20.183001 -1.011 0.62800002
-20.176001 -1.016 0.61400002
-20.156 -1.031 0.59899998
-20.157 -1.03 0.58499998
-20.141001 -1.0420001 0.56999999
-20.125999 -1.053 0.55599999
-20.117001 -1.059 0.542
-20.107 -1.067 0.528
-20.083 -1.084 0.51300001
-20.084 -1.0829999 0.49900001
-20.068001 -1.095 0.48500001
-20.056999 -1.103 0.47099999
-20.037001 -1.118 0.45699999
-20.042 -1.114 0.44400001
-20.034 -1.12 0.43000001
-20.018999 -1.131 0.41600001
-20.007 -1.1390001 0.40200001
-20 -1.145 0.389
-19.983999 -1.156 0.375
-19.972 -1.165 0.361
-19.954 -1.178 0.347
-19.944 -1.186 0.33399999
-19.941 -1.187 0.32100001
-19.931999 -1.194 0.30700001
-19.927 -1.198 0.294
-19.927999 -1.197 0.28099999
-19.912001 -1.2079999 0.26800001
-19.905001 -1.214 0.255
-19.907 -1.212 0.242
-19.900999 -1.217 0.229
-19.900999 -1.216 0.21600001
-19.900999 -1.216 0.20299999
-19.909 -1.21 0.19
-19.905001 -1.2130001 0.177
-19.905001 -1.2130001 0.164
-19.893999 -1.221 0.15099999
-19.914 -1.207 0.138
-19.896999 -1.219 0.125
-19.91 -1.21 0.112
-19.908001 -1.211 0.098999999
-19.908001 -1.211 0.086000003
-19.905001 -1.2130001 0.072999999
-19.922001 -1.202 0.059999999
-19.900999 -1.216 0.046999998
-19.905001 -1.214 0.034000002
-19.895 -1.221 0.021
-19.924999 -1.199 0.0080000004
-20.799 -0.579 2.635
-20.747 -0.61699998 2.5999999
-20.705 -0.648 2.569
-20.697001 -0.65399998 2.55
-20.695 -0.65499997 2.5339999
-20.677 -0.66799998 2.5120001
-20.660999 -0.68000001 2.49
-20.667999 -0.67500001 2.477
-20.671 -0.67199999 2.4619999
-20.656 -0.68400002 2.441
-20.663 -0.67799997 2.428
-20.653999 -0.685 2.4089999
-20.660999 -0.67900002 2.3959999
-20.657 -0.68300003 2.3789999
-20.652 -0.68599999 2.362
-20.659 -0.68099999 2.349
-20.659 -0.68199998 2.3329999
-20.669001 -0.67400002 2.3210001
-20.677999 -0.66799998 2.3080001
-20.632999 -0.69999999 2.2780001
-20.275 -0.96100003 0.745
-20.277 -0.95999998 0.73100001
-20.27 -0.96399999 0.71700001
-20.247999 -0.98100001 0.70099998
-20.237 -0.98900002 0.68599999
-20.216999 -1.003 0.671
-20.218 -1.002 0.65700001
-20.211 -1.008 0.64300001
-20.195 -1.0190001 0.62800002
-20.159 -1.045 0.61199999
-20.156 -1.0470001 0.59799999
-20.160999 -1.044 0.58499998
-20.145 -1.0549999 0.56999999
-20.138 -1.0599999 0.55599999
-20.118 -1.075 0.54100001
-20.111 -1.08 0.52700001
-20.094999 -1.092 0.51300001
-20.082001 -1.101 0.49900001
-20.068001 -1.1109999 0.48500001
-20.065001 -1.114 0.47099999
-20.056999 -1.119 0.45699999
-20.039 -1.133 0.44299999
-20.034 -1.136 0.42899999
-20.007 -1.156 0.41499999
-20.011 -1.153 0.40200001
-19.995001 -1.164 0.38800001
-19.996 -1.164 0.375
-19.983999 -1.173 0.361
-19.968 -1.184 0.34799999
-19.957001 -1.192 0.33399999
-19.938999 -1.205 0.31999999
-19.940001 -1.205 0.30700001
-19.940001 -1.204 0.294
-19.948 -1.198 0.28200001
-19.944 -1.201 0.26800001
-19.924 -1.216 0.255
-19.924999 -1.215 0.242
-19.924999 -1.215 0.229
-19.924999 -1.215 0.21600001
-19.933001 -1.209 0.20299999
-19.929001 -1.212 0.19
-19.933001 -1.209 0.177
-19.941 -1.2029999 0.164
-19.921 -1.2180001 0.15099999
-19.921 -1.2180001 0.138
-19.937 -1.206 0.125
-19.941999 -1.2029999 0.112
-19.937 -1.206 0.098999999
-19.941 -1.2029999 0.086000003
-19.941 -1.2029999 0.072999999
-19.945 -1.2 0.059999999
-19.933001 -1.209 0.046999998
-19.937 -1.206 0.034000002
-19.929001 -1.212 0.021
-19.941 -1.204 0.0070000002
-20.782 -0.61000001 2.6099999
-20.737 -0.64200002 2.5780001
-20.723 -0.65200001 2.5569999
-20.698999 -0.67000002 2.5320001
-20.684999 -0.68000001 2.5120001
-20.673 -0.68800002 2.4920001
-20.669001 -0.69099998 2.4749999
-20.660999 -0.69800001 2.4560001
-20.674 -0.68800002 2.4449999
-20.658001 -0.69999999 2.424
-20.67 -0.69 2.4119999
-20.658001 -0.699 2.392
-20.665001 -0.69400001 2.3789999
-20.664 -0.69499999 2.3629999
-20.667999 -0.69300002 2.349
-20.655001 -0.70200002 2.329
-20.674 -0.68800002 2.319
-20.669001 -0.69199997 2.302
-20.677 -0.68599999 2.289
-20.313999 -0.94999999 0.79000002
-20.305 -0.95599997 0.77499998
-20.302999 -0.958 0.76099998
-20.278 -0.97600001 0.745
-20.274 -0.97799999 0.73100001
-20.267 -0.98400003 0.71600002
-20.26 -0.98900002 0.70200002
-20.224001 -1.015 0.685
-20.221001 -1.017 0.671
-20.209999 -1.025 0.65600002
-20.198 -1.033 0.64099997
-20.195 -1.036 0.62800002
-20.18 -1.0470001 0.61299998
-20.166 -1.056 0.59799999
-20.165001 -1.058 0.58499998
-20.157 -1.064 0.56999999
-20.125999 -1.086 0.55500001
-20.118 -1.092 0.54100001
-20.111 -1.097 0.52700001
-20.094999 -1.108 0.51200002
-20.08 -1.119 0.498
-20.08 -1.119 0.48500001
-20.063999 -1.131 0.47099999
-20.065001 -1.13 0.45699999
-20.049 -1.142 0.44299999
-20.034 -1.152 0.42899999
-20.035 -1.152 0.41600001
-20.018999 -1.164 0.40200001
-20.011 -1.169 0.38800001
-19.989 -1.1849999 0.37400001
-19.979 -1.192 0.361
-19.98 -1.192 0.34799999
-19.968 -1.2 0.33399999
-19.972 -1.197 0.32100001
-19.964001 -1.2029999 0.308
-19.969 -1.2 0.29499999
-19.973 -1.197 0.28200001
-19.969 -1.199 0.26899999
-19.964001 -1.2029999 0.25600001
-19.965 -1.2029999 0.243
-19.969999 -1.199 0.23
-19.961 -1.205 0.21600001
-19.965 -1.202 0.20299999
-19.965 -1.202 0.19
-19.961 -1.205 0.177
-19.968 -1.2 0.164
-19.974001 -1.196 0.15099999
-19.957001 -1.2079999 0.138
-19.957001 -1.2079999 0.125
-19.965 -1.202 0.112
-19.957001 -1.2079999 0.098999999
-19.961 -1.205 0.086000003
-19.974001 -1.196 0.071999997
-19.961 -1.205 0.059999999
-19.975 -1.1950001 0.046
-19.962999 -1.204 0.033
-20.799999 -0.61500001 2.5969999
-20.74 -0.65899998 2.5599999
-20.712 -0.67900002 2.5339999
-20.701 -0.68599999 2.5139999
-20.695 -0.69099998 2.4960001
-20.681999 -0.69999999 2.4760001
-20.669001 -0.70999998 2.4560001
-20.673 -0.70700002 2.441
-20.664 -0.713 2.4230001
-20.667 -0.71100003 2.408
-20.671 -0.708 2.3940001
-20.666 -0.71200001 2.3759999
-20.660999 -0.71499997 2.359
-20.653 -0.722 2.3410001
-20.652 -0.722 2.325
-20.659 -0.71700001 2.312
-20.67 -0.70899999 2.3
-20.688999 -0.69599998 2.29
-20.688999 -0.69599998 2.2750001
-20.347 -0.94300002 0.82099998
-20.330999 -0.95499998 0.80500001
-20.316 -0.96600002 0.78899997
-20.306 -0.97299999 0.77399999
-20.288 -0.986 0.759
-20.289 -0.98500001 0.745
-20.271 -0.99900001 0.72899997
-20.267 -1.001 0.71499997
-20.252001 -1.012 0.69999999
-20.245001 -1.017 0.68599999
-20.229 -1.028 0.671
-20.218 -1.036 0.65600002
-20.211 -1.0420001 0.64200002
-20.202999 -1.0470001 0.62800002
-20.188 -1.058 0.61299998
-20.172001 -1.069 0.59799999
-20.160999 -1.0779999 0.58399999
-20.153 -1.0829999 0.56999999
-20.129999 -1.1 0.55400002
-20.129999 -1.1 0.54100001
-20.110001 -1.114 0.52600002
-20.103001 -1.119 0.51200002
-20.094999 -1.125 0.49900001
-20.08 -1.136 0.484
-20.087999 -1.13 0.47099999
-20.056 -1.153 0.456
-20.037001 -1.166 0.442
-20.045 -1.161 0.42899999
-20.021999 -1.177 0.41499999
-20.017 -1.181 0.40200001
-20.014999 -1.183 0.38800001
-20.004999 -1.189 0.375
-20.018999 -1.179 0.36199999
-20.007999 -1.188 0.34900001
-20.004 -1.191 0.33500001
-19.988001 -1.202 0.322
-20 -1.193 0.30899999
-20.004999 -1.1900001 0.296
-20.000999 -1.193 0.28299999
-19.997 -1.1950001 0.26899999
-20.000999 -1.192 0.25600001
-19.997 -1.1950001 0.243
-19.985001 -1.204 0.23
-19.997999 -1.1950001 0.21699999
-19.993999 -1.198 0.204
-19.997999 -1.1950001 0.191
-20.002001 -1.192 0.177
-20.002001 -1.192 0.164
-20.01 -1.186 0.15099999
-20.01 -1.186 0.138
-20.002001 -1.192 0.125
-19.997999 -1.1950001 0.112
-20.002001 -1.192 0.098999999
-20.01 -1.186 0.085000001
-20.000999 -1.193 0.071999997
-20.787001 -0.64300001 2.573
-20.726999 -0.68599999 2.536
-20.705999 -0.70099998 2.513
-20.702 -0.704 2.4960001
-20.688999 -0.71399999 2.4749999
-20.677999 -0.72100002 2.4560001
-20.673 -0.72500002 2.4389999
-20.665001 -0.73100001 2.4200001
-20.667999 -0.72799999 2.4059999
-20.671 -0.72600001 2.391
-20.677999 -0.72100002 2.378
-20.674 -0.72399998 2.3610001
-20.665001 -0.73100001 2.342
-20.664 -0.73100001 2.326
-20.66 -0.73500001 2.309
-20.659 -0.73500001 2.2939999
-20.67 -0.727 2.2809999
-20.677 -0.722 2.2679999
-20.694 -0.70999998 2.2579999
-20.368999 -0.94400001 0.86400002
-20.386999 -0.93199998 0.852
-20.367001 -0.94599998 0.83600003
-20.358999 -0.95099998 0.82099998
-20.337999 -0.96700001 0.80500001
-20.344 -0.96200001 0.79100001
-20.311001 -0.986 0.77399999
-20.312 -0.98500001 0.75999999
-20.290001 -1.001 0.74400002
-20.278 -1.0089999 0.72899997
-20.271 -1.015 0.71499997
-20.257999 -1.024 0.69999999
-20.243999 -1.034 0.685
-20.229 -1.045 0.67000002
-20.222 -1.05 0.65600002
-20.209 -1.0599999 0.64099997
-20.195 -1.0700001 0.62599999
-20.191999 -1.072 0.61299998
-20.174999 -1.084 0.59799999
-20.164 -1.092 0.583
-20.149 -1.103 0.56900001
-20.132999 -1.114 0.55400002
-20.125999 -1.119 0.54000002
-20.114 -1.128 0.52600002
-20.103001 -1.136 0.51200002
-20.094999 -1.141 0.498
-20.094 -1.142 0.48500001
-20.076 -1.155 0.47
-20.063999 -1.164 0.456
-20.058001 -1.168 0.44299999
-20.049999 -1.174 0.42899999
-20.034 -1.1849999 0.41499999
-20.034 -1.1849999 0.40200001
-20.021999 -1.193 0.38800001
-20.027 -1.1900001 0.375
-20.042999 -1.178 0.36300001
-20.027 -1.1900001 0.34900001
-20.028 -1.1900001 0.336
-20.028 -1.189 0.32300001
-20.024 -1.192 0.30899999
-20.033001 -1.186 0.296
-20.037001 -1.183 0.28299999
-20.028999 -1.189 0.27000001
-20.042 -1.1799999 0.257
-20.028999 -1.188 0.244
-20.042 -1.1799999 0.23100001
-20.034 -1.1849999 0.21699999
-20.042 -1.179 0.204
-20.034 -1.1849999 0.191
-20.042 -1.179 0.178
-20.030001 -1.188 0.164
-20.030001 -1.188 0.15099999
-20.038 -1.182 0.138
-20.041 -1.1799999 0.125
-20.035 -1.184 0.112
-20.782 -0.66500002 2.553
-20.733 -0.69999999 2.5190001
-20.702 -0.722 2.493
-20.698999 -0.72399998 2.4760001
-20.686001 -0.73299998 2.4560001
-20.693001 -0.72799999 2.4430001
-20.677 -0.74000001 2.4219999
-20.669001 -0.74599999 2.4030001
-20.664 -0.74900001 2.3859999
-20.667 -0.74699998 2.3710001
-20.674 -0.74199998 2.358
-20.666 -0.74800003 2.3399999
-20.665001 -0.74900001 2.3239999
-20.667999 -0.74599999 2.309
-20.667 -0.74699998 2.2939999
-20.674 -0.74199998 2.28
-20.676001 -0.741 2.2650001
-20.68 -0.73799998 2.2509999
-20.694 -0.72799999 2.24
-20.421 -0.92400002 0.912
-20.407 -0.93400002 0.89600003
-20.402 -0.93900001 0.88099998
-20.395 -0.94300002 0.866
-20.384001 -0.95099998 0.85100001
-20.360001 -0.96799999 0.83399999
-20.358999 -0.96899998 0.81999999
-20.346001 -0.97799999 0.80500001
-20.330999 -0.98900002 0.78899997
-20.313 -1.002 0.77399999
-20.308001 -1.005 0.759
-20.301001 -1.011 0.745
-20.278 -1.027 0.72899997
-20.267 -1.035 0.71399999
-20.264 -1.0369999 0.69999999
-20.253 -1.045 0.685
-20.229 -1.062 0.66900003
-20.226 -1.064 0.65499997
-20.214001 -1.073 0.64099997
-20.211 -1.075 0.62699997
-20.195 -1.086 0.61199999
-20.179001 -1.098 0.597
-20.164 -1.108 0.583
-20.165001 -1.108 0.56900001
-20.141001 -1.125 0.55400002
-20.134001 -1.13 0.54000002
-20.134001 -1.13 0.52700001
-20.108999 -1.148 0.51200002
-20.103001 -1.152 0.498
-20.087 -1.163 0.484
-20.079 -1.169 0.47
-20.072001 -1.174 0.45699999
-20.052999 -1.188 0.442
-20.056999 -1.1849999 0.42899999
-20.061001 -1.182 0.41600001
-20.058001 -1.184 0.403
-20.049999 -1.1900001 0.389
-20.062 -1.181 0.37599999
-20.059 -1.183 0.36300001
-20.063 -1.181 0.34999999
-20.066999 -1.178 0.33700001
-20.059999 -1.183 0.32300001
-20.056 -1.1849999 0.31
-20.068001 -1.177 0.29699999
-20.068001 -1.177 0.28400001
-20.073 -1.174 0.271
-20.061001 -1.182 0.257
-20.052999 -1.188 0.244
-20.058001 -1.184 0.23100001
-20.054001 -1.187 0.21699999
-20.073 -1.173 0.204
-20.065001 -1.179 0.191
-20.062 -1.181 0.178
-20.077999 -1.17 0.16500001
-20.065001 -1.179 0.15099999
-20.576 -0.82800001 2.9820001
-20.808001 -0.66399997 2.559
-20.771999 -0.69 2.53
-20.719 -0.727 2.4960001
-20.73 -0.72000003 2.484
-20.709 -0.73500001 2.461
-20.693001 -0.74599999 2.4400001
-20.681999 -0.75400001 2.4200001
-20.677 -0.75800002 2.4030001
-20.684 -0.75300002 2.3900001
-20.672001 -0.76099998 2.3699999
-20.671 -0.76200002 2.3540001
-20.667 -0.76499999 2.3369999
-20.665001 -0.76700002 2.3210001
-20.667999 -0.764 2.3069999
-20.659 -0.77100003 2.2880001
-20.658001 -0.77100003 2.273
-20.657 -0.77200001 2.257
-20.672001 -0.76099998 2.2460001
-20.67 -0.76300001 2.23
-20.698999 -0.74199998 2.223
-20.443001 -0.926 0.92699999
-20.451 -0.92000002 0.91399997
-20.426001 -0.93900001 0.89700001
-20.410999 -0.949 0.88099998
-20.403999 -0.954 0.866
-20.392 -0.96200001 0.85100001
-20.368 -0.98000002 0.83399999
-20.361 -0.98500001 0.81900001
-20.348 -0.99400002 0.80400002
-20.339001 -1.001 0.78899997
-20.319 -1.0140001 0.773
-20.308001 -1.022 0.75800002
-20.302 -1.027 0.74400002
-20.288 -1.0369999 0.72899997
-20.277 -1.044 0.71399999
-20.264 -1.054 0.699
-20.264 -1.053 0.68599999
-20.239 -1.071 0.67000002
-20.232 -1.077 0.65499997
-20.212 -1.091 0.63999999
-20.207001 -1.095 0.62599999
-20.197001 -1.102 0.61199999
-20.174999 -1.117 0.597
-20.172001 -1.119 0.583
-20.165001 -1.125 0.56900001
-20.146999 -1.137 0.55400002
-20.139999 -1.142 0.54000002
-20.122 -1.155 0.52600002
-20.118 -1.158 0.51200002
-20.106001 -1.166 0.498
-20.105 -1.1670001 0.48500001
-20.099001 -1.171 0.47099999
-20.091999 -1.176 0.45699999
-20.108 -1.165 0.44499999
-20.093 -1.176 0.43099999
-20.097 -1.173 0.41800001
-20.098 -1.1720001 0.40400001
-20.098 -1.1720001 0.391
-20.094 -1.175 0.377
-20.094999 -1.174 0.36399999
-20.097 -1.1720001 0.35100001
-20.103001 -1.168 0.338
-20.1 -1.171 0.324
-20.1 -1.171 0.31099999
-20.115 -1.16 0.29800001
-20.098 -1.1720001 0.28400001
-20.101 -1.17 0.271
-20.101 -1.17 0.25799999
-20.105 -1.1670001 0.245
-20.097 -1.173 0.23100001
-20.091999 -1.177 0.21799999
-20.110001 -1.164 0.205
-20.108999 -1.164 0.191
-20.113001 -1.161 0.178
-20.804001 -0.685 2.539
-20.773001 -0.708 2.5120001
-20.728001 -0.73900002 2.48
-20.719 -0.74599999 2.461
-20.701 -0.759 2.4400001
-20.693001 -0.76499999 2.421
-20.674 -0.778 2.3989999
-20.677 -0.77600002 2.385
-20.672001 -0.77899998 2.368
-20.68 -0.77399999 2.3540001
-20.674999 -0.77700001 2.3369999
-20.673 -0.77899998 2.3210001
-20.669001 -0.78200001 2.3039999
-20.67 -0.78100002 2.289
-20.671 -0.77999997 2.2739999
-20.666 -0.78399998 2.257
-20.677 -0.77600002 2.2449999
-20.681999 -0.77200001 2.2309999
-20.691 -0.76599997 2.2179999
-20.693001 -0.76499999 2.2030001
-20.472 -0.92299998 0.97299999
-20.488001 -0.912 0.95999998
-20.473 -0.92199999 0.94400001
-20.459 -0.93199998 0.92799997
-20.447001 -0.94099998 0.91299999
-20.422001 -0.95899999 0.89600003
-20.424999 -0.95599997 0.88200003
-20.41 -0.96700001 0.866
-20.391001 -0.98100001 0.85000002
-20.379999 -0.98799998 0.83499998
-20.377001 -0.99000001 0.81999999
-20.354 -1.007 0.80400002
-20.330999 -1.023 0.78799999
-20.330999 -1.023 0.77399999
-20.313 -1.036 0.75800002
-20.306 -1.041 0.74400002
-20.294001 -1.049 0.72899997
-20.278999 -1.0599999 0.71399999
-20.280001 -1.059 0.69999999
-20.256001 -1.076 0.68400002
-20.240999 -1.087 0.66900003
-20.229 -1.095 0.65499997
-20.218 -1.103 0.63999999
-20.218 -1.103 0.62599999
-20.202999 -1.114 0.61199999
-20.165001 -1.141 0.59500003
-20.165001 -1.141 0.58200002
-20.172001 -1.136 0.56900001
-20.153 -1.15 0.55400002
-20.132999 -1.164 0.53899997
-20.138 -1.16 0.52600002
-20.125999 -1.169 0.51200002
-20.125999 -1.168 0.49900001
-20.122999 -1.171 0.48500001
-20.118999 -1.173 0.472
-20.120001 -1.173 0.458
-20.120001 -1.173 0.44499999
-20.125 -1.169 0.43200001
-20.132999 -1.163 0.419
-20.129999 -1.166 0.405
-20.125999 -1.168 0.39199999
-20.135 -1.1619999 0.37900001
-20.122999 -1.171 0.36500001
-20.125 -1.169 0.352
-20.132999 -1.163 0.33899999
-20.129999 -1.166 0.32499999
-20.132 -1.164 0.31200001
-20.131001 -1.165 0.29899999
-20.141001 -1.158 0.285
-20.145 -1.155 0.27200001
-20.129 -1.1670001 0.25799999
-20.129 -1.1670001 0.245
-20.138 -1.161 0.23199999
-20.134001 -1.163 0.21799999
-20.122999 -1.171 0.205
-20.561001 -0.87400001 2.984
-20.792999 -0.71100003 2.516
-20.766001 -0.73000002 2.4909999
-20.733999 -0.75300002 2.464
-20.719 -0.764 2.4430001
-20.702 -0.77499998 2.4219999
-20.702 -0.77600002 2.4059999
-20.677 -0.79299998 2.382
-20.681 -0.79100001 2.368
-20.67 -0.79799998 2.348
-20.67 -0.79799998 2.3329999
-20.674 -0.796 2.319
-20.683001 -0.78899997 2.306
-20.667999 -0.80000001 2.286
-20.674999 -0.79500002 2.273
-20.67 -0.79799998 2.256
-20.679001 -0.792 2.243
-20.671 -0.79699999 2.2249999
-20.677 -0.79400003 2.211
-20.688 -0.78500003 2.2
-20.695 -0.77999997 2.1860001
