ply
format ascii 1.0
comment PCL generated
element vertex 1863
property float x
property float y
property float z
element camera 0
property float view_px
property float view_py
property float view_pz
property float x_axisx
property float x_axisy
property float x_axisz
property float y_axisx
property float y_axisy
property float y_axisz
property float z_axisx
property float z_axisy
property float z_axisz
property float focal
property float scalex
property float scaley
property float centerx
property float centery
property int viewportx
property int viewporty
property float k1
property float k2
end_header
19.110001 3.096 0.616
19.1 3.0840001 0.60799998
19.091 3.0739999 0.59899998
19.082001 3.0639999 0.59100002
19.075001 3.056 0.58200002
19.065001 3.0450001 0.57300001
19.063999 3.043 0.56400001
19.047001 3.0239999 0.55599999
19.044001 3.02 0.546
19.040001 3.0150001 0.537
19.025999 2.9990001 0.52899998
19.032 3.007 0.51800001
18.987 2.9560001 0.32300001
18.973 2.9400001 0.31400001
19.552 3.582 2.9630001
19.576 3.6099999 2.9300001
19.576 3.6099999 2.9189999
19.573 3.6059999 2.911
19.591999 3.6289999 2.882
19.583 3.618 2.8789999
19.58 3.615 2.8710001
19.584999 3.6199999 2.855
19.584 3.6199999 2.8440001
19.584 3.6199999 2.8329999
19.584 3.6199999 2.823
19.580999 3.6159999 2.8139999
19.589001 3.625 2.7969999
19.597 3.635 2.779
19.576 3.6110001 2.7850001
19.576 3.6110001 2.7739999
19.582001 3.618 2.7579999
19.572001 3.6059999 2.756
19.563 3.596 2.7520001
19.555 3.5869999 2.7479999
19.556 3.5880001 2.7360001
19.551001 3.582 2.7290001
19.542999 3.572 2.7249999
19.542999 3.573 2.714
19.530001 3.5580001 2.7130001
19.537001 3.5650001 2.697
19.525 3.552 2.6960001
19.527 3.5539999 2.684
19.513 3.539 2.6830001
19.518999 3.5450001 2.668
19.504999 3.5280001 2.668
19.5 3.523 2.661
19.490999 3.5120001 2.658
19.497999 3.5209999 2.641
19.493999 3.516 2.6340001
19.476999 3.4960001 2.6359999
19.471001 3.49 2.6289999
19.469 3.4879999 2.6199999
19.459 3.4760001 2.6159999
19.444 3.4590001 2.6170001
19.451 3.4660001 2.6010001
19.447001 3.4619999 2.5929999
19.431999 3.4449999 2.5929999
19.43 3.4430001 2.5840001
19.422001 3.4330001 2.579
19.423 3.434 2.5669999
19.424 3.4360001 2.556
19.415001 3.425 2.5510001
19.413 3.4230001 2.5420001
19.396 3.4030001 2.5439999
19.174999 3.155 1.003
19.163 3.141 0.99599999
19.169001 3.148 0.98500001
19.17 3.1489999 0.97500002
19.162001 3.1400001 0.96700001
19.17 3.1489999 0.95599997
19.176001 3.1559999 0.94499999
19.172001 3.151 0.93599999
19.174999 3.154 0.926
19.173 3.1530001 0.91600001
19.172001 3.152 0.90700001
19.167999 3.1470001 0.898
19.177 3.1570001 0.88700002
19.173 3.152 0.87800002
19.169001 3.148 0.86900002
19.174 3.154 0.85799998
19.160999 3.1389999 0.85100001
19.174 3.154 0.83899999
19.172001 3.152 0.82999998
19.167 3.1470001 0.82099998
19.174 3.154 0.81
19.17 3.1489999 0.801
19.171 3.151 0.79100001
19.174 3.154 0.78100002
19.17 3.1500001 0.77200001
19.166 3.145 0.76300001
19.167999 3.148 0.75300002
19.167999 3.1470001 0.74400002
19.167 3.1459999 0.73400003
19.166 3.1459999 0.72500002
19.172001 3.152 0.71399999
19.171 3.152 0.70499998
19.160999 3.1400001 0.69700003
19.163 3.1429999 0.68699998
19.163 3.1429999 0.67699999
19.152 3.1300001 0.66900003
19.139 3.115 0.662
19.132 3.1070001 0.653
19.125 3.098 0.64399999
19.115 3.0869999 0.63599998
19.118 3.0899999 0.62599999
19.107 3.0780001 0.61799997
19.097 3.066 0.60900003
19.09 3.0580001 0.60000002
19.089001 3.0580001 0.59100002
19.083 3.05 0.58200002
19.072001 3.0380001 0.57300001
19.055 3.0179999 0.56599998
19.048 3.01 0.55699998
19.051001 3.013 0.546
19.042 3.0039999 0.53799999
19.028 2.987 0.52899998
18.988001 2.941 0.324
18.985001 2.938 0.31400001
19.563 3.582 2.9360001
19.573 3.5940001 2.9159999
19.58 3.6010001 2.8989999
19.57 3.5910001 2.8959999
19.573999 3.595 2.881
19.583 3.6059999 2.862
19.583 3.605 2.8510001
19.58 3.602 2.8429999
19.584999 3.6070001 2.8280001
19.587 3.6099999 2.8139999
19.579 3.5999999 2.8110001
19.59 3.6129999 2.79
19.591999 3.6159999 2.777
19.586 3.6099999 2.7709999
19.584 3.6070001 2.7620001
19.58 3.6029999 2.7539999
19.573 3.5940001 2.7490001
19.565001 3.585 2.7449999
19.563999 3.5840001 2.7349999
19.562 3.5810001 2.7260001
19.552999 3.5710001 2.7219999
19.556 3.575 2.7090001
19.539 3.5550001 2.711
19.549 3.566 2.6930001
19.535 3.55 2.6930001
19.528 3.5420001 2.688
19.533001 3.5480001 2.6730001
19.521 3.5339999 2.6719999
19.52 3.533 2.6619999
19.514999 3.527 2.654
19.493999 3.503 2.6600001
19.504 3.5150001 2.641
19.496 3.5050001 2.6370001
19.497 3.506 2.625
19.488001 3.4960001 2.6210001
19.476999 3.483 2.619
19.464001 3.4679999 2.618
19.466999 3.4719999 2.605
19.450001 3.4519999 2.6059999
19.452999 3.4549999 2.5940001
19.448999 3.451 2.585
19.436001 3.4360001 2.585
19.431999 3.431 2.5769999
19.433001 3.4319999 2.5650001
19.427 3.425 2.559
19.410999 3.4059999 2.5599999
19.413 3.4089999 2.5469999
19.407 3.4030001 2.54
19.407 3.402 2.53
19.399 3.3929999 2.5250001
19.188999 3.1559999 1.021
19.184 3.151 1.012
19.177 3.1429999 1.0039999
19.179001 3.145 0.99400002
19.187 3.154 0.98299998
19.191999 3.1600001 0.972
19.179001 3.1440001 0.96499997
19.177999 3.1429999 0.95599997
19.195999 3.165 0.94199997
19.181999 3.1489999 0.935
19.184 3.151 0.92500001
19.187 3.154 0.91500002
19.186001 3.1530001 0.90499997
19.181999 3.148 0.89700001
19.194 3.1619999 0.884
19.18 3.1459999 0.87800002
19.184999 3.1530001 0.86699998
19.176001 3.142 0.85900003
19.181 3.148 0.84899998
19.174 3.1389999 0.83999997
19.176001 3.142 0.82999998
19.174999 3.141 0.82099998
19.187 3.155 0.80900002
19.188999 3.1570001 0.79900002
19.184999 3.1530001 0.79000002
19.181999 3.1489999 0.78100002
19.174 3.141 0.773
19.186001 3.154 0.76099998
19.179001 3.1459999 0.75300002
19.176001 3.142 0.74400002
19.177 3.1440001 0.73400003
19.183001 3.151 0.72299999
19.177 3.1429999 0.71499997
19.172001 3.138 0.70599997
19.174999 3.141 0.69599998
19.171 3.1359999 0.68699998
19.157 3.1210001 0.67900002
19.152 3.115 0.67000002
19.139999 3.1010001 0.66299999
19.139 3.0999999 0.653
19.129 3.0880001 0.64499998
19.128 3.0880001 0.63499999
19.122 3.0799999 0.62599999
19.108 3.0639999 0.61900002
19.098 3.052 0.61000001
19.091 3.0439999 0.60100001
19.087 3.04 0.59200001
19.08 3.0320001 0.583
19.07 3.02 0.57499999
19.063 3.0120001 0.56599998
19.054001 3.0009999 0.55699998
19.042999 2.9890001 0.54799998
18.993 2.9330001 0.324
18.988001 2.927 0.31400001
19.538 3.539 2.9530001
19.58 3.5880001 2.905
19.579 3.5869999 2.8940001
19.577999 3.586 2.8840001
19.587999 3.5969999 2.8640001
19.587 3.596 2.8540001
19.577999 3.586 2.8499999
19.577999 3.586 2.839
19.583 3.592 2.8239999
19.584999 3.595 2.8110001
19.584999 3.5940001 2.8
19.584999 3.5940001 2.789
19.587 3.5969999 2.776
19.580999 3.5899999 2.77
19.58 3.5880001 2.76
19.576 3.585 2.7520001
19.580999 3.5899999 2.737
19.57 3.5780001 2.7349999
19.561001 3.5669999 2.7320001
19.559999 3.566 2.7219999
19.559 3.5639999 2.7119999
19.556 3.5610001 2.7030001
19.549 3.553 2.698
19.549 3.553 2.687
19.538 3.5409999 2.6849999
19.532 3.533 2.6789999
19.534 3.5350001 2.6670001
19.521 3.5209999 2.6659999
19.517 3.516 2.658
19.506001 3.5039999 2.6559999
19.506001 3.5039999 2.645
19.497999 3.494 2.6400001
19.497999 3.494 2.6289999
19.500999 3.497 2.6170001
19.49 3.484 2.6140001
19.483999 3.4779999 2.6070001
19.472 3.4630001 2.6059999
19.465 3.4549999 2.6010001
19.459999 3.45 2.5929999
19.452999 3.441 2.5880001
19.455999 3.4449999 2.575
19.441999 3.4289999 2.5739999
19.441999 3.4300001 2.563
19.444 3.431 2.5510001
19.431999 3.418 2.549
19.421 3.404 2.546
19.423 3.4070001 2.5339999
19.426001 3.4100001 2.5209999
19.414 3.3970001 2.5190001
19.412001 3.3940001 2.5090001
19.406 3.3870001 2.503
19.208 3.164 1.0369999
19.202999 3.158 1.029
19.193001 3.1459999 1.022
19.188 3.141 1.013
19.198999 3.154 1.001
19.191999 3.145 0.99299997
19.201 3.155 0.98100001
19.200001 3.154 0.972
19.195 3.1489999 0.963
19.198 3.152 0.95300001
19.200001 3.155 0.94300002
19.191999 3.1459999 0.935
19.201 3.1559999 0.92299998
19.209999 3.1670001 0.91100001
19.195999 3.1500001 0.90499997
19.188999 3.142 0.89700001
19.198 3.152 0.88499999
19.212999 3.1700001 0.87199998
19.198999 3.154 0.866
19.201 3.1570001 0.85500002
19.191 3.145 0.84799999
19.195999 3.151 0.83700001
19.198999 3.154 0.82700002
19.201 3.1570001 0.81699997
19.197001 3.152 0.80800003
19.202999 3.1600001 0.79699999
19.202999 3.1589999 0.78799999
19.195 3.1500001 0.77999997
19.204 3.1600001 0.76899999
19.202999 3.1589999 0.759
19.195999 3.151 0.75099999
19.198 3.154 0.741
19.194 3.1489999 0.73199999
19.184 3.1370001 0.72399998
19.183001 3.1359999 0.71499997
19.169001 3.1199999 0.70700002
19.174999 3.1270001 0.69700003
19.167999 3.119 0.68800002
19.160999 3.1099999 0.68000001
19.148001 3.095 0.67199999
19.146999 3.095 0.66299999
19.134001 3.0799999 0.65499997
19.134001 3.079 0.64499998
19.120001 3.063 0.63700002
19.115999 3.059 0.62800002
19.108999 3.0510001 0.61900002
19.105 3.046 0.61000001
19.098 3.0380001 0.60100001
19.087999 3.026 0.59299999
19.070999 3.006 0.58499998
19.069 3.0039999 0.57599998
19.058001 2.9909999 0.56699997
19.009001 2.9360001 0.32300001
19.025 2.9549999 0.31200001
19.566999 3.559 2.911
19.573999 3.5680001 2.8929999
19.587999 3.585 2.869
19.577 3.572 2.8670001
19.587 3.5840001 2.848
19.580999 3.5769999 2.842
19.584 3.5799999 2.8280001
19.580999 3.576 2.8199999
19.589001 3.585 2.802
19.586 3.5829999 2.793
19.584999 3.582 2.783
19.573999 3.569 2.7809999
19.584999 3.5810001 2.7609999
19.584999 3.5810001 2.75
19.58 3.576 2.743
19.572001 3.566 2.7390001
19.576 3.5710001 2.7249999
19.559999 3.552 2.7279999
19.566999 3.5610001 2.711
19.556999 3.5480001 2.7079999
19.558001 3.55 2.6960001
19.547001 3.5369999 2.694
19.549 3.54 2.6819999
19.552999 3.5439999 2.668
19.537001 3.526 2.6689999
19.530001 3.517 2.664
19.527 3.5150001 2.655
19.525999 3.513 2.6459999
19.516001 3.5009999 2.6429999
19.514 3.4990001 2.6329999
19.507999 3.4920001 2.6270001
19.504 3.487 2.619
19.495001 3.477 2.615
19.493 3.4749999 2.6059999
19.490999 3.4719999 2.5969999
19.485001 3.4649999 2.5899999
19.469 3.447 2.592
19.469 3.447 2.5810001
19.469 3.447 2.5699999
19.458 3.434 2.5669999
19.445 3.418 2.566
19.444 3.418 2.556
19.438 3.4100001 2.55
19.43 3.402 2.5439999
19.412001 3.381 2.5469999
19.426001 3.3970001 2.526
19.416 3.385 2.5220001
19.413 3.382 2.513
19.414 3.382 2.5020001
19.409 3.3770001 2.494
19.385 3.349 2.5009999
19.225 3.1689999 1.044
19.205 3.1459999 1.04
19.207001 3.1470001 1.03
19.205999 3.1459999 1.02
19.201 3.141 1.012
19.207001 3.148 1.001
19.209 3.1500001 0.99000001
19.195 3.1340001 0.98400003
19.216 3.1589999 0.96899998
19.205999 3.1470001 0.96200001
19.208 3.1500001 0.95200002
19.214001 3.1559999 0.94099998
19.197001 3.1359999 0.935
19.215 3.158 0.921
19.207001 3.1489999 0.91299999
19.216 3.1589999 0.90200001
19.215 3.158 0.89200002
19.214001 3.1570001 0.88300002
19.214001 3.1570001 0.87300003
19.207001 3.1489999 0.86500001
19.209 3.151 0.85500002
19.208 3.1500001 0.84600002
19.207001 3.1489999 0.83700001
19.202999 3.1440001 0.82800001
19.205 3.1470001 0.81800002
19.205 3.1470001 0.80800003
19.204 3.1459999 0.79900002
19.212999 3.155 0.787
19.215 3.158 0.77700001
19.211 3.154 0.76899999
19.212999 3.1570001 0.759
19.212999 3.1559999 0.74900001
19.212 3.155 0.74000001
19.202 3.1429999 0.73199999
19.198 3.138 0.72299999
19.187 3.1259999 0.71499997
19.190001 3.1289999 0.70499998
19.17 3.1059999 0.699
19.166 3.102 0.69
19.156 3.0899999 0.68199998
19.149 3.082 0.67299998
19.155001 3.0880001 0.66299999
19.142 3.073 0.65499997
19.138 3.069 0.64600003
19.124001 3.053 0.63800001
19.120001 3.049 0.62900001
19.117001 3.0439999 0.61900002
19.1 3.0250001 0.61199999
19.086 3.0090001 0.60399997
19.082001 3.0039999 0.59500003
19.079 3 0.58499998
19.024 2.938 0.32300001
19.013 2.925 0.31299999
19.566999 3.546 2.8940001
19.573999 3.5550001 2.8759999
19.566 3.546 2.872
19.570999 3.552 2.8559999
19.573 3.5539999 2.8429999
19.584 3.5669999 2.822
19.579 3.5610001 2.816
19.580999 3.5639999 2.803
19.580999 3.563 2.7920001
19.586 3.569 2.777
19.586 3.5699999 2.766
19.583 3.566 2.7579999
19.582001 3.566 2.747
19.587999 3.572 2.7309999
19.576 3.5580001 2.73
19.568001 3.549 2.7260001
19.568001 3.549 2.7149999
19.573 3.5539999 2.7
19.562 3.5420001 2.698
19.558001 3.5369999 2.6900001
19.554001 3.533 2.6830001
19.548 3.526 2.6760001
19.546 3.523 2.668
19.545 3.523 2.6570001
19.538 3.5139999 2.652
19.528 3.5020001 2.6489999
19.530001 3.5050001 2.6359999
19.516001 3.4879999 2.6370001
19.518 3.49 2.6240001
19.509001 3.48 2.6199999
19.502001 3.471 2.615
19.503 3.4719999 2.6040001
19.497 3.4660001 2.5969999
19.486 3.4530001 2.595
19.488001 3.4549999 2.582
19.474001 3.4389999 2.582
19.468 3.431 2.576
19.465 3.428 2.5669999
19.462 3.425 2.5580001
19.448999 3.4100001 2.5569999
19.448 3.4089999 2.5469999
19.441999 3.402 2.54
19.436001 3.3940001 2.5350001
19.434999 3.3929999 2.5239999
19.421 3.3770001 2.523
19.412001 3.3670001 2.5190001
19.421 3.3770001 2.5020001
19.403 3.3559999 2.5039999
19.410999 3.365 2.487
19.402 3.355 2.4820001
19.386 3.336 2.483
19.214001 3.141 1.0779999
19.231001 3.1619999 1.064
19.211 3.1370001 1.0599999
19.216999 3.145 1.048
19.212 3.1389999 1.04
19.214001 3.141 1.03
19.212999 3.1400001 1.02
19.218 3.1459999 1.0089999
19.219999 3.1489999 0.99900001
19.216 3.1440001 0.99000001
19.228001 3.158 0.97799999
19.214001 3.142 0.972
19.219999 3.148 0.96100003
19.222 3.151 0.94999999
19.218 3.1459999 0.94199997
19.223 3.152 0.93099999
19.219 3.148 0.92199999
19.224001 3.154 0.91100001
19.218 3.1459999 0.903
19.233 3.165 0.88999999
19.218 3.1470001 0.884
19.224001 3.154 0.87300003
19.23 3.161 0.86199999
19.225 3.1559999 0.85299999
19.216 3.1440001 0.84600002
19.211 3.1389999 0.83700001
19.223 3.1530001 0.82499999
19.219 3.1489999 0.81599998
19.221001 3.151 0.80599999
19.224001 3.154 0.796
19.219999 3.1489999 0.787
19.232 3.164 0.77600002
19.215 3.1440001 0.76899999
19.208 3.135 0.76099998
19.211 3.1389999 0.75099999
19.209 3.138 0.741
19.205 3.1329999 0.73199999
19.205 3.132 0.72299999
19.181 3.105 0.71700001
19.190001 3.1159999 0.70599997
19.18 3.1029999 0.69800001
19.157 3.0769999 0.69199997
19.163 3.0840001 0.68199998
19.153 3.072 0.67400002
19.152 3.0710001 0.66399997
19.139 3.056 0.65600002
19.142 3.059 0.64600003
19.128 3.043 0.63800001
19.115 3.027 0.63
19.108 3.0190001 0.62199998
19.108 3.0190001 0.61199999
19.094 3.003 0.60399997
19.033001 2.934 0.32300001
19.038 2.9389999 0.31299999
19.436001 3.408 0.0089999996
19.552999 3.516 2.9000001
19.566 3.5320001 2.878
19.583 3.552 2.8510001
19.566999 3.533 2.855
19.573999 3.5420001 2.8369999
19.584999 3.5550001 2.816
19.579 3.5480001 2.8099999
19.579 3.5480001 2.799
19.584999 3.5539999 2.7839999
19.584 3.5539999 2.773
19.587 3.5569999 2.76
19.586 3.556 2.7490001
19.583 3.553 2.7409999
19.583 3.553 2.73
19.586 3.556 2.717
19.58 3.549 2.711
19.57 3.5380001 2.7079999
19.570999 3.539 2.6960001
19.561001 3.527 2.6930001
19.563999 3.53 2.6800001
19.559 3.5239999 2.674
19.552 3.516 2.668
19.548 3.5109999 2.661
19.545 3.5079999 2.652
19.540001 3.503 2.645
19.534 3.4960001 2.638
19.524 3.483 2.6359999
19.523001 3.4820001 2.6259999
19.521 3.48 2.6170001
19.513 3.471 2.612
19.507999 3.464 2.605
19.504 3.46 2.5969999
19.504999 3.461 2.586
19.497999 3.4530001 2.5799999
19.497 3.4530001 2.5699999
19.489 3.4430001 2.5650001
19.473 3.424 2.5669999
19.462 3.411 2.5639999
19.462999 3.4119999 2.552
19.457001 3.4059999 2.5450001
19.448 3.395 2.5409999
19.454 3.401 2.526
19.441999 3.3870001 2.5239999
19.431 3.3740001 2.5220001
19.433001 3.3770001 2.5090001
19.424999 3.368 2.5039999
19.417 3.358 2.4990001
19.419001 3.3610001 2.4860001
19.403 3.342 2.487
19.413 3.3529999 2.4690001
19.393999 3.3310001 2.4719999
19.243 3.1600001 1.073
19.216999 3.1300001 1.0700001
19.237 3.154 1.0549999
19.233 3.1489999 1.046
19.229 3.1440001 1.038
19.231001 3.1459999 1.027
19.233 3.1489999 1.017
19.238001 3.155 1.006
19.233999 3.1500001 0.99699998
19.233 3.1489999 0.98799998
19.229 3.1440001 0.97899997
19.228001 3.1429999 0.97000003
19.246 3.165 0.95599997
19.223 3.1370001 0.95200002
19.238001 3.155 0.93900001
19.23 3.1459999 0.93099999
19.236 3.154 0.92000002
19.239 3.1559999 0.91000003
19.223 3.138 0.90399998
19.239 3.1570001 0.88999999
19.245001 3.165 0.87900001
19.225 3.141 0.87400001
19.243999 3.1630001 0.861
19.236 3.154 0.85299999
19.232 3.1489999 0.84399998
19.231001 3.148 0.83499998
19.23 3.1470001 0.82499999
19.223 3.1389999 0.81699997
19.228001 3.145 0.80599999
19.228001 3.1440001 0.79699999
19.237 3.154 0.78600001
19.23 3.1470001 0.77700001
19.225 3.141 0.76899999
19.225 3.1400001 0.759
19.221001 3.1359999 0.75
19.216999 3.131 0.741
19.200001 3.1110001 0.73500001
19.198999 3.1110001 0.72500002
19.195 3.1059999 0.71600002
19.18 3.089 0.70899999
19.177999 3.086 0.69999999
19.174999 3.082 0.69099998
19.155001 3.059 0.68400002
19.158001 3.062 0.67400002
19.146999 3.05 0.66600001
19.136999 3.0380001 0.65799999
19.129999 3.03 0.64899999
19.117001 3.0139999 0.64099997
19.115999 3.013 0.63099998
19.104 2.9990001 0.62300003
19.045 2.9319999 0.322
19.052 2.941 0.31200001
19.447001 3.4059999 0.027000001
19.436001 3.3929999 0.017999999
19.441999 3.401 0.0089999996
19.568001 3.5209999 2.8699999
19.577999 3.533 2.8499999
19.572001 3.526 2.8440001
19.568001 3.5209999 2.8369999
19.577 3.5320001 2.8169999
19.58 3.5350001 2.8039999
19.577 3.5320001 2.796
19.58 3.5350001 2.7820001
19.58 3.5350001 2.7709999
19.586 3.5420001 2.7550001
19.587 3.5439999 2.743
19.584 3.54 2.7349999
19.59 3.5469999 2.7190001
19.584 3.54 2.7130001
19.587 3.5439999 2.6989999
19.577999 3.533 2.6960001
19.573 3.527 2.6889999
19.565001 3.5179999 2.6849999
19.559999 3.5120001 2.678
19.559 3.5109999 2.668
19.552999 3.5039999 2.6619999
19.552999 3.5039999 2.651
19.547001 3.497 2.645
19.545 3.494 2.6359999
19.544001 3.493 2.6259999
19.535999 3.484 2.6210001
19.528 3.4749999 2.6159999
19.521999 3.4679999 2.6099999
19.514 3.4590001 2.605
19.502001 3.444 2.6040001
19.52 3.4660001 2.579
19.507999 3.451 2.5780001
19.490999 3.4319999 2.579
19.496 3.437 2.5650001
19.485001 3.424 2.563
19.48 3.4189999 2.5550001
19.474001 3.411 2.549
19.468 3.405 2.5420001
19.459 3.3929999 2.539
19.455 3.3889999 2.53
19.445999 3.378 2.527
19.434999 3.365 2.5239999
19.441 3.3729999 2.5079999
19.436001 3.3659999 2.5009999
19.426001 3.355 2.497
19.417 3.3440001 2.493
19.417999 3.345 2.4820001
19.416 3.3429999 2.4719999
19.412001 3.3380001 2.464
19.402 3.3269999 2.46
19.254 3.1589999 1.1
19.242001 3.1440001 1.094
19.247999 3.152 1.0829999
19.24 3.142 1.075
19.245001 3.1489999 1.064
19.238001 3.1400001 1.056
19.246 3.1500001 1.044
19.245001 3.1489999 1.035
19.240999 3.1440001 1.027
19.246 3.1500001 1.015
19.249001 3.1530001 1.005
19.250999 3.155 0.995
19.253 3.158 0.98500001
19.242001 3.1459999 0.97799999
19.240999 3.145 0.96799999
19.25 3.155 0.95700002
19.254999 3.161 0.94599998
19.257999 3.164 0.93599999
19.247 3.151 0.92900002
19.253 3.158 0.91799998
19.252001 3.158 0.90799999
19.247 3.152 0.89999998
19.247 3.152 0.88999999
19.237 3.1400001 0.88300002
19.242001 3.145 0.87199998
19.240999 3.145 0.86299998
19.243 3.1470001 0.85299999
19.254999 3.161 0.84100002
19.238001 3.142 0.83499998
19.25 3.1559999 0.82300001
19.249001 3.155 0.81300002
19.247999 3.154 0.80400002
19.243999 3.1489999 0.79500002
19.237 3.141 0.787
19.236 3.1400001 0.77700001
19.226 3.128 0.76999998
19.232 3.1340001 0.759
19.218 3.118 0.75199997
19.214001 3.1140001 0.74299997
19.197001 3.0940001 0.736
19.202999 3.1010001 0.72600001
19.187 3.082 0.71899998
19.188 3.0829999 0.70899999
19.173 3.0650001 0.70200002
19.172001 3.0639999 0.69199997
19.174999 3.0669999 0.68199998
19.159 3.0480001 0.67500001
19.150999 3.04 0.66600001
19.138 3.0239999 0.65899998
19.136999 3.023 0.64899999
19.122 3.0050001 0.64099997
19.120001 3.003 0.63200003
19.062 2.937 0.322
19.065001 2.9400001 0.31200001
19.434999 3.3789999 0.035
19.448 3.3940001 0.027000001
19.450001 3.3959999 0.017999999
19.455 3.402 0.0089999996
19.542999 3.477 2.8870001
19.577999 3.5190001 2.845
19.582001 3.5239999 2.8310001
19.579 3.52 2.822
19.580999 3.523 2.809
19.584 3.526 2.796
19.584 3.526 2.7850001
19.583 3.526 2.7739999
19.58 3.5220001 2.7650001
19.583 3.526 2.7520001
19.586 3.529 2.7390001
19.58 3.5220001 2.733
19.584999 3.5280001 2.7179999
19.584999 3.5280001 2.707
19.579 3.5209999 2.701
19.584999 3.529 2.6849999
19.577 3.5190001 2.6800001
19.568001 3.5079999 2.677
19.565001 3.5050001 2.668
19.562 3.5009999 2.6600001
19.563999 3.503 2.6470001
19.552 3.49 2.6459999
19.556999 3.4949999 2.631
19.555 3.493 2.622
19.542 3.4779999 2.6210001
19.547001 3.483 2.6070001
19.538 3.473 2.6029999
19.52 3.4519999 2.6059999
19.518 3.45 2.596
19.514999 3.4460001 2.5880001
19.509001 3.438 2.582
19.51 3.4400001 2.5699999
19.490999 3.418 2.573
19.504 3.4330001 2.553
19.5 3.428 2.546
19.48 3.404 2.55
19.489 3.415 2.5320001
19.476 3.4000001 2.5309999
19.466999 3.3900001 2.526
19.462999 3.385 2.5179999
19.452999 3.3729999 2.5150001
19.444 3.362 2.5109999
19.444 3.362 2.5
19.444 3.362 2.4890001
19.436001 3.3529999 2.484
19.431999 3.3469999 2.477
19.421 3.335 2.473
19.407 3.319 2.4719999
19.410999 3.323 2.4590001
19.405001 3.316 2.4519999
19.391001 3.299 2.451
19.347 3.2479999 2.47
19.266001 3.158 1.119
19.275 3.1689999 1.1059999
19.264 3.1559999 1.1
19.254 3.1440001 1.0930001
19.257999 3.1489999 1.082
19.257 3.148 1.073
19.259001 3.1500001 1.062
19.257999 3.1489999 1.053
19.254 3.1440001 1.044
19.264999 3.158 1.0319999
19.271999 3.1659999 1.02
19.257 3.148 1.015
19.264999 3.158 1.003
19.264 3.1570001 0.99299997
19.267 3.1600001 0.98299998
19.261999 3.155 0.97500002
19.257999 3.1500001 0.96600002
19.257 3.1489999 0.95700002
19.271999 3.1659999 0.94400001
19.261999 3.155 0.93599999
19.261 3.1530001 0.92699999
19.257 3.148 0.91799998
19.266001 3.1589999 0.90700001
19.267 3.161 0.89700001
19.254999 3.1470001 0.88999999
19.253 3.1440001 0.88099998
19.256001 3.148 0.87099999
19.261 3.1530001 0.86000001
19.253 3.145 0.852
19.261999 3.155 0.84100002
19.254999 3.1470001 0.833
19.261 3.1530001 0.82200003
19.253 3.145 0.81400001
19.261999 3.155 0.80199999
19.245001 3.1359999 0.796
19.246 3.1359999 0.787
19.240999 3.1300001 0.778
19.243 3.1329999 0.76800001
19.223 3.109 0.76200002
19.219 3.105 0.75300002
19.215 3.0999999 0.74400002
19.211 3.095 0.73500001
19.195 3.076 0.72799999
19.181999 3.0599999 0.72100002
19.190001 3.0710001 0.70999998
19.183001 3.063 0.70099998
19.174 3.0510001 0.69300002
19.17 3.0469999 0.68400002
19.159 3.0350001 0.676
19.152 3.026 0.667
19.135 3.006 0.66000003
19.129999 3 0.65100002
19.066999 2.927 0.322
19.063 2.9219999 0.31200001
19.443001 3.3740001 0.061999999
19.436001 3.3659999 0.052999999
19.447001 3.3789999 0.044
19.447001 3.3789999 0.035
19.451 3.3840001 0.026000001
19.459 3.3929999 0.017999999
19.466 3.401 0.0089999996
19.555 3.4779999 2.8599999
19.573 3.5 2.8329999
19.577 3.5039999 2.819
19.573999 3.5 2.8099999
19.584999 3.5139999 2.789
19.582001 3.51 2.7809999
19.579 3.507 2.7720001
19.584 3.513 2.757
19.584 3.513 2.7460001
19.580999 3.51 2.737
19.586 3.516 2.7219999
19.584 3.513 2.7130001
19.580999 3.5090001 2.7049999
19.594 3.526 2.6830001
19.587999 3.5190001 2.6760001
19.57 3.497 2.6800001
19.573999 3.5009999 2.6670001
19.572001 3.5 2.6570001
19.563999 3.49 2.652
19.559999 3.4860001 2.645
19.563 3.4890001 2.632
19.565001 3.4909999 2.619
19.552 3.4760001 2.619
19.540001 3.4619999 2.6170001
19.538 3.4590001 2.608
19.530001 3.4489999 2.6040001
19.530001 3.4489999 2.5929999
19.516001 3.434 2.592
19.525999 3.4460001 2.5739999
19.514 3.431 2.573
19.516001 3.434 2.5599999
19.511 3.427 2.553
19.502001 3.4170001 2.549
19.499001 3.4130001 2.5409999
19.49 3.4030001 2.536
19.487 3.3989999 2.527
19.475 3.385 2.526
19.474001 3.3829999 2.516
19.466 3.375 2.51
19.464001 3.372 2.5009999
19.451 3.3559999 2.5
19.454 3.3599999 2.487
19.436001 3.339 2.4890001
19.437 3.3399999 2.477
19.426001 3.3269999 2.4749999
19.42 3.3199999 2.4679999
19.407 3.3039999 2.467
19.410999 3.309 2.4530001
19.409 3.306 2.4430001
19.41 3.3080001 2.4319999
19.407 3.3039999 2.4230001
19.388 3.2820001 2.425
19.283001 3.164 1.125
19.275999 3.155 1.118
19.266001 3.1440001 1.1109999
19.271 3.1489999 1.1
19.266001 3.1440001 1.091
19.268999 3.1470001 1.081
19.274 3.1530001 1.0700001
19.278999 3.1589999 1.059
19.275 3.154 1.05
19.277 3.1570001 1.04
19.268999 3.148 1.033
19.275 3.154 1.021
19.274 3.1530001 1.012
19.273001 3.152 1.003
19.268 3.1470001 0.99400002
19.274 3.1530001 0.98299998
19.27 3.1489999 0.97500002
19.278 3.1589999 0.963
19.277 3.158 0.954
19.278999 3.1600001 0.94400001
19.268999 3.1489999 0.93599999
19.271999 3.151 0.926
19.268 3.1470001 0.91799998
19.264 3.142 0.90899998
19.268 3.148 0.898
19.274 3.155 0.88700002
19.273001 3.1530001 0.87800002
19.275 3.1559999 0.86799997
19.274 3.155 0.85900003
19.273001 3.154 0.84899998
19.275999 3.1570001 0.83899999
19.268999 3.148 0.83099997
19.268 3.1470001 0.82200003
19.264 3.1429999 0.81300002
19.266001 3.1459999 0.80299997
19.256001 3.1340001 0.79500002
19.242001 3.1170001 0.78899997
19.240999 3.1159999 0.77899998
19.237 3.112 0.76999998
19.23 3.1029999 0.76200002
19.219999 3.0910001 0.75400001
19.207001 3.076 0.74699998
19.205999 3.075 0.73699999
19.205999 3.0739999 0.72799999
19.202 3.069 0.71899998
19.195 3.0610001 0.70999998
19.181999 3.046 0.70300001
19.174999 3.0369999 0.69400001
19.174 3.0369999 0.685
19.158001 3.017 0.67699999
19.141001 2.997 0.67000002
19.149 3.006 0.65899998
19.087999 2.9360001 0.32100001
19.077 2.924 0.31200001
19.434 3.349 0.079000004
19.440001 3.3559999 0.07
19.438 3.3540001 0.061000001
19.441999 3.359 0.052999999
19.445 3.3629999 0.044
19.452999 3.3729999 0.035
19.459999 3.381 0.026000001
19.466 3.388 0.017999999
19.466 3.388 0.0089999996
19.563999 3.4749999 2.835
19.575001 3.4879999 2.8150001
19.577 3.4909999 2.8010001
19.58 3.494 2.7880001
19.570999 3.484 2.7839999
19.579 3.494 2.766
19.576 3.4909999 2.7579999
19.579 3.494 2.744
19.582001 3.497 2.7309999
19.579 3.494 2.723
19.576 3.49 2.714
19.587 3.503 2.694
19.582001 3.497 2.688
19.579 3.493 2.6789999
19.587 3.503 2.6619999
19.573999 3.4879999 2.661
19.587 3.5039999 2.6400001
19.576 3.49 2.638
19.568001 3.4809999 2.6329999
19.565001 3.477 2.625
19.562 3.474 2.6159999
19.552 3.4619999 2.6129999
19.549 3.4579999 2.605
19.552 3.4619999 2.592
19.539 3.447 2.5910001
19.540001 3.448 2.579
19.521999 3.4260001 2.5829999
19.527 3.4319999 2.5680001
19.517 3.421 2.5639999
19.514999 3.418 2.556
19.511999 3.414 2.5469999
19.504999 3.4059999 2.5409999
19.487 3.3840001 2.5439999
19.493999 3.3940001 2.527
19.493999 3.3929999 2.517
19.479 3.375 2.5179999
19.466 3.3599999 2.516
19.469999 3.365 2.5020001
19.459 3.3510001 2.4990001
19.455999 3.3469999 2.4909999
19.459 3.352 2.477
19.438999 3.3269999 2.4820001
19.438999 3.3280001 2.471
19.433001 3.3210001 2.464
19.438999 3.3280001 2.4489999
19.434 3.322 2.4419999
19.417 3.3010001 2.4430001
19.409 3.2920001 2.437
19.412001 3.296 2.424
19.392 3.2720001 2.428
19.382 3.26 2.4230001
19.291 3.158 1.145
19.282 3.1470001 1.138
19.283001 3.148 1.128
19.280001 3.145 1.119
19.278999 3.1440001 1.109
19.281 3.1470001 1.099
19.280001 3.145 1.09
19.275999 3.1400001 1.081
19.287001 3.154 1.068
19.285999 3.1530001 1.059
19.285 3.152 1.05
19.284 3.1500001 1.04
19.280001 3.145 1.0319999
19.282 3.148 1.021
19.284 3.151 1.011
19.280001 3.1459999 1.003
19.289 3.1559999 0.991
19.285 3.152 0.98199999
19.283001 3.1500001 0.97299999
19.289 3.1559999 0.96200001
19.288 3.155 0.95300001
19.296 3.165 0.94099998
19.283001 3.1500001 0.935
19.278999 3.145 0.926
19.278 3.1440001 0.917
19.283001 3.1500001 0.90600002
19.295 3.164 0.89399999
19.278 3.1440001 0.88800001
19.283001 3.151 0.87699997
19.283001 3.1500001 0.86799997
19.282 3.1489999 0.85900003
19.281 3.148 0.84899998
19.280001 3.1470001 0.83999997
19.282 3.1500001 0.82999998
19.288 3.1559999 0.81900001
19.268 3.1329999 0.81400001
19.261 3.1240001 0.80599999
19.257 3.119 0.79699999
19.256001 3.118 0.787
19.236 3.095 0.78200001
19.226 3.082 0.77399999
19.225 3.082 0.764
19.221001 3.0769999 0.755
19.216999 3.072 0.74599999
19.211 3.0650001 0.73799998
19.207001 3.0599999 0.72899997
19.193001 3.0439999 0.72100002
19.190001 3.04 0.71200001
19.183001 3.0320001 0.704
19.173 3.0190001 0.69599998
19.149 2.9909999 0.69
19.134001 2.973 0.68199998
19.091999 2.925 0.322
19.094 2.928 0.31099999
19.434 3.335 0.088
19.438 3.3399999 0.079000004
19.436001 3.3369999 0.07
19.444 3.3469999 0.061000001
19.457001 3.3629999 0.052999999
19.451 3.355 0.044
19.464001 3.3710001 0.035
19.469999 3.3789999 0.027000001
19.486 3.3970001 0.017999999
19.482 3.3929999 0.0089999996
19.523001 3.4119999 2.865
19.579 3.4790001 2.806
19.587 3.4890001 2.7880001
19.575001 3.4749999 2.7869999
19.580999 3.4820001 2.7709999
19.577999 3.4779999 2.7620001
19.572001 3.471 2.756
19.586 3.4879999 2.733
19.586 3.4879999 2.723
19.586 3.4879999 2.7119999
19.58 3.4809999 2.7049999
19.58 3.4809999 2.6949999
19.587999 3.49 2.677
19.58 3.4809999 2.6730001
19.587999 3.49 2.655
19.577 3.4779999 2.6530001
19.579 3.48 2.641
19.57 3.4690001 2.6370001
19.569 3.4690001 2.6270001
19.566999 3.4660001 2.618
19.563 3.461 2.6099999
19.556 3.4530001 2.605
19.556 3.4530001 2.5940001
19.548 3.4430001 2.589
19.542999 3.437 2.582
19.535 3.428 2.5780001
19.528 3.4189999 2.573
19.527 3.418 2.562
19.524 3.415 2.5539999
19.514999 3.404 2.549
19.51 3.398 2.543
19.5 3.3859999 2.539
19.504999 3.392 2.5250001
19.497 3.3829999 2.52
19.49 3.3740001 2.5150001
19.487 3.3710001 2.5050001
19.482 3.365 2.4979999
19.473 3.3540001 2.494
19.469 3.349 2.4860001
19.469 3.349 2.4760001
19.445999 3.3210001 2.4820001
19.450001 3.3269999 2.4679999
19.445999 3.3210001 2.46
19.434999 3.309 2.4560001
19.434999 3.309 2.4460001
19.419001 3.29 2.4460001
19.424 3.296 2.4319999
19.417 3.2869999 2.4260001
19.415001 3.2839999 2.4170001
19.405001 3.273 2.4119999
19.406 3.2739999 2.401
19.399 3.266 2.395
19.308001 3.164 1.151
19.294001 3.1470001 1.146
19.294001 3.1470001 1.136
19.308001 3.1630001 1.122
19.299999 3.155 1.115
19.290001 3.142 1.108
19.301001 3.1559999 1.095
19.299999 3.154 1.086
19.296 3.1489999 1.0779999
19.295 3.148 1.068
19.294001 3.1470001 1.059
19.305 3.161 1.046
19.309999 3.1670001 1.035
19.302999 3.158 1.027
19.296 3.1500001 1.02
19.301001 3.1559999 1.0089999
19.299999 3.155 0.99900001
19.299 3.154 0.99000001
19.302 3.1570001 0.98000002
19.306999 3.164 0.96899998
19.302 3.158 0.96100003
19.298 3.1530001 0.95200002
19.299999 3.1559999 0.94199997
19.306 3.1630001 0.93099999
19.292 3.1459999 0.92500001
19.297001 3.152 0.91399997
19.292999 3.148 0.90499997
19.292 3.1470001 0.89600003
19.292 3.1459999 0.88700002
19.297001 3.152 0.87599999
19.296 3.151 0.86699998
19.292 3.1459999 0.85799998
19.298 3.1530001 0.847
19.294001 3.148 0.83899999
19.278 3.1289999 0.83200002
19.278999 3.131 0.82200003
19.27 3.1199999 0.815
19.264999 3.1140001 0.80599999
19.254999 3.102 0.79900002
19.247 3.0929999 0.79000002
19.24 3.085 0.78200001
19.24 3.0840001 0.773
19.229 3.072 0.76499999
19.223 3.0639999 0.75599998
19.222 3.063 0.74699998
19.215 3.0550001 0.73799998
19.198999 3.036 0.73100001
19.198 3.0350001 0.722
19.191 3.026 0.713
19.176001 3.0079999 0.70599997
19.167 2.997 0.69800001
19.164 2.994 0.68800002
19.103001 2.9230001 0.32100001
19.107 2.928 0.31099999
19.431 3.3180001 0.106
19.434 3.3210001 0.097000003
19.429001 3.3150001 0.088
19.437 3.325 0.079000004
19.458 3.349 0.07
19.454 3.346 0.061000001
19.466999 3.3610001 0.052999999
19.474001 3.369 0.044
19.474001 3.369 0.035
19.476999 3.3729999 0.026000001
19.499001 3.3989999 0.017999999
19.502001 3.4030001 0.0099999998
19.554001 3.4360001 2.8210001
19.573 3.4579999 2.7939999
19.576 3.4619999 2.78
19.573 3.4590001 2.7720001
19.579 3.4649999 2.756
19.573 3.4590001 2.75
19.576 3.4619999 2.737
19.577999 3.4649999 2.723
19.580999 3.4679999 2.71
19.580999 3.4679999 2.6989999
19.584 3.4719999 2.6860001
19.586 3.4749999 2.6730001
19.586 3.4749999 2.6619999
19.589001 3.4779999 2.6489999
19.583 3.471 2.6429999
19.580999 3.4690001 2.6340001
19.566999 3.4519999 2.6340001
19.565001 3.45 2.6240001
19.568001 3.454 2.6110001
19.569 3.4549999 2.599
19.556999 3.4400001 2.598
19.561001 3.4449999 2.585
19.555 3.438 2.5780001
19.549999 3.4319999 2.5710001
19.539 3.4189999 2.569
19.539 3.4189999 2.5580001
19.525 3.402 2.5580001
19.531 3.4100001 2.5420001
19.521999 3.398 2.539
19.517 3.392 2.5320001
19.511 3.3859999 2.5250001
19.511999 3.3859999 2.5139999
19.496 3.368 2.5139999
19.496 3.368 2.5039999
19.497 3.369 2.493
19.495001 3.3659999 2.483
19.483999 3.3529999 2.48
19.481001 3.3499999 2.4719999
19.468 3.3340001 2.471
19.473 3.3399999 2.4560001
19.464001 3.329 2.4519999
19.448 3.3099999 2.4519999
19.441999 3.303 2.4460001
19.433001 3.2909999 2.4419999
19.429001 3.2869999 2.4330001
19.427 3.2839999 2.424
19.423 3.28 2.4159999
19.423 3.28 2.405
19.407 3.2609999 2.405
19.41 3.2639999 2.3929999
19.402 3.2550001 2.3870001
19.386 3.2360001 2.3870001
19.313999 3.1559999 1.171
19.309 3.1500001 1.163
19.298 3.1359999 1.1569999
19.313999 3.1559999 1.142
19.306999 3.1470001 1.1339999
19.306 3.1459999 1.125
19.304001 3.145 1.1160001
19.302999 3.1429999 1.1059999
19.308001 3.1500001 1.095
19.309999 3.152 1.085
19.309 3.151 1.076
19.311001 3.1530001 1.066
19.306999 3.148 1.057
19.312 3.155 1.046
19.311001 3.154 1.0369999
19.316999 3.1600001 1.026
19.299999 3.1400001 1.021
19.315001 3.158 1.007
19.308001 3.1500001 0.99900001
19.316999 3.161 0.98699999
19.320999 3.165 0.977
19.309999 3.1530001 0.97000003
19.313 3.1559999 0.95999998
19.312 3.155 0.94999999
19.302 3.1429999 0.94300002
19.299999 3.141 0.93400002
19.312 3.155 0.92199999
19.308001 3.1500001 0.91299999
19.297001 3.138 0.90600002
19.312 3.1559999 0.89300001
19.306 3.148 0.88499999
19.311001 3.154 0.87400001
19.302999 3.145 0.86699998
19.312 3.1559999 0.85500002
19.305 3.1470001 0.847
19.285 3.1229999 0.84200001
19.281 3.118 0.833
19.274 3.1099999 0.82499999
19.273001 3.109 0.81599998
19.256001 3.089 0.80900002
19.259001 3.092 0.79900002
19.254999 3.0869999 0.79000002
19.245001 3.075 0.78299999
19.238001 3.066 0.77399999
19.228001 3.0550001 0.76599997
19.23 3.0580001 0.75599998
19.219999 3.0450001 0.74900001
19.207001 3.03 0.741
19.205999 3.029 0.73100001
19.187 3.0050001 0.72500002
19.173 2.9890001 0.71799999
19.171 2.9860001 0.708
19.128 2.938 0.31999999
19.118999 2.927 0.31099999
19.421 3.2909999 0.133
19.447001 3.323 0.124
19.448 3.323 0.115
19.443001 3.3180001 0.106
19.433001 3.306 0.097000003
19.436001 3.309 0.088
19.448 3.3239999 0.079000004
19.461 3.3399999 0.07
19.474001 3.355 0.061999999
19.474001 3.355 0.052999999
19.48 3.3629999 0.044
19.48 3.3629999 0.035
19.486 3.3699999 0.027000001
19.502001 3.3900001 0.017999999
19.506001 3.3940001 0.0099999998
19.565001 3.434 2.796
19.569 3.4400001 2.7809999
19.583 3.4560001 2.7579999
19.577 3.4489999 2.7520001
19.58 3.4530001 2.7390001
19.579 3.4530001 2.7279999
19.579 3.4530001 2.717
19.579 3.4530001 2.7060001
19.582001 3.4560001 2.6930001
19.576 3.4489999 2.687
19.584999 3.4590001 2.6689999
19.576 3.4489999 2.665
19.584999 3.4590001 2.6470001
19.584999 3.46 2.6359999
19.584 3.4590001 2.6259999
19.575001 3.448 2.622
19.58 3.454 2.6070001
19.572001 3.4449999 2.6029999
19.575001 3.448 2.589
19.563999 3.4349999 2.5869999
19.558001 3.428 2.5810001
19.559 3.4300001 2.569
19.551001 3.4189999 2.5650001
19.537001 3.4030001 2.5650001
19.542999 3.4089999 2.55
19.535999 3.401 2.5439999
19.528999 3.3929999 2.5380001
19.52 3.382 2.5339999
19.52 3.3829999 2.523
19.51 3.3699999 2.52
19.503 3.362 2.5150001
19.504999 3.365 2.5020001
19.507 3.3670001 2.49
19.496 3.3529999 2.4879999
19.49 3.346 2.4809999
19.485001 3.3410001 2.474
19.479 3.3329999 2.467
19.474001 3.3280001 2.46
19.469 3.3210001 2.4530001
19.458 3.3069999 2.45
19.454 3.303 2.4419999
19.445999 3.2939999 2.437
19.440001 3.286 2.431
19.438 3.2839999 2.421
19.43 3.2739999 2.4159999
19.424999 3.2679999 2.408
19.424999 3.2679999 2.398
19.419001 3.2609999 2.391
19.407 3.247 2.388
19.408001 3.2479999 2.3770001
19.410999 3.2509999 2.3640001
19.323999 3.1530001 1.1900001
19.327999 3.158 1.179
19.326 3.155 1.17
19.320999 3.1489999 1.161
19.323 3.152 1.151
19.315001 3.1429999 1.1440001
19.323 3.1530001 1.132
19.325001 3.155 1.1210001
19.327 3.158 1.1109999
19.32 3.1489999 1.104
19.322001 3.151 1.094
19.323999 3.154 1.0829999
19.334999 3.168 1.0700001
19.322001 3.151 1.0650001
19.320999 3.1500001 1.0549999
19.32 3.1489999 1.046
19.325001 3.155 1.035
19.320999 3.1500001 1.027
19.323 3.1530001 1.016
19.313999 3.142 1.0089999
19.309999 3.1370001 1.001
19.327 3.158 0.98699999
19.326 3.1559999 0.977
19.320999 3.151 0.96899998
19.32 3.1500001 0.95999998
19.329 3.161 0.94800001
19.320999 3.151 0.94
19.323 3.154 0.93000001
19.316 3.145 0.92299998
19.320999 3.152 0.912
19.323999 3.155 0.90200001
19.32 3.1500001 0.89300001
19.325001 3.1559999 0.88200003
19.322001 3.152 0.87400001
19.326 3.158 0.86299998
19.309999 3.138 0.85699999
19.306 3.1329999 0.84899998
19.289 3.1129999 0.84200001
19.288 3.112 0.833
19.281 3.1040001 0.82499999
19.264 3.0840001 0.81900001
19.267 3.0869999 0.80900002
19.257 3.0739999 0.801
19.256001 3.073 0.792
19.254999 3.073 0.78200001
19.247999 3.0639999 0.77399999
19.229 3.0409999 0.76800001
19.231001 3.0439999 0.75700003
19.221001 3.0320001 0.75
19.202 3.0090001 0.74299997
19.195 3 0.73500001
19.188999 2.993 0.72600001
19.179001 2.9820001 0.71799999
19.132 2.927 0.31999999
19.122999 2.9159999 0.31099999
19.421 3.2780001 0.142
19.451 3.3139999 0.133
19.441999 3.302 0.124
19.441999 3.303 0.115
19.438999 3.299 0.106
19.458 3.322 0.097000003
19.461 3.326 0.088
19.461 3.326 0.079000004
19.471001 3.3380001 0.07
19.476999 3.346 0.061999999
19.49 3.3610001 0.052999999
19.496 3.368 0.044
19.511999 3.388 0.035999998
19.509001 3.3840001 0.027000001
19.509001 3.3840001 0.017999999
19.521999 3.4000001 0.0099999998
19.534 3.414 0.0020000001
19.565001 3.4219999 2.779
19.575001 3.434 2.7590001
19.575001 3.434 2.7479999
19.575001 3.4330001 2.737
19.589001 3.45 2.7149999
19.58 3.4400001 2.711
19.58 3.4400001 2.7
19.577 3.437 2.691
19.586 3.447 2.6730001
19.583 3.444 2.665
19.583 3.444 2.654
19.583 3.444 2.6429999
19.573999 3.4330001 2.6389999
19.58 3.4400001 2.6229999
19.584 3.4449999 2.6099999
19.575001 3.434 2.6059999
19.566999 3.425 2.6010001
19.57 3.428 2.5880001
19.575001 3.434 2.573
19.563999 3.421 2.5710001
19.563999 3.421 2.5599999
19.547001 3.4000001 2.563
19.540001 3.392 2.5569999
19.537001 3.3889999 2.5480001
19.539 3.391 2.536
19.535 3.3859999 2.529
19.523001 3.372 2.526
19.525 3.3740001 2.5139999
19.524 3.3729999 2.5039999
19.513 3.3599999 2.5009999
19.51 3.3559999 2.493
19.507 3.3529999 2.4849999
19.499001 3.342 2.48
19.497999 3.342 2.4690001
19.492001 3.3340001 2.4630001
19.475 3.3139999 2.4649999
19.473 3.312 2.4549999
19.476999 3.316 2.4419999
19.464001 3.3010001 2.4400001
19.459 3.2939999 2.4330001
19.454 3.2880001 2.4260001
19.451 3.2850001 2.4170001
19.440001 3.2709999 2.414
19.443001 3.2750001 2.401
19.441 3.273 2.392
19.423 3.2509999 2.3929999
19.417999 3.2449999 2.3859999
19.42 3.2479999 2.3729999
19.409 3.234 2.3710001
19.41 3.2360001 2.359
19.414 3.24 2.345
19.337999 3.155 1.197
19.337999 3.155 1.187
19.33 3.1459999 1.1799999
19.334999 3.152 1.169
19.327999 3.1429999 1.161
19.336 3.1530001 1.149
19.332001 3.148 1.141
19.330999 3.1470001 1.132
19.344999 3.164 1.118
19.322001 3.1359999 1.115
19.34 3.158 1.1
19.339001 3.1570001 1.091
19.341 3.1589999 1.081
19.343 3.1619999 1.0700001
19.341999 3.1600001 1.061
19.34 3.1589999 1.052
19.327 3.1429999 1.046
19.337999 3.1570001 1.033
19.334999 3.152 1.025
19.330999 3.148 1.016
19.33 3.1470001 1.007
19.337999 3.1570001 0.995
19.334 3.152 0.98699999
19.320999 3.1359999 0.98000002
19.334 3.152 0.96799999
19.337 3.155 0.95700002
19.336 3.154 0.94800001
19.337999 3.1570001 0.93800002
19.341999 3.1619999 0.92699999
19.326 3.1429999 0.92199999
19.334999 3.1530001 0.91000003
19.34 3.1589999 0.89999998
19.33 3.148 0.89200002
19.316 3.131 0.88599998
19.327999 3.1459999 0.87400001
19.318001 3.1329999 0.866
19.308001 3.1210001 0.85900003
19.304001 3.1159999 0.85100001
19.296 3.1070001 0.84200001
19.285999 3.095 0.83499998
19.288 3.098 0.82499999
19.271999 3.0780001 0.81900001
19.274 3.0810001 0.80900002
19.261 3.0639999 0.80199999
19.257 3.0599999 0.79299998
19.253 3.0550001 0.78399998
19.237 3.036 0.77700001
19.226999 3.023 0.76899999
19.229 3.026 0.759
19.212999 3.007 0.75199997
19.209 3.0020001 0.74299997
19.197001 2.987 0.736
19.146999 2.9300001 0.31999999
19.138 2.9189999 0.31099999
19.433001 3.277 0.16
19.450001 3.2980001 0.15099999
19.443001 3.289 0.142
19.43 3.2739999 0.133
19.444 3.2909999 0.124
19.448999 3.2969999 0.115
19.455999 3.3050001 0.106
19.469 3.3199999 0.097000003
19.475 3.3280001 0.088
19.475 3.3280001 0.079000004
19.493999 3.3510001 0.071000002
19.5 3.358 0.061999999
19.5 3.359 0.052999999
19.509001 3.3699999 0.044
19.513 3.3740001 0.035999998
19.516001 3.378 0.027000001
19.521999 3.3859999 0.017999999
19.538 3.4059999 0.0099999998
19.357 3.1530001 2.9960001
19.381001 3.1830001 2.9630001
19.364 3.161 2.954
19.559999 3.401 2.767
19.576 3.421 2.7420001
19.576 3.421 2.7309999
19.579 3.424 2.7179999
19.579 3.424 2.707
19.576 3.421 2.698
19.576 3.421 2.687
19.579 3.424 2.674
19.584 3.431 2.658
19.580999 3.428 2.6500001
19.573 3.4170001 2.6459999
19.576 3.421 2.632
19.577999 3.424 2.619
19.579 3.425 2.608
19.580999 3.428 2.595
19.579 3.4260001 2.586
19.57 3.414 2.5829999
19.569 3.4130001 2.573
19.561001 3.4030001 2.5680001
19.565001 3.4089999 2.5539999
19.563 3.4059999 2.5439999
19.547001 3.3859999 2.546
19.546 3.385 2.536
19.556 3.398 2.517
19.541 3.3800001 2.5179999
19.535 3.3729999 2.5120001
19.528 3.3629999 2.507
19.528999 3.365 2.4949999
19.514 3.3469999 2.4949999
19.511 3.3429999 2.487
19.5 3.329 2.484
19.511 3.342 2.4660001
19.497999 3.3269999 2.464
19.5 3.329 2.4519999
19.493999 3.323 2.4449999
19.489 3.316 2.438
19.476 3.3010001 2.437
19.464001 3.286 2.434
19.464001 3.286 2.424
19.466999 3.289 2.411
19.452999 3.273 2.4100001
19.445 3.263 2.405
19.441999 3.2590001 2.3959999
19.43 3.2449999 2.3929999
19.422001 3.2349999 2.388
19.421 3.234 2.378
19.419001 3.2309999 2.369
19.414 3.2249999 2.3610001
19.403 3.2130001 2.358
19.405001 3.2149999 2.345
19.381001 3.1849999 2.3510001
19.363001 3.171 1.211
19.339001 3.141 1.209
19.344 3.148 1.197
19.341999 3.145 1.188
19.353001 3.1589999 1.175
19.349001 3.154 1.1670001
19.341 3.145 1.16
19.330999 3.132 1.153
19.341999 3.1459999 1.14
19.347 3.152 1.1289999
19.349001 3.155 1.119
19.351 3.1570001 1.108
19.347 3.152 1.1
19.358 3.1659999 1.087
19.337999 3.142 1.0829999
19.35 3.1559999 1.0700001
19.351999 3.158 1.0599999
19.357 3.165 1.049
19.347 3.152 1.043
19.349001 3.155 1.0319999
19.351 3.158 1.022
19.347 3.152 1.0140001
19.35 3.1559999 1.003
19.351 3.1570001 0.99400002
19.341999 3.1459999 0.98699999
19.349001 3.155 0.97500002
19.344999 3.1500001 0.96700001
19.344 3.1489999 0.95700002
19.34 3.1440001 0.949
19.344999 3.151 0.93800002
19.347 3.1530001 0.92799997
19.343 3.1489999 0.91900003
19.34 3.1440001 0.91100001
19.35 3.1570001 0.89899999
19.334 3.138 0.89300001
19.336 3.141 0.88300002
19.32 3.1199999 0.87699997
19.319 3.119 0.86799997
19.315001 3.115 0.85900003
19.308001 3.1059999 0.85100001
19.301001 3.0969999 0.84299999
19.299999 3.096 0.83399999
19.290001 3.0840001 0.82599998
19.283001 3.075 0.81800002
19.26 3.0480001 0.81300002
19.268 3.0580001 0.80199999
19.261 3.05 0.79299998
19.252001 3.039 0.78500003
19.240999 3.026 0.778
19.233999 3.017 0.76899999
19.225 3.006 0.76099998
19.218 2.997 0.75300002
19.198999 2.974 0.74599999
19.150999 2.9189999 0.31999999
19.142 2.908 0.31099999
19.427999 3.256 0.178
19.441 3.2720001 0.169
19.429001 3.2579999 0.16
19.434 3.2639999 0.15099999
19.447001 3.28 0.142
19.452999 3.2880001 0.133
19.452999 3.2880001 0.124
19.462999 3.299 0.115
19.475 3.3150001 0.106
19.475 3.3150001 0.097000003
19.485001 3.326 0.088
19.488001 3.3299999 0.079000004
19.500999 3.346 0.071000002
19.516001 3.3640001 0.061999999
19.513 3.3610001 0.052999999
19.516001 3.365 0.044
19.528999 3.3800001 0.035999998
19.528999 3.3800001 0.027000001
19.542 3.3959999 0.018999999
19.545 3.4000001 0.0099999998
19.548 3.4030001 0.0020000001
19.400999 3.1919999 2.9879999
19.42 3.2160001 2.96
19.409 3.2019999 2.9579999
19.417 3.211 2.9389999
19.408001 3.2 2.9349999
19.41 3.2030001 2.921
19.424999 3.221 2.8970001
19.410999 3.2049999 2.8970001
19.416 3.211 2.881
19.569 3.398 2.743
19.572001 3.402 2.7290001
19.58 3.4119999 2.711
19.58 3.4119999 2.7
19.583 3.415 2.687
19.573999 3.405 2.6830001
19.573999 3.405 2.6719999
19.58 3.4119999 2.6559999
19.582001 3.415 2.6429999
19.582001 3.415 2.632
19.58 3.4119999 2.6240001
19.584999 3.4189999 2.608
19.587999 3.4230001 2.595
19.58 3.4119999 2.5910001
19.580999 3.414 2.579
19.569 3.3989999 2.5780001
19.565001 3.395 2.5699999
19.569 3.4000001 2.556
19.575001 3.4070001 2.5409999
19.562 3.391 2.54
19.558001 3.3870001 2.5320001
19.554001 3.381 2.5239999
19.547001 3.372 2.5190001
19.544001 3.369 2.51
19.532 3.3540001 2.5090001
19.540001 3.3640001 2.4920001
19.524 3.345 2.493
19.521 3.342 2.484
19.523001 3.3440001 2.4719999
19.521 3.3410001 2.4630001
19.507 3.3239999 2.4630001
19.514999 3.3340001 2.4460001
19.496 3.3110001 2.4489999
19.497999 3.3139999 2.4360001
19.485001 3.2969999 2.4349999
19.49 3.3039999 2.421
19.466 3.2750001 2.427
19.465 3.273 2.4170001
19.459999 3.267 2.4100001
19.455 3.2609999 2.402
19.450001 3.2550001 2.395
19.445999 3.25 2.3870001
19.438 3.2409999 2.382
19.424999 3.224 2.3800001
19.424999 3.224 2.369
19.422001 3.221 2.3599999
19.427999 3.2279999 2.346
19.412001 3.2090001 2.346
19.407 3.2030001 2.3380001
19.405001 3.201 2.329
19.371 3.1659999 1.229
19.361 3.1530001 1.223
19.351 3.141 1.217
19.355 3.1459999 1.206
19.368999 3.1630001 1.192
19.368 3.1619999 1.182
19.363001 3.1570001 1.174
19.353001 3.1440001 1.168
19.351999 3.1429999 1.159
19.357 3.1489999 1.147
19.368 3.1630001 1.1339999
19.364 3.158 1.126
19.360001 3.152 1.118
19.368 3.1619999 1.1059999
19.360001 3.154 1.098
19.365 3.1600001 1.087
19.358 3.151 1.08
19.363001 3.1570001 1.069
19.358999 3.152 1.0599999
19.367001 3.1619999 1.048
19.361 3.155 1.041
19.355 3.1470001 1.033
19.358999 3.152 1.022
19.354 3.1470001 1.0140001
19.354 3.1470001 1.0039999
19.356001 3.148 0.99400002
19.363001 3.158 0.98299998
19.358999 3.1530001 0.97399998
19.355 3.148 0.96600002
19.361 3.154 0.95499998
19.356001 3.1500001 0.94700003
19.356001 3.148 0.93699998
19.360001 3.154 0.92699999
19.356001 3.1489999 0.91799998
19.35 3.141 0.91000003
19.339001 3.1289999 0.903
19.337999 3.128 0.89399999
19.325001 3.112 0.88700002
19.315001 3.099 0.88
19.316999 3.102 0.87
19.313 3.0969999 0.861
19.302999 3.085 0.85399997
19.296 3.076 0.84600002
19.292 3.0710001 0.83700001
19.288 3.066 0.82800001
19.274 3.05 0.82099998
19.264999 3.0380001 0.81300002
19.266001 3.0409999 0.80299997
19.26 3.033 0.79500002
19.259001 3.0320001 0.78500003
19.224001 2.99 0.78200001
19.222 2.9860001 0.773
19.218 2.9820001 0.764
19.166 2.9219999 0.31999999
19.166 2.921 0.31
19.448999 3.267 0.18700001
19.438 3.2539999 0.178
19.440001 3.257 0.169
19.448999 3.2679999 0.16
19.448 3.266 0.15099999
19.457001 3.2780001 0.142
19.473 3.2969999 0.133
19.466999 3.29 0.124
19.476 3.3010001 0.115
19.489 3.3169999 0.106
19.486 3.313 0.097000003
19.504999 3.336 0.088
19.497999 3.3280001 0.079000004
19.507999 3.3399999 0.071000002
19.52 3.355 0.061999999
19.525999 3.3629999 0.052999999
19.528999 3.3670001 0.045000002
19.539 3.378 0.035999998
19.548 3.3900001 0.027000001
19.552 3.3940001 0.018999999
19.563999 3.4089999 0.011
19.57 3.4170001 0.0020000001
19.431 3.214 2.9920001
19.427 3.2090001 2.984
19.431999 3.2149999 2.9679999
19.437 3.221 2.9519999
19.423 3.204 2.9519999
19.438999 3.224 2.9260001
19.436001 3.22 2.9170001
19.43 3.2130001 2.911
19.43 3.2130001 2.8989999
19.427 3.2090001 2.8900001
19.434999 3.2190001 2.872
19.434999 3.2190001 2.8599999
19.445999 3.233 2.839
19.563999 3.378 2.73
19.573999 3.3900001 2.711
19.575001 3.392 2.698
19.576 3.3929999 2.687
19.580999 3.3989999 2.6719999
