ply
format ascii 1.0
comment PCL generated
element vertex 785
property float x
property float y
property float z
element camera 1
property float view_px
property float view_py
property float view_pz
property float x_axisx
property float x_axisy
property float x_axisz
property float y_axisx
property float y_axisy
property float y_axisz
property float z_axisx
property float z_axisy
property float z_axisz
property float focal
property float scalex
property float scaley
property float centerx
property float centery
property int viewportx
property int viewporty
property float k1
property float k2
end_header
-10.831571 -3.105572 0.0027142861
-10.786 -3.1210001 0
-10.920789 -3.0288219 0.027733343
-10.850539 -3.0458581 0.046568051
-10.770809 -3.037811 0.03832433
-9.8538418 -3.036675 0.042071436
-9.7527122 -3.0579998 0.046712771
-10.921009 -2.9507179 0.051092133
-10.882524 -2.9791431 0.085428573
-10.750667 -2.9637039 0.060148142
-10.634217 -2.9571466 0.055577252
-10.594501 -2.9450002 0.058833331
-9.9234648 -2.9527557 0.079012185
-9.8752766 -2.9478772 0.030943396
-9.7442322 -2.9078462 0.046000004
-9.6419439 -2.9286854 0.05371429
-10.911211 -2.8671546 0.060963299
-10.876449 -2.83512 0.041509248
-10.791 -2.885 0.003
-10.614001 -2.8600001 0.032000002
-10.589953 -2.8458097 0.051333327
-9.917222 -2.8756297 0.086074077
-9.8541126 -2.876231 0.049017098
-9.7506275 -2.8863065 0.048253343
-9.6693649 -2.8926971 0.049090903
-11.817357 -2.7057855 0.036357142
-11.740187 -2.7106175 0.047382705
-11.649438 -2.7232823 0.052143484
-11.578223 -2.7369561 0.070382357
-10.901 -2.7920001 0.050999999
-10.845037 -2.7465754 0.046385482
-10.735143 -2.7134287 0.086928569
-10.651741 -2.7363148 0.059222221
-10.582286 -2.7699721 0.051371429
-11.90795 -2.6672001 0.0092500001
-11.848372 -2.6665652 0.047587302
-11.768592 -2.6925895 0.057076942
-11.6358 -2.6731999 0.037799999
-11.560033 -2.6488669 0.055166677
-10.819942 -2.6706963 0.03961765
-10.755836 -2.6676719 0.039180323
-10.674391 -2.6789134 0.021739133
-11.904 -2.595 0.003
-11.841007 -2.5499954 0.041541442
-11.757112 -2.5217044 0.0556271
-11.653244 -2.5397522 0.051415831
-11.565202 -2.5620291 0.058086958
-11.494 -2.5799999 0.089000002
-11.838402 -2.4958668 0.021666668
-11.792 -2.4972501 0.063500002
-10.8105 -3.006 0.1035
-10.799 -3.0009999 0.1
-10.0158 -3.0070002 0.18460001
-9.9467821 -3.0175207 0.14903361
-9.8515549 -3.0362773 0.14775246
-9.7503595 -3.0472293 0.14963301
-10.920432 -2.925797 0.12518919
-10.848098 -2.9489446 0.14451826
-10.748775 -2.9419734 0.15725218
-10.643742 -2.9492774 0.14893219
-10.595143 -2.9307144 0.13485715
-10.018855 -2.9557097 0.18011592
-9.9708929 -2.9484301 0.13505784
-9.8330002 -2.905 0.104
-9.7254009 -2.9386003 0.1647
-9.6743088 -2.9449232 0.12769231
-10.916225 -2.8519995 0.15103112
-10.859792 -2.8439384 0.1609012
-10.794 -2.858 0.18799999
-10.606934 -2.8653331 0.14113335
-10.588766 -2.8388159 0.15123683
-10.010084 -2.8675838 0.19058333
-9.9545088 -2.8646419 0.14901355
-9.8477917 -2.8663695 0.15251084
-9.7503109 -2.8793659 0.14599998
-9.6865387 -2.8880002 0.12461538
-11.815 -2.7079999 0.115
-11.73798 -2.707293 0.14715517
-11.649539 -2.7186866 0.14985305
-11.551566 -2.7391167 0.14940169
-11.479819 -2.7479467 0.17694639
-10.909583 -2.7950835 0.16375001
-10.838434 -2.7499516 0.1454266
-10.752134 -2.7182567 0.14889027
-10.650038 -2.7427444 0.14939022
-10.581803 -2.7615654 0.14736956
-11.81141 -2.6696591 0.11177274
-11.758974 -2.6608851 0.15165929
-11.693199 -2.6951001 0.1441
-11.511667 -2.664 0.11183333
-11.463193 -2.652 0.1582258
-10.815287 -2.6967146 0.13485715
-10.792999 -2.698 0.15800001
-11.804 -2.5940001 0.101
-11.745257 -2.5484822 0.14333342
-11.656865 -2.531472 0.15317921
-11.552868 -2.5533736 0.14839558
-11.467428 -2.5768752 0.16123217
-10.01881 -3.0042381 0.25199997
-9.9488735 -3.0140398 0.24889107
-9.8497553 -3.0281916 0.24888574
-9.7732105 -3.0303159 0.2245263
-10.838596 -2.9169762 0.24929602
-10.753789 -2.9294007 0.24976762
-10.646141 -2.9432561 0.25040832
-10.595858 -2.929286 0.22971429
-10.111979 -2.9442666 0.28611112
-10.060764 -2.9600945 0.24474408
-9.9831009 -2.9975002 0.24929999
-9.8191338 -2.9548001 0.28473336
-9.7709341 -2.9473002 0.23323333
-10.916196 -2.8290732 0.21743904
-10.853621 -2.8484502 0.25337422
-10.798 -2.8529999 0.208
-10.606637 -2.8607731 0.24786362
-10.589563 -2.8366249 0.25171876
-10.108715 -2.8607147 0.29238093
-10.052699 -2.8529611 0.25158337
-9.9472933 -2.8463299 0.25127274
-9.8475924 -2.8613021 0.25209302
-9.7769747 -2.8748333 0.23102777
-11.714444 -2.7083888 0.2175
-11.645285 -2.7150695 0.24681826
-11.552171 -2.7319696 0.24960165
-11.454333 -2.7553434 0.25199059
-11.383789 -2.7490003 0.27850008
-10.912517 -2.7880344 0.22213794
-10.836948 -2.755801 0.25442111
-10.750056 -2.7156444 0.24854799
-10.6505 -2.7382956 0.24994311
-10.582156 -2.7635629 0.25134376
-11.715482 -2.6654029 0.21677421
-11.667536 -2.6535649 0.25997967
-11.416701 -2.6687 0.21500002
-11.366309 -2.638931 0.26424137
-10.819221 -2.6950552 0.26488891
-10.786001 -2.6973333 0.24883334
-11.7052 -2.5716 0.20439999
-11.651017 -2.5521472 0.24452636
-11.553068 -2.5495281 0.25112355
-11.451406 -2.5716884 0.24969897
-11.374752 -2.5883214 0.26628575
-11.618667 -2.4916666 0.264
-10.019666 -3.0036669 0.32626668
-9.9392586 -3.0107715 0.34339997
-9.8694096 -3.0194104 0.32553843
-10.837343 -2.9150405 0.34845182
-10.75045 -2.9265637 0.3503128
-10.646564 -2.940825 0.35011297
-10.596251 -2.9277501 0.32599998
-10.20825 -2.9345624 0.39024994
-10.152875 -2.9481375 0.34953958
-10.055279 -2.9878912 0.35088119
-9.9575129 -2.9871287 0.36846155
-9.8671179 -2.9543531 0.34194121
-11.29 -2.8069999 0.39700001
-10.853485 -2.8516042 0.34884059
-10.60662 -2.8739045 0.35814282
-10.590968 -2.8323753 0.34643754
-10.204801 -2.8766003 0.39520001
-10.150813 -2.8465457 0.35471886
-10.052275 -2.8250375 0.35140005
-9.9465523 -2.8398991 0.35280898
-9.8670702 -2.859163 0.3344419
-11.619999 -2.714731 0.32526916
-11.549924 -2.7271025 0.35005361
-11.452916 -2.7496371 0.34931427
-11.354585 -2.76652 0.35266489
-11.286573 -2.7605236 0.38476187
-10.836265 -2.7495327 0.34877357
-10.742127 -2.7142859 0.34690475
-10.651052 -2.7369335 0.35027638
-10.584575 -2.762825 0.34802502
-10.156668 -2.7963333 0.384
-11.622369 -2.6602302 0.3200154
-11.573056 -2.6458488 0.36532083
-11.321761 -2.6323199 0.33403999
-11.271477 -2.6310251 0.37232503
-10.820689 -2.6920686 0.3571724
-10.78581 -2.6938574 0.35699999
-11.608444 -2.5728333 0.30866665
-11.550974 -2.5596986 0.34699994
-11.449341 -2.5666046 0.35205495
-11.353974 -2.5859218 0.35105199
-11.287091 -2.5940003 0.36009091
-11.578 -2.4960001 0.30399999
-10.012 -3.0039999 0.47999999
-9.9691172 -3.0090587 0.42899999
-10.833544 -2.9122815 0.44558251
-10.750007 -2.9215293 0.45095912
-10.647546 -2.9356387 0.45018059
-10.592601 -2.9381998 0.45000002
-10.301333 -2.9220004 0.49133334
-10.243161 -2.9337459 0.45147842
-10.150743 -2.9662495 0.4472329
-10.051533 -2.9812007 0.45356205
-9.9653511 -2.9690542 0.43677032
-11.231072 -2.8057854 0.45928574
-11.195 -2.8085001 0.49425
-10.853621 -2.854485 0.44951507
-10.6109 -2.8593502 0.44385004
-10.594905 -2.8448572 0.44133332
-10.301 -2.8670001 0.49399999
-10.246102 -2.8493686 0.45312619
-10.151981 -2.8174288 0.44375005
-10.050113 -2.8198156 0.45556796
-9.9648857 -2.8473713 0.4396857
-9.8979998 -2.846 0.40000001
-11.525401 -2.7256985 0.42995703
-11.452127 -2.7388716 0.45166957
-11.35071 -2.7641594 0.44901365
-11.257062 -2.7799821 0.45534572
-11.190333 -2.753 0.48566663
-10.836051 -2.7503996 0.44931105
-10.740615 -2.7133846 0.45057699
-10.651297 -2.7329483 0.44764942
-10.585292 -2.7534144 0.4485366
-10.237528 -2.789789 0.46870169
-10.159202 -2.7950571 0.44599998
-10.068 -2.799 0.49700001
-11.523652 -2.6527002 0.42307502
-11.475393 -2.6449535 0.47106981
-11.317251 -2.6040001 0.43425
-11.235773 -2.6216085 0.44285136
-11.179872 -2.6328387 0.47451606
-10.824817 -2.6913157 0.45226315
-10.774724 -2.6954129 0.44775859
-11.512209 -2.5745416 0.41349995
-11.453884 -2.5682814 0.45244443
-11.352561 -2.581198 0.44996703
-11.27 -2.5927751 0.46252498
-10.038 -3.0009999 0.51099998
-10.829342 -2.9106953 0.54630482
-10.752142 -2.9192135 0.54995179
-10.651224 -2.9327381 0.54825503
-10.589 -2.937 0.52100003
-10.33233 -2.9187105 0.55820984
-10.253218 -2.9411883 0.54803896
-10.150732 -2.9606085 0.54921436
-10.063096 -2.9625211 0.54015219
-11.2182 -2.8044002 0.52419996
-11.153032 -2.8105712 0.56395233
-10.855033 -2.8545547 0.54741329
-10.6125 -2.8660998 0.52950007
-10.591134 -2.8309333 0.54100001
-10.401 -2.8610001 0.59600002
-10.34012 -2.8530781 0.55429846
-10.283103 -2.8385518 0.51431042
-10.142628 -2.8093336 0.54270363
-10.05913 -2.8295877 0.54438096
-11.430513 -2.7365892 0.53505206
-11.354342 -2.7566192 0.55326515
-11.251653 -2.7807889 0.5486632
-11.165414 -2.7819877 0.55550665
-11.089 -2.7119999 0.583
-10.838105 -2.7508879 0.54886502
-10.732178 -2.7116663 0.54671121
-10.650013 -2.7292342 0.5499481
-10.581686 -2.7546051 0.54836839
-10.331924 -2.7785764 0.56760257
-10.256391 -2.7796943 0.54639995
-10.158306 -2.790653 0.55518359
-10.079999 -2.7973638 0.55309093
-11.427409 -2.6560996 0.52907997
-11.376207 -2.6387661 0.57546753
-11.23616 -2.6075683 0.54327273
-11.152288 -2.6237867 0.54998064
-11.084592 -2.6433187 0.57722723
-10.928 -2.688 0.57599998
-10.82324 -2.68712 0.55110002
-10.770839 -2.6928108 0.55224335
-10.697 -2.7 0.551
-11.414759 -2.5767577 0.51966667
-11.35389 -2.5782943 0.5515126
-11.26374 -2.5901797 0.55316395
-11.187334 -2.5993333 0.56633341
-10.82544 -2.9097002 0.6438427
-10.75053 -2.9169638 0.65014505
-10.663191 -2.9271994 0.64576358
-10.592667 -2.9066668 0.65900004
-10.41626 -2.9058888 0.66307408
-10.348691 -2.9182358 0.649073
-10.252397 -2.9380858 0.64882749
-10.160743 -2.9490504 0.64172447
-11.211 -2.8039999 0.60500002
-11.141086 -2.806478 0.64398575
-11.069551 -2.8163478 0.6625731
-10.853852 -2.8565457 0.64871114
-10.787 -2.898 0.69400001
-10.580833 -2.8636665 0.66483337
-10.435539 -2.8520536 0.65943545
-10.386327 -2.8536088 0.61828262
-10.2425 -2.8092499 0.63499999
-10.147691 -2.8422143 0.64609522
-10.0935 -2.8385 0.60250002
-11.336976 -2.7481008 0.64036161
-11.252578 -2.7727215 0.65269142
-11.159365 -2.7919636 0.65283483
-11.066625 -2.7555625 0.65425003
-10.986 -2.707 0.69700003
-10.839571 -2.749805 0.64861292
-10.730071 -2.7081788 0.64975005
-10.649961 -2.7224393 0.6488657
-10.568974 -2.7589738 0.65539479
-10.423403 -2.7716773 0.66396779
-10.357598 -2.763664 0.64153647
-10.250157 -2.7715709 0.65108567
-10.162409 -2.7841222 0.64134681
-11.331131 -2.6506317 0.63349134
-11.266565 -2.6302116 0.67136461
-11.145147 -2.6150346 0.64788502
-11.054216 -2.6387472 0.6519081
-10.984437 -2.6552501 0.6825
-10.824551 -2.6846085 0.65205789
-10.762643 -2.6897354 0.65020752
-11.322266 -2.5850587 0.62355888
-11.258479 -2.5899434 0.65028411
-11.174117 -2.5968821 0.67052948
-10.826203 -2.9071906 0.74812698
-10.749906 -2.9150574 0.74759728
-10.662821 -2.9233437 0.75000018
-10.506 -2.901 0.76599997
-10.42549 -2.906837 0.75655097
-10.350043 -2.9171641 0.74793923
-10.256783 -2.9312375 0.74322778
-10.18875 -2.9300001 0.70849997
-11.127475 -2.80475 0.74766672
-11.047382 -2.8154082 0.74766237
-10.976046 -2.8242445 0.77215558
-10.85464 -2.8593481 0.74863946
-10.794 -2.8975 0.73699999
-10.529974 -2.8771741 0.75801438
-10.468744 -2.8824863 0.73903543
-10.3685 -2.8959999 0.7525
-10.234959 -2.8498752 0.75762504
-10.1835 -2.8436248 0.70987499
-11.306499 -2.7610002 0.70350003
-11.241768 -2.7543957 0.74464899
-11.157439 -2.7885947 0.74970955
-11.084874 -2.7955003 0.75418746
-10.928333 -2.7716665 0.75433338
-10.841717 -2.7457275 0.74648005
-10.731 -2.7092776 0.74972224
-10.648422 -2.7191703 0.75009215
-10.540686 -2.7434576 0.76368564
-10.453979 -2.7434032 0.744515
-10.350894 -2.7467501 0.75035936
-10.255581 -2.7673621 0.74424642
-10.1806 -2.7916 0.70880002
-11.235124 -2.6482267 0.73903793
-11.157057 -2.6212471 0.76464224
-11.051776 -2.6273141 0.75047672
-10.960378 -2.6529448 0.756486
-10.831318 -2.6830707 0.74900013
-10.754419 -2.6895616 0.74924558
-10.692333 -2.6966667 0.77699995
-11.224517 -2.5928891 0.72148156
-11.170115 -2.5963078 0.7443462
-10.828272 -2.905973 0.8395946
-10.752172 -2.9116464 0.84927827
-10.663301 -2.9191315 0.84932333
-10.52 -2.901 0.833
-10.434392 -2.9044642 0.84057134
-10.351163 -2.9143262 0.84394884
-10.293 -2.9198182 0.81209087
-11.119144 -2.804286 0.84357136
-11.044721 -2.8113308 0.84628576
-10.953698 -2.8281455 0.85254431
-10.855247 -2.8629458 0.85155141
-10.78275 -2.8943751 0.86612499
-10.536427 -2.8825002 0.84923798
-10.458381 -2.8913367 0.85183167
-10.358256 -2.8756671 0.86294872
-10.287666 -2.8565834 0.81558341
-11.208801 -2.7608998 0.80610007
-11.150294 -2.76443 0.84606045
-11.079351 -2.7931352 0.85902697
-10.852459 -2.7707086 0.81537497
-10.731091 -2.7077274 0.8677274
-10.645681 -2.7167828 0.85043478
-10.548901 -2.7197716 0.85061944
-10.450727 -2.7272143 0.85035729
-10.350341 -2.7481024 0.84869123
-10.280889 -2.7639999 0.81622219
-11.137226 -2.6439931 0.8398869
-11.060984 -2.6260095 0.85825664
-10.954332 -2.6420119 0.8529644
-10.850879 -2.6696556 0.84784454
-10.754 -2.6857729 0.84756064
-10.684125 -2.6962502 0.85625005
-10.575444 -2.6975555 0.86788893
-11.1302 -2.5975997 0.82980007
-10.813647 -2.9058824 0.94652951
-10.746706 -2.9097998 0.94764346
-10.662871 -2.9159563 0.94926089
-10.511 -2.901 0.935
-10.425951 -2.9097497 0.95475006
-10.384583 -2.9094167 0.91583341
-11.109333 -2.8063335 0.91666669
-11.036221 -2.8106546 0.94523257
-10.949995 -2.8268609 0.94976604
-10.854854 -2.866087 0.95085752
-10.774857 -2.8962858 0.95666677
-10.604 -2.8970001 0.97399998
-10.537931 -2.8796937 0.94852269
-10.451555 -2.8831732 0.9506197
-10.382734 -2.8584001 0.9174667
-11.1128 -2.7691669 0.90999997
-11.061355 -2.7544408 0.95232159
-10.728601 -2.7114 0.94659996
-10.655963 -2.7069612 0.9304232
-10.538686 -2.7104256 0.94818509
-10.451109 -2.7263703 0.95045179
-10.379143 -2.75 0.92471433
-11.043036 -2.65096 0.94375294
-10.954062 -2.6375747 0.95183766
-10.851456 -2.6608987 0.94456989
-10.755508 -2.6832767 0.95053852
-10.65288 -2.6868331 0.9561972
-10.57835 -2.6937001 0.95079994
-11.094 -2.599 0.90100002
-10.813 -2.9031255 1.0565
-10.743155 -2.9063134 1.0478194
-10.6637 -2.9146328 1.049089
-10.562 -2.9085002 1.073
-10.474334 -2.9043336 1.0109999
-11.013278 -2.8116109 1.0143888
-10.946453 -2.8209856 1.0478176
-10.855026 -2.8659039 1.0486683
-10.762805 -2.8964512 1.0494118
-10.6436 -2.8964002 1.0690001
-10.534259 -2.8725264 1.0512582
-10.47719 -2.8728576 1.0254287
-11.011862 -2.7643895 1.014639
-10.967091 -2.747412 1.058702
-10.644 -2.7049999 1.03
-10.534141 -2.7171602 1.0504401
-10.476528 -2.7356765 1.0315882
-11.006 -2.6889999 1
-10.945756 -2.6553268 1.0442467
-10.851651 -2.6531372 1.0489886
-10.749255 -2.6692798 1.04757
-10.647924 -2.6752234 1.0528938
-10.570555 -2.6878147 1.0516297
-10.806 -2.9036665 1.1386669
-10.731706 -2.905333 1.1448236
-10.654968 -2.9162271 1.1491345
-10.589001 -2.904 1.1424999
-10.9211 -2.8210003 1.1191666
-10.855237 -2.8596487 1.1509187
-10.758811 -2.8947003 1.1529224
-10.629318 -2.8781815 1.1648636
-10.575286 -2.8408573 1.1367857
-10.916766 -2.7612548 1.1175106
-10.868119 -2.7469087 1.166687
-10.745 -2.701 1.198
-10.606501 -2.7475002 1.1765001
-10.56718 -2.7420359 1.1407143
-10.908 -2.6811249 1.105
-10.851336 -2.6641903 1.1480147
-10.7485 -2.6680255 1.1486251
-10.652345 -2.6770694 1.1529307
-10.576501 -2.6891499 1.1314
-10.849 -2.905 1.201
-10.716001 -2.9051578 1.248579
-10.651793 -2.9130793 1.2483563
-10.852551 -2.8553514 1.2485157
-10.754881 -2.8917367 1.2517542
-10.6408 -2.8777001 1.255375
-10.594375 -2.8326249 1.2451251
-10.853534 -2.7510438 1.248976
-10.62091 -2.7205908 1.2558637
-10.586923 -2.735846 1.2577693
-10.834506 -2.6753721 1.2501904
-10.750641 -2.6674502 1.2502584
-10.666213 -2.6771934 1.2450703
-10.730151 -2.9026501 1.34235
-10.649104 -2.9103022 1.3440931
-10.850376 -2.8514769 1.3480002
-10.755337 -2.8899572 1.3515002
-10.642709 -2.8794672 1.3576293
-10.5935 -2.8084998 1.3299999
-10.85513 -2.7503276 1.3508563
-10.622646 -2.7237055 1.3465292
-10.590188 -2.736042 1.3491249
-10.837392 -2.671181 1.3492204
-10.750083 -2.6725066 1.3502048
-10.657042 -2.6902354 1.3534509
-10.726199 -2.9028001 1.4444002
-10.642926 -2.9081492 1.4465375
-10.852132 -2.8500326 1.4494956
-10.753316 -2.8887212 1.4508847
-10.647057 -2.8769219 1.4531555
-10.598499 -2.822 1.432
-10.856785 -2.7491112 1.4491563
-10.743 -2.7060001 1.401
-10.619537 -2.7343848 1.4414871
-10.58947 -2.7330816 1.4514695
-10.837517 -2.6682684 1.4499699
-10.750066 -2.6691051 1.4501579
-10.659717 -2.6886778 1.4538394
-10.594 -2.7 1.4725
-10.646457 -2.9080338 1.5484236
-10.854021 -2.8497136 1.5492122
-10.75089 -2.8850152 1.5492599
-10.645683 -2.877079 1.5491881
-10.594667 -2.835 1.5310001
-10.859599 -2.7518282 1.5501274
-10.618313 -2.743469 1.5449374
-10.589002 -2.7259564 1.5468911
-10.840305 -2.6683953 1.5506765
-10.749563 -2.666795 1.5493462
-10.65591 -2.6871247 1.5485355
-10.5925 -2.698 1.55725
-10.640453 -2.9079528 1.643881
-10.904 -2.8410001 1.627
-10.853993 -2.846226 1.6491528
-10.750545 -2.8805108 1.6494223
-10.646667 -2.8761206 1.6479764
-10.5985 -2.8395 1.6524999
-10.859776 -2.7488687 1.6503618
-10.613882 -2.750762 1.6418808
-10.589558 -2.7250588 1.6475881
-10.839202 -2.6661522 1.6504638
-10.74839 -2.6645744 1.6486553
-10.655123 -2.6836722 1.6486896
-10.592101 -2.6981001 1.6494
-10.638041 -2.9097505 1.7467086
-10.852281 -2.8432517 1.7491202
-10.750031 -2.8773236 1.7494223
-10.645388 -2.8777151 1.7492849
-10.598001 -2.8330002 1.7466667
-10.859869 -2.7501688 1.7510049
-10.610109 -2.753108 1.743919
-10.590463 -2.7212694 1.7552693
-10.839086 -2.6648457 1.7501545
-10.749692 -2.660629 1.7525678
-10.653831 -2.6826968 1.7466059
-10.587923 -2.694 1.7624617
-10.643272 -2.9075911 1.8458637
-10.853715 -2.8426733 1.8491852
-10.751442 -2.874733 1.8500222
-10.651009 -2.8750379 1.84884
-10.599 -2.8870001 1.841
-10.862154 -2.750191 1.8490218
-10.612272 -2.7609189 1.8442978
-10.592952 -2.7272 1.8559998
-10.840931 -2.662802 1.8504897
-10.751272 -2.6563892 1.8482987
-10.651523 -2.6806815 1.8516669
-10.592263 -2.693316 1.8428421
-10.642501 -2.9107502 1.9532499
-10.853429 -2.8409541 1.9502404
-10.748729 -2.8729343 1.9485246
-10.65071 -2.8744428 1.9491522
-10.863123 -2.7502577 1.9489344
-10.611442 -2.7590466 1.9554887
-10.589001 -2.7227142 1.9455
-10.842649 -2.6621478 1.9503515
-10.751096 -2.6509855 1.9483018
-10.649583 -2.6780415 1.9487637
-10.589222 -2.6909442 1.9466112
-10.641273 -2.9071815 2.0491817
-10.855255 -2.8390827 2.0487134
-10.750869 -2.8675795 2.0498424
-10.655572 -2.8722956 2.0484993
-10.865364 -2.7514958 2.0491817
-10.614782 -2.7565675 2.0494866
-10.591583 -2.7216668 2.0408335
-10.84253 -2.6583226 2.0488839
-10.74764 -2.6479311 2.051306
-10.64651 -2.6757076 2.0465229
-10.592766 -2.6879413 2.0547059
-10.901 -2.8180001 2.109
-10.858935 -2.8366809 2.1487761
-10.749008 -2.865032 2.148016
-10.653036 -2.8730705 2.1499021
-10.875119 -2.7500229 2.1471353
-10.612653 -2.7575653 2.1559565
-10.597834 -2.7353334 2.1361666
-10.845966 -2.6575313 2.1521788
-10.754728 -2.6425152 2.1506362
-10.655681 -2.6696193 2.1488891
-10.596356 -2.6857142 2.1484287
-10.655 -2.902 2.2420001
-10.857711 -2.8361568 2.2474587
-10.751863 -2.8615847 2.2493134
-10.657747 -2.870074 2.2503793
-10.6 -2.8670001 2.22
-10.9035 -2.7150002 2.2865
-10.874353 -2.7500107 2.2507074
-10.613076 -2.7592692 2.2545769
-10.59675 -2.717 2.2425001
-10.903667 -2.686667 2.2820001
-10.863693 -2.6473475 2.2459452
-10.748363 -2.6282933 2.2364306
-10.647964 -2.6684239 2.244576
-10.596819 -2.685091 2.2579999
-10.845298 -2.5740902 2.2734287
-10.758843 -2.5749421 2.2747886
-10.9105 -2.809 2.3575001
-10.858711 -2.832427 2.3485432
-10.750537 -2.8569155 2.350214
-10.657469 -2.8663757 2.3497055
-10.869017 -2.7492676 2.3517876
-10.614853 -2.7522647 2.359206
-10.596499 -2.7184999 2.348
-10.863954 -2.6483753 2.3494937
-10.72287 -2.6305218 2.3530002
-10.64543 -2.6695714 2.3495712
-10.592111 -2.6871109 2.3454447
-10.854653 -2.5469525 2.3465569
-10.739333 -2.5386786 2.3388393
-10.842937 -2.4746001 2.3732157
-10.752607 -2.4743037 2.3721058
-10.902 -2.8099999 2.487
-10.856956 -2.8304148 2.4486244
-10.751213 -2.8542438 2.4489245
-10.654922 -2.860395 2.4463165
-10.594 -2.846 2.4170001
-10.872215 -2.7470162 2.4501443
-10.617938 -2.7562504 2.4509168
-10.593 -2.7119999 2.4260001
-10.860594 -2.6525228 2.4487031
-10.725762 -2.6284287 2.4477143
-10.644609 -2.6696944 2.4451668
-10.589666 -2.6903334 2.4503334
-10.853598 -2.5508537 2.4480064
-10.713773 -2.5481019 2.4433262
-10.697715 -2.5368571 2.4528573
-10.845693 -2.4483416 2.4460683
-10.737293 -2.4391143 2.4359813
-10.697145 -2.4308572 2.4544287
-10.833939 -2.3715079 2.4763229
-10.751744 -2.3733516 2.4712567
-10.692801 -2.3801999 2.4764001
-10.904 -2.8050001 2.5580001
-10.857576 -2.8289993 2.5491996
-10.750467 -2.8498065 2.549731
-10.654266 -2.8571982 2.5481639
-10.588333 -2.8443334 2.5493336
-10.877727 -2.7496381 2.550138
-10.616445 -2.7552593 2.5516109
-10.593 -2.7135 2.5665002
-10.859634 -2.651417 2.5513573
-10.747913 -2.6361301 2.5484781
-10.637621 -2.6739736 2.5488379
-10.591167 -2.6843333 2.5506668
-10.837017 -2.545573 2.5408366
-10.742042 -2.5387449 2.5511062
-10.695399 -2.5480001 2.5184
-10.841777 -2.4492266 2.5494146
-10.710178 -2.4495358 2.5468929
-10.691739 -2.4426961 2.5485651
-10.835838 -2.3486795 2.5489678
-10.745071 -2.3337283 2.5241144
-10.691647 -2.3499331 2.555022
-10.827604 -2.2752783 2.5720654
-10.750077 -2.2746024 2.5705254
-10.688875 -2.2735 2.577625
-10.904167 -2.8268335 2.6556668
-10.862605 -2.8326099 2.6543741
-10.752033 -2.8482008 2.6509991
-10.654654 -2.8558214 2.6501694
-10.581667 -2.8375001 2.6475
-10.906385 -2.7577696 2.6820772
-10.885279 -2.7504551 2.6483171
-10.616738 -2.7557397 2.6517398
-10.598 -2.7639999 2.658
-10.861066 -2.6487677 2.6501315
-10.752591 -2.6282444 2.6570609
-10.63536 -2.6747782 2.654722
-10.596601 -2.6846001 2.6236
-10.809001 -2.5223334 2.6098335
-10.762199 -2.5484002 2.6232002
-10.832953 -2.4358356 2.6376464
-10.7345 -2.4411075 2.6477499
-10.693077 -2.4328461 2.6331539
-10.831354 -2.3497026 2.6507955
-10.711 -2.3508749 2.6543748
-10.688931 -2.3513865 2.6488409
-10.826467 -2.24878 2.6473293
-10.746282 -2.2267461 2.6246903
-10.686302 -2.2482269 2.6456602
-10.818743 -2.1747019 2.6731486
-10.750851 -2.1715848 2.6705849
-10.688158 -2.1719203 2.6737201
-10.9105 -2.902 2.7884998
-10.848646 -2.905118 2.7885294
-10.7855 -2.90925 2.78425
-10.905296 -2.8521461 2.7608662
-10.865017 -2.8623743 2.7451091
-10.754327 -2.8630741 2.744673
-10.655301 -2.8517265 2.7502084
-10.5825 -2.8332503 2.7537501
-10.903601 -2.7612998 2.7558496
-10.892884 -2.7484612 2.7487414
-10.61957 -2.7548039 2.7465098
-10.596666 -2.719667 2.7610002
-10.856387 -2.6444499 2.7516904
-10.751575 -2.6277943 2.7507205
-10.651064 -2.6607823 2.7545867
-10.594501 -2.6778572 2.7440002
-10.8375 -2.5974998 2.7537501
-10.812 -2.408 2.727
-10.791 -2.4809999 2.7160001
-10.823796 -2.3359756 2.7369046
-10.742444 -2.3465555 2.7468519
-10.689771 -2.3303077 2.7362309
-10.818775 -2.251121 2.7490137
-10.710001 -2.2866666 2.7653332
-10.68198 -2.2469814 2.7482407
-10.814768 -2.1508102 2.7481477
-10.749585 -2.1262591 2.7196896
-10.678971 -2.1466572 2.7490137
-10.811192 -2.0782762 2.7715535
-10.753377 -2.0672259 2.7673588
-10.67962 -2.0706766 2.775912
-10.913081 -2.9226873 2.8618121
-10.853784 -2.9309344 2.8531098
-10.784533 -2.9253402 2.853575
-10.908335 -2.8509142 2.8515401
-10.8935 -2.8524232 2.8308077
-10.742368 -2.8630667 2.8439
-10.653445 -2.8456097 2.848238
-10.591001 -2.8313336 2.8540001
-10.905795 -2.7727261 2.8519175
-10.885188 -2.7406156 2.844384
-10.622162 -2.75108 2.8497598
-10.593 -2.7119999 2.8080001
-10.909 -2.6989999 2.803
-10.853513 -2.6413898 2.8522031
-10.751066 -2.6221166 2.849597
-10.646323 -2.6589026 2.8508332
-10.594067 -2.672667 2.8450668
-10.8352 -2.5842001 2.8692002
-10.820499 -2.3199999 2.8115001
-10.811065 -2.2366233 2.826508
-10.764123 -2.2564542 2.8502729
-10.68216 -2.23368 2.8349597
-10.80824 -2.1527517 2.8484733
-10.784313 -2.1526248 2.8603752
-10.673196 -2.1472948 2.8504753
-10.806272 -2.0604994 2.8440104
-10.77112 -2.0274673 2.83812
-10.669182 -2.0444417 2.846441
-10.805099 -1.9790999 2.8690996
-10.761361 -1.9682342 2.868618
-10.67434 -1.9724597 2.8699801
-10.914 -3.00775 2.9937499
-10.850961 -3.00652 2.9862797
-10.788333 -3.0016668 2.9909999
-10.918771 -2.9450338 2.9546645
-10.85212 -2.9757175 2.9444153
-10.770536 -2.9545212 2.9551265
-10.914733 -2.852448 2.9496281
-10.879166 -2.8104999 2.9783335
-10.756348 -2.8691738 2.9443915
-10.648635 -2.8442974 2.945122
-10.593 -2.8298335 2.9508333
-10.90962 -2.7804136 2.9337239
-10.87898 -2.7385206 2.9567554
-10.623656 -2.7502127 2.9463832
-10.857109 -2.6443896 2.9483776
-10.751049 -2.6168551 2.94471
-10.646107 -2.6528072 2.9508555
-10.595 -2.6754289 2.9494288
-10.834001 -2.5936248 2.9583123
-10.7822 -2.598 2.9691999
-10.73 -2.3110001 2.921
-10.768167 -2.2238333 2.9293334
-10.683 -2.204 2.9030001
-10.806546 -2.1277728 2.9187729
-10.775795 -2.1424403 2.9467285
-10.67179 -2.1331394 2.9353023
-10.804731 -2.055268 2.9382434
-10.795488 -2.0470192 2.9516797
-10.663641 -2.0467031 2.9502811
-10.803223 -1.9468888 2.9467778
-10.781887 -1.942911 2.9426568
-10.66153 -1.9388587 2.940098
-10.572 -1.9630001 2.9679999
-10.805 -1.898 2.9400001
-10.756213 -1.8661137 2.9687421
-10.662866 -1.8675909 2.9704242
0 0 0 1 0 0 0 1 0 0 0 1 0 0 0 0 0 785 1 0 0
