ply
format ascii 1.0
comment PCL generated
element vertex 747
property float x
property float y
property float z
element camera 1
property float view_px
property float view_py
property float view_pz
property float x_axisx
property float x_axisy
property float x_axisz
property float y_axisx
property float y_axisy
property float y_axisz
property float z_axisx
property float z_axisy
property float z_axisz
property float focal
property float scalex
property float scaley
property float centerx
property float centery
property int viewportx
property int viewporty
property float k1
property float k2
end_header
12.853841 2.6642396 0.040920008
12.957923 2.6569624 0.042547178
13.008375 2.6801252 0.021374999
12.838045 2.745244 0.051463429
12.99 2.7296252 0.079374999
13.014293 2.7523451 0.045327272
12.844792 2.8458068 0.048263166
12.995167 2.8743334 0.053833336
13.041101 2.8548005 0.052900009
13.108 2.8907502 0.048374999
12.1058 2.9680002 0.081
12.854718 2.9483607 0.05604919
12.921 2.9607999 0.027000001
13.091796 2.9519231 0.047512818
13.106347 2.940654 0.059576925
12.061419 3.0489306 0.050488368
12.112667 3.0560002 0.092999995
12.84743 3.0517304 0.052650806
12.959091 3.0813642 0.03318182
13.083602 3.0537055 0.047044117
13.102875 3.037375 0.052374996
11.949157 3.1190941 0.050156254
12.037739 3.114305 0.051173914
12.11675 3.11025 0.080500007
12.847409 3.1460202 0.049352951
12.977749 3.1602809 0.049812507
13.030858 3.1472862 0.060428571
13.105333 3.1026669 0.061999999
12.7905 3.276 0.071999997
12.856198 3.2530403 0.05227999
12.971311 3.251235 0.047181819
13.00525 3.2427502 0.045500003
12.860875 3.3250003 0.023937499
12.949944 3.3189998 0.023647059
12.945 2.6919999 0.104
12.854918 2.7532852 0.14134693
12.956711 2.7464571 0.14803389
13.009304 2.7716956 0.13791305
12.843412 2.8485181 0.14801785
12.985 2.8722 0.16260001
13.034017 2.8543174 0.14973016
13.106999 2.8842001 0.15660001
12.049709 2.9626579 0.15219514
12.139717 2.9691281 0.15897439
12.2185 2.9625001 0.16999999
12.798 2.924 0.18000001
12.847692 2.9494395 0.14937878
13.089042 2.9499145 0.15112765
13.103236 2.9484706 0.14888236
11.932875 3.0496879 0.16062501
12.151788 3.0468395 0.15173215
12.844178 3.0522625 0.15021311
12.9862 3.0962 0.14980002
13.084439 3.0555303 0.1510606
13.1056 3.0702002 0.1462
11.893001 3.1257999 0.114
11.946115 3.1221626 0.14753489
12.042999 3.1219654 0.15203448
12.139068 3.1146336 0.15429999
12.23 3.108 0.19599999
12.849796 3.1531222 0.15157142
12.969262 3.1624999 0.15202633
13.065001 3.1287501 0.15512501
13.103334 3.109 0.16766667
13.849251 3.1190307 0.14374998
12.854964 3.2249644 0.13267855
12.951401 3.2218997 0.12835002
13.005 3.201 0.12
12.858749 2.7962501 0.22000001
12.9598 2.7950001 0.2102
13.024 2.7980001 0.215
12.859568 2.8484826 0.24386209
12.959099 2.84308 0.25202
13.043789 2.8748655 0.24307692
13.110333 2.8861113 0.25588888
11.833333 2.9591112 0.27655557
11.969543 2.976625 0.24233334
12.044284 2.9710171 0.25670004
12.158044 2.9658921 0.24350001
12.233514 2.9706285 0.26317146
12.314 2.9630001 0.29300001
12.441 2.948 0.296
12.529334 2.9260001 0.29533336
12.688 2.9059999 0.29899999
12.846369 2.9448831 0.24972054
12.981 2.9030001 0.28400001
13.090037 2.9515083 0.24972726
13.1028 2.9466999 0.23989999
13.680859 2.9798572 0.27928573
13.745638 2.959234 0.25365958
13.933834 2.9633813 0.23505457
11.981547 3.0471928 0.22341935
12.028807 3.0488057 0.26969448
12.1944 3.0466001 0.21140002
12.236744 3.0490198 0.25166669
12.306 3.099 0.23800001
12.843614 3.0486856 0.24935715
12.956667 3.0986667 0.26700002
13.088327 3.053983 0.25260347
13.103832 3.0533333 0.22466666
13.671901 3.0475004 0.27093333
13.720624 3.0434375 0.21793748
13.893833 3.0503335 0.28833336
13.94256 3.0467126 0.24521212
11.984 3.1157691 0.21753849
12.047566 3.1218467 0.25161535
12.147199 3.1215336 0.24936666
12.236872 3.1152902 0.26009679
12.335 3.109 0.29899999
12.854712 3.1292369 0.24273685
12.956383 3.1220887 0.24558824
13.059393 3.1097503 0.25050002
13.107272 3.1079092 0.25045455
13.67793 3.1182144 0.27800003
13.750866 3.119369 0.24650002
13.857141 3.1204567 0.25242856
13.935735 3.1141315 0.24752635
12.698 2.898 0.31200001
12.7585 2.8894999 0.31149998
12.858267 2.8853533 0.34247062
12.950691 2.8876433 0.34983331
13.044667 2.8894246 0.34730306
13.114 2.891 0.35227275
13.349 2.895 0.32800001
12.080079 2.97984 0.33043998
12.146739 2.9738693 0.35639128
12.253067 2.9667172 0.34673908
12.32341 2.9674871 0.35587183
12.438001 2.9654999 0.33724999
12.545334 2.9318333 0.30783334
12.649714 2.9107144 0.30800003
12.742334 2.911 0.30533335
12.852947 2.9524214 0.35394737
12.925 2.9030001 0.333
13.088794 2.9431422 0.35042858
13.113091 2.9384551 0.33722728
13.265 2.9260001 0.31999999
13.348092 2.9248183 0.32363638
13.4575 2.9225001 0.32680002
13.561749 2.9497502 0.34124997
13.649631 2.9606936 0.35440323
13.755115 2.9470384 0.35636541
13.839528 2.9614387 0.33850884
13.954898 2.9616997 0.33720002
12.076453 3.0477273 0.32687885
12.124446 3.0527365 0.37578958
12.2906 3.0495331 0.3168
12.33415 3.0495753 0.36427507
12.448999 3.0434999 0.3705
12.851556 3.0479262 0.35355565
12.936 3.0974002 0.33899999
13.08662 3.0480862 0.35239664
13.107401 3.0804 0.34200001
13.578295 3.0578825 0.37441179
13.621551 3.0490499 0.32715005
13.796 3.0095 0.38849998
13.849685 3.0476065 0.34996963
12.080874 3.1229999 0.32168746
12.143111 3.1275997 0.35453337
12.25456 3.1244411 0.35555881
12.336501 3.1184287 0.36053571
12.85711 3.1095562 0.350963
12.955274 3.1093791 0.35472417
13.062502 3.1115007 0.35033336
13.1035 3.1120999 0.34160003
13.567499 3.1127501 0.37450001
13.646676 3.1195004 0.35170591
13.752612 3.1186771 0.35222584
13.843801 3.1138 0.35093328
13.902 3.1090002 0.31099999
12.866709 2.890583 0.44883332
12.947152 2.8893332 0.44589737
13.043834 2.8910277 0.4531666
13.1175 2.8882501 0.44237497
12.166834 2.9807081 0.4297083
12.245564 2.974792 0.45554173
12.354803 2.9698005 0.44433331
12.418591 2.9724545 0.46990907
12.854508 2.9510794 0.4474127
12.943335 2.9171667 0.44166666
13.084285 2.9454525 0.44824526
13.116 2.9394546 0.43681821
13.4935 2.9825001 0.48299998
13.557551 2.9635003 0.45890003
13.643129 2.9525871 0.44628266
13.739555 2.9586356 0.44719046
13.805 2.967 0.40700001
12.175117 3.0484192 0.43913952
12.216365 3.0516362 0.48259085
12.376382 3.045619 0.41714284
12.423925 3.0487499 0.46559992
12.854815 3.0470231 0.45213953
13.087417 3.0499527 0.44901595
13.104 3.0253334 0.48033333
13.4897 3.0448999 0.48199996
13.532361 3.0518887 0.43611112
13.76053 3.0466561 0.44984382
13.810143 3.0648572 0.40485719
12.17252 3.1251202 0.42671996
12.241796 3.1276364 0.4562273
12.357242 3.1243782 0.44967571
12.427625 3.117125 0.46200004
12.860299 3.1130004 0.44850001
12.948845 3.1108751 0.449875
13.063926 3.1126585 0.45053649
13.10675 3.1140833 0.45274997
13.470668 3.1100001 0.47900003
13.551375 3.1189373 0.45006245
13.648481 3.1220744 0.44748151
13.747134 3.1155789 0.44923681
13.815572 3.1150002 0.42042857
12.863095 2.8940952 0.55180955
12.942389 2.8936384 0.54972219
13.04052 2.8947403 0.54777783
13.107666 2.8793335 0.55400002
12.268641 2.9806111 0.53980559
12.351859 2.9740863 0.54862857
12.448853 2.9718723 0.54682976
12.521232 2.9776926 0.57215387
12.85429 2.9517922 0.54385418
12.947501 2.9049165 0.55025005
13.081216 2.9454336 0.54968339
13.125 2.9326668 0.52100003
13.394 2.9809999 0.59100002
13.458941 2.969177 0.55688238
13.54648 2.9533756 0.54756248
13.646175 2.9605889 0.54698521
13.7065 2.9723334 0.5103333
12.263425 3.0495899 0.54478687
12.309251 3.0468748 0.58512497
12.477313 3.0448287 0.53154284
12.520097 3.0431433 0.57647622
12.853763 3.0495956 0.54752386
13.0865 3.0472071 0.55149996
13.391666 3.046 0.59200001
13.43875 3.0516503 0.54132491
13.664393 3.0493577 0.55823213
13.71006 3.0530586 0.5097059
12.268966 3.1256208 0.5338276
12.341651 3.1328604 0.55116284
12.443885 3.1258848 0.54484618
12.519145 3.1200004 0.57307142
12.627 3.1040001 0.59799999
12.796667 3.1023335 0.54966664
12.85708 3.1118462 0.54823071
12.942554 3.1155555 0.55069441
13.059629 3.1144416 0.55288374
13.109556 3.1183331 0.54855555
13.3755 3.1085 0.59099996
13.455874 3.119312 0.55496871
13.547332 3.1251519 0.54678786
13.653101 3.1182504 0.54987502
13.720667 3.1160002 0.5141111
12.866302 2.8945999 0.64390004
12.946276 2.8939652 0.64993101
13.048158 2.8952632 0.64605254
12.357476 2.9827957 0.64061368
12.444051 2.9756746 0.64782506
12.543401 2.9737251 0.65252507
12.603667 2.9853332 0.67133331
12.851 2.9451294 0.64638895
12.949467 2.9050004 0.65246677
13.0745 2.9317219 0.65187043
13.104 2.9356668 0.64866668
13.358252 2.9739168 0.65979171
13.44968 2.9554462 0.64491487
13.5515 2.9612663 0.64846665
13.608 2.9712503 0.61533332
12.353712 3.0515902 0.64618182
12.403 3.0440001 0.68900001
12.563966 3.0479288 0.63082147
12.610333 3.0517778 0.67666662
12.7586 3.0877998 0.63980001
12.85271 3.0515525 0.64931583
13.084415 3.048883 0.64723349
13.2826 3.0596001 0.69119996
13.344453 3.0618389 0.64441925
13.574612 3.047889 0.66411108
13.615519 3.056 0.62276
12.363708 3.1303329 0.64113349
12.446528 3.1370883 0.65123522
12.55216 3.1264513 0.6489678
12.621834 3.1176667 0.67683333
12.79 3.1010001 0.69499999
12.862918 3.1144588 0.65204173
12.941808 3.1174617 0.64761531
13.056401 3.1147256 0.64557499
13.105715 3.1187143 0.64600003
13.268 3.1059999 0.67400002
13.365003 3.1227865 0.65653574
13.448681 3.1264398 0.65148002
13.55078 3.1190484 0.65663415
13.621269 3.1134665 0.62433344
12.872572 2.8941431 0.72757143
12.947001 2.8960714 0.73921436
13.044001 2.8957145 0.73800004
12.389 2.9979999 0.69999999
12.453349 2.9831502 0.73930001
12.554387 2.9768636 0.74786359
12.642342 2.9767103 0.75234216
12.716 2.9960001 0.76700002
12.857358 2.9356999 0.75041991
12.952824 2.9055717 0.75571418
13.067164 2.9276543 0.74918181
13.1198 2.9496 0.75860006
13.268929 2.9735003 0.76314288
13.349027 2.9627893 0.74605262
13.453331 2.9614112 0.75257552
13.515421 2.967263 0.71421051
12.394 3.0223331 0.70933336
12.445241 3.0479012 0.75474638
12.659421 3.0588427 0.73589474
12.708 3.0762002 0.78680003
12.845147 3.0567408 0.74485195
13.086176 3.0483754 0.74197495
13.122334 3.0776668 0.76499999
13.2562 3.0535996 0.74316001
13.319 3.098 0.69999999
13.476244 3.0445764 0.77521217
13.525132 3.0486846 0.72173679
12.367 3.1359999 0.73100001
12.453098 3.1316464 0.74403924
12.5443 3.1392004 0.75350004
12.640998 3.126333 0.74986106
12.75075 3.1105001 0.76537502
12.861878 3.1188803 0.74339992
12.946469 3.1233435 0.74596864
13.050185 3.1181843 0.746921
13.116428 3.1165717 0.74671435
13.259501 3.1239505 0.76880002
13.349396 3.128947 0.75023681
13.460972 3.1211715 0.75680006
13.521895 3.1172633 0.7304737
12.897334 2.895 0.829
12.960834 2.8956668 0.83583331
13.016 2.8954999 0.83449996
12.488749 2.9895 0.80575001
12.557695 2.9844902 0.84877551
12.657061 2.9767878 0.85303032
12.740551 2.9768999 0.85934991
12.857356 2.9315851 0.84462243
12.955472 2.9074442 0.85405558
13.068252 2.9301829 0.84650707
13.158092 2.957727 0.85790914
13.252153 2.9656155 0.85123074
13.356778 2.963907 0.85248148
13.420263 2.9722631 0.82715786
12.491669 3.0394001 0.82073337
12.531252 3.0518336 0.85695851
12.7495 3.03825 0.82299995
12.8455 3.0642002 0.82330006
13.086268 3.0383997 0.83326674
13.147 3.0639999 0.83477783
13.219 3.0880001 0.80299997
13.382957 3.045208 0.87779176
13.428639 3.0536668 0.83105558
12.496 3.1470001 0.80199999
12.549071 3.1370523 0.848351
12.651348 3.1398468 0.85134619
12.745198 3.1252398 0.85227996
12.856202 3.1227002 0.84853333
12.953258 3.1268067 0.85087091
13.052966 3.1194484 0.84744823
13.160774 3.1255002 0.86940914
13.245914 3.1301472 0.84649992
13.353893 3.1246073 0.85764289
13.428079 3.1190767 0.83450007
12.8975 2.8985 0.94200003
12.9765 2.8945 0.9235
12.587375 2.9911249 0.92649996
12.6505 2.9858572 0.94838107
12.744723 2.9784136 0.95358634
12.855481 2.9330537 0.95137501
12.947387 2.9106138 0.94804561
13.067661 2.9305389 0.95018464
13.15313 2.9685481 0.94845158
13.257524 2.9659786 0.95650011
13.327168 2.9703667 0.92966676
12.579778 3.049334 0.91659266
12.630513 3.0531397 0.96688384
12.85 3.007 0.91299999
13.081 3.036 0.90499997
13.101 3.0039999 0.92799997
13.288353 3.0412352 0.98411763
13.335888 3.0518 0.93515545
12.585626 3.1418753 0.91450006
12.640691 3.1370192 0.95309615
12.747096 3.1399031 0.94509685
12.850303 3.1319389 0.94990909
12.948136 3.132241 0.951069
13.048084 3.1278751 0.95295846
13.138811 3.1350315 0.9470312
13.250937 3.1294372 0.95359361
13.3385 3.1183159 0.93705261
12.852 2.8989999 1.034
12.6822 2.987 1.016
12.749732 2.9828846 1.0455384
12.852395 2.9341962 1.0530894
12.950276 2.914681 1.0489573
13.059045 2.9293733 1.0500448
13.156814 2.9667103 1.0581844
13.230463 2.9776926 1.0324616
12.677201 3.0393338 1.0278001
12.717515 3.0498793 1.071606
13.1939 3.0423 1.0906
13.240469 3.0536861 1.0409608
12.6832 3.1338999 1.0216
12.740387 3.1403875 1.0583265
12.850794 3.1427939 1.0517058
12.954448 3.1305516 1.0516551
13.060699 3.1355665 1.0482
13.14869 3.1341722 1.0517243
13.233838 3.1232705 1.0465407
13.303 3.1259999 1.005
12.760666 2.9924445 1.1205555
12.850394 2.9384525 1.1516073
12.945916 2.9173832 1.1510637
13.063456 2.9321976 1.1523086
13.134218 2.9786088 1.1365653
12.769907 3.0491855 1.1339998
12.813214 3.0511429 1.1809286
13.098 3.0105 1.191
13.143329 3.0506718 1.1501637
12.778182 3.1356366 1.1320302
12.839233 3.144769 1.161
12.9537 3.1442003 1.1502334
13.056774 3.1397099 1.1442903
13.14627 3.1245406 1.1470269
12.850838 2.9445271 1.2517955
12.951023 2.9206002 1.2508222
13.06618 2.9424164 1.2508205
13.102 2.98 1.2079999
12.845958 3.0521965 1.2475454
13.080198 3.0476391 1.2519342
13.1095 3.085 1.2075
12.858521 3.1371801 1.24626
12.949735 3.1487353 1.2517356
13.062113 3.1330929 1.2525741
13.122 3.145 1.2035
12.852216 2.9464612 1.3522307
12.95187 2.9234564 1.3521739
13.065656 2.9472282 1.3475454
12.846686 3.0539405 1.3516716
13.075736 3.0518517 1.3489672
12.850594 3.1348596 1.3501403
12.948907 3.1497188 1.348969
13.061757 3.1358597 1.3519474
12.851423 2.9472468 1.4479293
12.953584 2.9276047 1.4532326
13.065253 2.9489872 1.4476097
12.847359 3.053741 1.451431
13.075886 3.0494843 1.4492902
12.854737 3.1400878 1.452316
12.948536 3.149678 1.4523929
13.060523 3.1378002 1.4495232
12.84901 2.9493766 1.5491762
12.950753 2.9314446 1.5487556
13.061772 2.9509373 1.5480633
12.842665 3.0503783 1.5488489
13.074239 3.0494444 1.5488572
12.850657 3.1418514 1.5520595
12.95016 3.1549606 1.5474401
13.061315 3.1412573 1.5484713
13.101 3.1500001 1.552
12.852372 2.9516532 1.6506529
12.953594 2.9361904 1.6486666
13.060512 2.9523749 1.6494884
12.842389 3.0509551 1.6502388
13.07392 3.0509834 1.64959
12.853166 3.145597 1.6507363
12.946876 3.1594999 1.6497502
13.060423 3.1450965 1.6484246
12.853596 2.9533167 1.7475063
12.951299 2.9388251 1.7456999
13.05315 2.9528661 1.7526803
12.839875 3.0537028 1.7495002
13.071475 3.0500801 1.7493175
12.84981 3.1497595 1.747291
12.94864 3.1650798 1.7512802
13.061204 3.1447568 1.7485948
12.851353 2.9558921 1.8471357
12.947589 2.9444358 1.8512051
13.056319 2.9560776 1.8486927
12.841311 3.0528274 1.8496716
13.068658 3.0504682 1.8502189
12.849951 3.1511524 1.8479619
12.957998 3.167742 1.8539033
13.063644 3.1460712 1.8488283
12.850977 2.9585249 1.9504746
12.946546 2.9475682 1.9521822
13.054829 2.9605794 1.9477391
12.841413 3.0513537 1.9485233
13.067785 3.0523 1.9520836
12.845308 3.1511791 1.9494282
12.955069 3.1703444 1.951483
13.060944 3.1496944 1.9467915
12.849389 2.9618232 2.0494053
12.948026 2.953553 2.051105
13.052247 2.9621067 2.0501847
12.842625 3.0538285 2.0484216
13.067565 3.0470641 2.0494351
12.843689 3.1537757 2.0503623
12.946529 3.1746473 2.0462644
13.059988 3.1512659 2.0496583
12.851472 2.9663751 2.1499863
12.947217 2.9570546 2.1508651
13.048885 2.9641306 2.1493282
12.799 3.085 2.1900001
12.838736 3.0523591 2.1503596
13.065063 3.0500486 2.1496613
12.845601 3.1550844 2.1494737
12.94771 3.1792085 2.1515002
13.057409 3.1529541 2.1508281
12.877 3.2079999 2.1630001
12.84917 2.9655004 2.2491448
12.94921 2.9600003 2.2506316
13.046199 2.9701667 2.2483001
12.796 3.0793333 2.2536669
12.824176 3.0512629 2.2468774
13.061532 3.0489142 2.2496896
12.796714 3.1447146 2.2692859
12.836791 3.1590245 2.2471242
12.949739 3.1789627 2.2508152
13.058262 3.1563179 2.2502468
13.103 3.1700001 2.2090001
12.858749 3.206625 2.249125
12.835904 2.8866668 2.3818095
12.928779 2.8865557 2.386889
12.774937 2.977 2.3675625
12.836699 2.9439747 2.3433859
12.954628 2.9395919 2.3499813
13.041939 2.9745107 2.3427551
12.7942 3.0644 2.3564003
12.818423 3.0488491 2.3454244
13.060868 3.0500653 2.3497374
12.7942 3.1516502 2.33745
12.811701 3.1485744 2.3515322
12.949591 3.1837273 2.3444092
13.060362 3.152693 2.3480806
12.7928 3.2272003 2.3599
12.834714 3.2427292 2.3514287
12.9224 3.2536402 2.37116
13.0115 3.2034998 2.3365002
12.899 3.3010001 2.375
12.907 3.3080001 2.3859999
12.796 2.7950001 2.493
12.8526 2.7904999 2.4866002
12.935499 2.7904999 2.4935
12.796499 2.8804998 2.4619999
12.832254 2.8468237 2.4485102
12.946339 2.8517213 2.4533541
12.796999 2.9285002 2.4720001
12.814132 2.9470181 2.448415
12.965131 2.9422896 2.4471841
13.041731 2.9798381 2.4456217
12.823983 3.0480452 2.4490893
13.062301 3.0502832 2.4491665
12.796858 3.1571429 2.4467144
12.81755 3.1435304 2.4482942
12.942546 3.1836364 2.4463637
13.057616 3.1488156 2.449538
12.792524 3.2486188 2.4468095
12.812675 3.2471156 2.4472117
12.934056 3.255111 2.4522502
13.031 3.2083335 2.4619999
12.792546 3.3356366 2.4612725
12.833938 3.3418586 2.454953
12.924342 3.3385956 2.4556384
12.821 3.4030001 2.4905
12.797 2.698 2.592
12.855499 2.691 2.5960002
12.925 2.6914999 2.5974998
12.793182 2.7650909 2.5605454
12.834204 2.7511914 2.5515528
12.936069 2.7540667 2.5533504
12.795455 2.8409092 2.5625455
12.811749 2.8482318 2.5487678
12.950554 2.8471472 2.5550001
12.792999 2.9333339 2.5456667
12.824144 2.9512579 2.5474031
12.957088 2.9432671 2.5470891
13.039 2.9831176 2.549382
12.829297 3.048625 2.5492194
13.060847 3.047797 2.5448983
12.798 3.184 2.5205002
12.826845 3.1486876 2.551203
12.952728 3.1878185 2.5498183
13.057315 3.1458766 2.5513158
12.791571 3.2558572 2.5357144
12.81147 3.2467544 2.5490813
12.938882 3.2593234 2.5506468
13.021601 3.2108002 2.5448
12.794002 3.3483567 2.5415001
12.81167 3.3501275 2.5454545
12.935705 3.3535888 2.5476272
12.79054 3.4400003 2.5567696
12.840143 3.4463387 2.5570323
12.93075 3.4379036 2.5592499
12.866 3.5090001 2.595
12.913 3.5039999 2.5940001
12.792 2.599 2.6900001
12.789638 2.6562726 2.6649091
12.839713 2.657928 2.6540856
12.933019 2.664053 2.6601932
12.791477 2.762826 2.6546521
12.80998 2.7467179 2.6498916
12.943374 2.7450655 2.644377
12.79294 2.8349411 2.6491172
12.825814 2.8554184 2.6515813
12.944292 2.8441961 2.64749
12.846551 2.9659362 2.6493618
12.948361 2.9691668 2.6490834
13.03935 2.9825752 2.6480501
12.797 3.059 2.655
12.826015 3.049767 2.6485
13.059115 3.0492001 2.6481335
12.828168 3.1560779 2.6513896
12.947333 3.1908667 2.6571336
13.055143 3.148968 2.65081
12.799 3.283 2.6199999
12.839233 3.2589409 2.641912
12.944187 3.2676876 2.6311874
13.0275 3.2119999 2.6285
12.796332 3.3583333 2.6363335
12.814066 3.3478634 2.6496608
12.94187 3.3497036 2.6509259
12.794286 3.4547145 2.6625717
12.813444 3.4475558 2.6437778
12.940984 3.4506557 2.6518102
12.795501 3.5225 2.6545
12.834575 3.5451515 2.6578791
12.932871 3.5410748 2.6576481
12.811 3.602 2.6989999
12.922 3.6040001 2.6949999
12.790713 2.5600715 2.7687857
12.844211 2.5639474 2.7569292
12.93 2.5696497 2.7606256
12.789089 2.6486969 2.7526367
12.814622 2.6384861 2.7338109
12.938719 2.6482942 2.7469835
12.791622 2.7410345 2.7413101
12.823826 2.7545886 2.7568824
12.939433 2.7489169 2.748584
12.7845 2.8099999 2.7115002
12.836812 2.8211253 2.7253125
12.936334 2.8222668 2.722867
12.848472 2.9799798 2.7513874
12.950873 2.9793251 2.7487249
13.032892 2.9824646 2.7500002
12.82595 3.0489335 2.7467837
13.056046 3.0474777 2.7488811
12.794 3.161 2.7379999
12.832028 3.1588562 2.7506318
12.951266 3.1928 2.7430668
13.053254 3.1573236 2.7526755
12.847667 3.2091665 2.7510834
12.939001 3.2024999 2.7723336
13.050334 3.205667 2.7486668
12.787 3.392 2.7420001
12.833136 3.3691618 2.7399461
12.942709 3.3746662 2.7327917
12.794666 3.467 2.7385001
12.8168 3.4456921 2.751462
12.946486 3.4534843 2.7492504
12.796308 3.5542309 2.7478464
12.816081 3.5496533 2.7456934
12.944635 3.5515997 2.7504902
12.790999 3.6450002 2.7651248
12.837516 3.6403174 2.7580914
12.939146 3.6403456 2.757236
12.817 3.707 2.799
12.927 3.7320001 2.7939999
12.787947 2.4719474 2.8684738
12.844503 2.4673131 2.8659163
12.924442 2.4752944 2.8659413
12.787192 2.5524809 2.8514233
12.832369 2.5271113 2.8291111
12.932061 2.5483079 2.8441622
12.788952 2.6472676 2.8469024
12.812098 2.6614287 2.8543811
12.933031 2.6502378 2.8525257
12.793001 2.7177145 2.8117146
12.841311 2.7279377 2.8304372
12.929501 2.7240002 2.8285453
12.796 2.9890001 2.8010001
12.843852 2.9825006 2.8499632
12.952277 2.9827251 2.8477252
13.026719 2.9834688 2.8479376
12.825982 3.0506225 2.8476386
13.055479 3.0443532 2.8485844
12.827201 3.1581004 2.846086
12.959502 3.1952 2.8377001
13.052547 3.1537426 2.8527422
12.795 3.217 2.842
12.848787 3.206286 2.8524287
12.935524 3.2085235 2.8554761
13.053 3.2122502 2.8605001
12.7895 3.4809999 2.8309999
12.829266 3.4646442 2.8353779
12.946937 3.4699035 2.8291934
12.794214 3.5325 2.841357
12.818315 3.5507963 2.8537781
12.949018 3.5512123 2.8509181
12.795376 3.6534998 2.8357501
12.817641 3.6517212 2.8482454
12.94551 3.653255 2.8486273
12.791334 3.7356668 2.8706665
12.83915 3.7391493 2.8596115
12.933479 3.7392623 2.8615956
12.866 3.8039999 2.8970001
12.781348 2.3790433 2.9723041
12.853138 2.3728058 2.9707501
12.920999 2.3793602 2.9758403
12.783169 2.4504833 2.9487669
12.844162 2.4235482 2.9239037
12.927931 2.4482927 2.9464829
12.782792 2.5496485 2.9486322
12.832715 2.5837145 2.9628572
12.928314 2.5508752 2.9523754
12.786099 2.6221998 2.9288998
12.843819 2.6348181 2.9381363
12.929348 2.6283913 2.927609
12.845463 2.9866965 2.9520891
12.954147 2.9864118 2.9473236
13.03231 2.9896157 2.9436929
12.824395 3.0499668 2.9495084
12.95 3 2.9089999
13.053761 3.0461185 2.9500005
12.796429 3.1685719 2.9424288
12.822705 3.1511312 2.9460819
12.970333 3.1963334 2.9160001
13.05177 3.1518335 2.9486525
12.842929 3.2107146 2.9533567
12.947547 3.2089677 2.9500322
13.043058 3.2112355 2.9605885
12.795 3.5510001 2.914
12.835381 3.5630603 2.93764
12.942941 3.5676763 2.9322646
12.797429 3.6578574 2.9402859
12.818897 3.646796 2.9518812
12.950901 3.6525171 2.9492662
12.797333 3.7533336 2.9570003
12.818905 3.753778 2.9495401
12.946104 3.7567961 2.9471867
12.787668 3.8358333 2.9689999
12.839197 3.8378007 2.959851
12.935597 3.83952 2.9612398
0 0 0 1 0 0 0 1 0 0 0 1 0 0 0 0 0 747 1 0 0
