ply
format ascii 1.0
comment PCL generated
element vertex 639
property float x
property float y
property float z
element camera 1
property float view_px
property float view_py
property float view_pz
property float x_axisx
property float x_axisy
property float x_axisz
property float y_axisx
property float y_axisy
property float y_axisz
property float z_axisx
property float z_axisy
property float z_axisz
property float focal
property float scalex
property float scaley
property float centerx
property float centery
property int viewportx
property int viewporty
property float k1
property float k2
end_header
9.0902014 10.626 0.0038000003
9.1451902 10.647442 0.0470916
9.2491226 10.62581 0.047051724
9.3386154 10.637075 0.05794872
9.4104996 10.625999 0.081500001
9.8948002 10.6602 0.013400001
9.9303913 10.665507 0.048355944
10.04768 10.653039 0.045159996
10.160534 10.668068 0.05323334
10.201334 10.658001 0.057000004
10.789572 10.667001 0.083285719
10.84352 10.656683 0.044796299
10.960143 10.641686 0.053485714
11.030136 10.654591 0.035818182
9.0959997 10.728 0.0040000002
9.1478338 10.736981 0.048637364
9.2526665 10.767543 0.052416667
9.3325462 10.745682 0.050954554
9.8939629 10.73963 0.043925922
9.9158154 10.752569 0.051966671
10.180834 10.759833 0.052500002
10.783889 10.730666 0.08183334
10.838486 10.742305 0.040122446
10.954402 10.758601 0.05785
11.030068 10.748932 0.037758622
9.2524996 10.804501 0.059500001
9.9336748 10.841564 0.047450699
10.053617 10.86277 0.059769236
10.152932 10.8458 0.051533334
10.202 10.8345 0.0515
10.076 10.909 0.001
9.3719997 10.587999 0.1295
9.4034996 10.591 0.13350001
9.1867142 10.656109 0.11682145
9.2389669 10.649489 0.15403061
9.3518524 10.632244 0.14219512
9.4309158 10.637042 0.15641665
9.8959999 10.67175 0.118
9.9377346 10.675282 0.14852829
10.051417 10.665874 0.150125
10.160596 10.666539 0.14981084
10.6902 10.6822 0.1868
10.746852 10.662127 0.14631915
10.853765 10.638147 0.1502647
10.933881 10.655919 0.13903999
9.1875992 10.736101 0.11450001
9.2384415 10.745193 0.15498701
9.3592968 10.762889 0.14481482
9.4223576 10.756786 0.16692857
9.8960009 10.747001 0.12266667
9.9237404 10.750716 0.14887653
10.012 10.706 0.152
10.179828 10.74407 0.15072414
10.689375 10.731249 0.18499999
10.7436 10.741738 0.14442
10.844066 10.771399 0.15793332
10.935166 10.749835 0.14333333
9.9354801 10.839154 0.15301923
10.060533 10.860867 0.14746667
10.158437 10.844625 0.1411875
10.2075 10.8405 0.15675001
9.2778006 10.65589 0.2244
9.331954 10.646692 0.25853845
9.4483995 10.639525 0.24159999
9.5232496 10.64235 0.26835003
9.9343071 10.675344 0.24821816
10.053287 10.665618 0.24542859
10.160172 10.666457 0.24728571
10.2065 10.687 0.2465
10.578 10.69 0.29699999
10.657853 10.665805 0.25180483
10.756111 10.640888 0.25088888
10.840879 10.657061 0.24239394
9.2792854 10.738501 0.22340479
9.3366632 10.751824 0.26164708
9.457242 10.764137 0.24155171
9.5251112 10.751 0.28444445
9.8940001 10.747 0.25799999
9.9248762 10.747625 0.24630682
10.180894 10.742474 0.24010529
10.5872 10.732201 0.29260001
10.647845 10.743518 0.24786209
10.743267 10.77 0.24759999
10.844938 10.751625 0.24481253
9.9354811 10.841101 0.25196001
10.064285 10.858929 0.24478571
10.145294 10.845471 0.2562353
9.3711939 10.660887 0.33204842
9.4396544 10.645349 0.3598462
9.5508652 10.645162 0.34956762
9.616334 10.652334 0.36833331
9.8959999 10.673 0.37799999
9.9368505 10.676491 0.34768084
10.05425 10.666905 0.34946871
10.157668 10.670878 0.34814289
10.564919 10.6636 0.36032
10.644929 10.650069 0.34124145
10.748841 10.65672 0.34136
10.803 10.6705 0.30849999
9.3723421 10.741112 0.33340621
9.4324379 10.758021 0.36625001
9.5555391 10.766462 0.35330769
9.618 10.739 0.38800001
9.8959999 10.763 0.301
9.9237289 10.744066 0.3482973
10.179351 10.73035 0.3459
10.2 10.73 0.33000001
10.559911 10.744411 0.34957153
10.645778 10.77439 0.34777775
10.756434 10.747957 0.3459565
10.809 10.762 0.31099999
9.9321337 10.838954 0.35326663
10.043529 10.860001 0.35017648
10.141889 10.848833 0.3493889
9.4803333 10.580334 0.41566667
9.5144997 10.5865 0.417
9.4621878 10.661375 0.44510666
9.5437365 10.638604 0.44728953
9.646842 10.649632 0.45252636
9.8909998 10.693 0.435
9.9444723 10.678189 0.44973582
10.053912 10.671764 0.45182353
10.160866 10.675972 0.45297295
10.467861 10.667931 0.46668959
10.550364 10.653955 0.44445461
10.655105 10.654631 0.44784209
10.710667 10.654834 0.40733334
9.4627934 10.743648 0.44176844
9.5379343 10.777034 0.45880005
9.6439991 10.757871 0.45530432
9.7189999 10.764 0.47499999
9.8950005 10.713 0.498
9.9206676 10.746242 0.44719052
10.181231 10.728847 0.44738466
10.465373 10.745375 0.45468745
10.53984 10.76964 0.44140002
10.655275 10.756967 0.45765522
10.706222 10.740224 0.41455558
9.9344997 10.838159 0.44804001
10.05355 10.86275 0.44830003
10.158937 10.844563 0.4548125
10.202 10.826 0.447
9.4846678 10.666334 0.50566667
9.5479107 10.662923 0.54707706
9.6503744 10.648252 0.54697502
9.7341137 10.658116 0.55474281
9.8408337 10.683001 0.56600004
9.9501543 10.676103 0.55387187
10.052322 10.672253 0.54871434
10.147689 10.67738 0.54651725
10.2172 10.6864 0.56560004
10.376876 10.669874 0.56918746
10.441595 10.656784 0.54740542
10.557027 10.65536 0.5488717
10.6158 10.664599 0.51640004
9.4909992 10.723499 0.50199997
9.5502586 10.750921 0.54661387
9.6596432 10.784071 0.55392861
9.7472992 10.764701 0.55575001
9.8990002 10.725 0.56400001
9.9185181 10.754823 0.54408926
10.188889 10.739332 0.54933339
10.22 10.702 0.50800002
10.371834 10.721751 0.55641675
10.444 10.768764 0.54270589
10.558299 10.762335 0.55423331
10.619889 10.739444 0.52266669
9.7299995 10.8 0.54000002
9.935463 10.841499 0.54407692
10.046153 10.861616 0.54923075
10.148899 10.850751 0.54095
10.207335 10.842001 0.58266664
9.5872498 10.672812 0.61737496
9.6407461 10.663254 0.65301418
9.7492571 10.649846 0.65082043
9.840807 10.660806 0.66070974
9.9585152 10.676031 0.64719361
10.053765 10.67203 0.64458823
10.144902 10.679334 0.64980006
10.265716 10.679429 0.66790479
10.344571 10.661629 0.64368564
10.449718 10.658564 0.65351278
10.519876 10.66925 0.61712503
9.5896101 10.744278 0.61216664
9.635951 10.755706 0.6540001
9.7423897 10.786889 0.64688891
9.8382769 10.759833 0.65516675
9.9211731 10.767656 0.64593107
10.182364 10.735455 0.64590913
10.211 10.762 0.68400002
10.336573 10.756713 0.6472857
10.457159 10.7638 0.6613999
10.525158 10.750317 0.62689477
9.7309999 10.804001 0.64249998
9.8970003 10.822 0.68800002
9.9372702 10.843666 0.64575005
10.060153 10.860694 0.64569235
10.143364 10.853365 0.64572734
10.28 10.816 0.62099999
9.6792583 10.672064 0.72870964
9.7406483 10.660858 0.75792074
9.8495998 10.653289 0.74911118
9.9434862 10.670424 0.75360614
10.048207 10.672451 0.75027579
10.14104 10.67576 0.75580007
10.245605 10.666949 0.75273693
10.354373 10.660973 0.75325727
10.427278 10.664112 0.72561103
9.6790257 10.745872 0.72056413
9.7281599 10.761296 0.76111758
9.8570004 10.785786 0.75635713
9.9246006 10.778 0.73809999
10.024 10.705 0.727
10.165001 10.712 0.736
10.365467 10.757868 0.7645334
10.428182 10.75141 0.73400003
9.7489996 10.804 0.75240004
9.8653336 10.817333 0.74766672
9.9319801 10.841876 0.74883682
10.047334 10.861777 0.74744445
10.135307 10.866077 0.76076919
9.7714128 10.670077 0.83951288
9.8398762 10.661751 0.85897934
9.9494238 10.660575 0.85284996
10.05337 10.674852 0.84837037
10.152576 10.666244 0.8464545
10.257286 10.661857 0.85411429
10.329714 10.663191 0.83638102
9.7680712 10.751175 0.83133328
9.823205 10.764256 0.86869228
9.90275 10.795 0.85075003
10.029 10.701 0.88
10.104 10.721 0.83999997
10.278571 10.750714 0.88114285
10.3388 10.73505 0.83960003
9.7630005 10.804333 0.81900001
9.8541431 10.808858 0.85957146
9.9321432 10.840877 0.85114276
10.052055 10.863389 0.84799993
10.15056 10.86384 0.85199994
10.321 10.803 0.87300003
9.8618269 10.674463 0.9440769
9.9468012 10.660051 0.95762491
10.047425 10.66415 0.9436059
10.15156 10.654256 0.95248854
10.234875 10.668125 0.94125003
9.8594141 10.751549 0.94133776
9.9063749 10.778375 0.9745
10.193001 10.789 0.96649998
10.248953 10.736047 0.94409525
9.8822002 10.8072 0.93339998
9.9293785 10.840936 0.95420635
10.038579 10.867474 0.94800007
10.147408 10.851148 0.95203698
9.8917494 10.67725 1.0246249
9.9401884 10.67579 1.0511322
10.050259 10.66216 1.0506774
10.155185 10.667921 1.0448158
9.8900003 10.733749 1.0484999
9.9184437 10.751102 1.0483065
10.032 10.704 1.071
10.176697 10.746957 1.0493913
9.8985004 10.834 1.0225
9.9316759 10.840167 1.0516231
9.8990002 10.699 1.153
9.9365501 10.681741 1.1481378
10.049221 10.671344 1.1499064
10.154448 10.676607 1.1526053
9.8927498 10.724501 1.1535001
9.9186068 10.749586 1.1488507
10.076 10.704 1.1270001
10.169343 10.745657 1.1441251
9.9292326 10.838365 1.1501426
9.9393597 10.682172 1.249851
10.045701 10.679133 1.2515999
10.147529 10.681915 1.2503335
9.8942003 10.7384 1.2584
9.919117 10.747991 1.2505262
10.075 10.709 1.223
10.172167 10.748802 1.2524667
9.9299755 10.840352 1.2479876
9.8990002 10.675 1.3940001
9.9427128 10.684308 1.3486153
10.049463 10.679717 1.3493589
10.15097 10.683273 1.3523635
9.894001 10.744667 1.3663334
9.9191923 10.749732 1.3513484
10.078 10.712 1.376
10.171037 10.754927 1.3494072
9.8959999 10.816 1.364
9.9296198 10.841084 1.3507262
9.8949995 10.679001 1.4647501
9.9471636 10.684958 1.4495307
10.050514 10.682543 1.4565712
10.150636 10.684637 1.4503636
9.8986673 10.745334 1.4416668
9.9199305 10.747639 1.4509547
10.0575 10.709499 1.415
10.167883 10.754737 1.4490589
9.8970003 10.85 1.465
9.9294586 10.843211 1.4530473
10.054 10.873001 1.4442308
10.15696 10.850115 1.4509231
9.8930006 10.685667 1.5336666
9.9426527 10.685163 1.5524079
10.057117 10.681117 1.5499413
10.149154 10.683694 1.5453461
9.8932505 10.765 1.541
9.9187536 10.747071 1.549438
10 10.705 1.571
10.167517 10.747515 1.5484837
9.8970003 10.821 1.528
9.9251842 10.843312 1.5503485
10.051 10.874445 1.5497779
10.154359 10.85148 1.5482401
9.8920002 10.687 1.663
9.9358521 10.686499 1.650926
10.052576 10.681451 1.6495253
10.14856 10.68292 1.6484799
9.8956242 10.756 1.6626251
9.9161568 10.750301 1.6470846
10.054199 10.7026 1.6529999
10.16425 10.744375 1.6431875
9.8976669 10.861 1.6440001
9.925806 10.844928 1.6499883
10.049563 10.873814 1.6532502
10.158028 10.846594 1.6479461
9.9391832 10.686145 1.7483674
10.050657 10.684657 1.7502924
10.143852 10.684001 1.7517778
9.8972006 10.7387 1.7481002
9.9146376 10.751373 1.7487
10.159932 10.742862 1.7506552
9.8969994 10.828249 1.7425001
9.9259138 10.847426 1.7485501
10.050187 10.876312 1.7501252
10.151 10.848025 1.7501794
9.8889999 10.686501 1.8385
9.9370871 10.686574 1.8478085
10.048675 10.685201 1.849775
10.14265 10.682399 1.84315
9.8963757 10.7335 1.8475
9.9154892 10.749636 1.8490459
10.050001 10.703001 1.8633335
10.15807 10.743276 1.8507586
9.8940001 10.84425 1.82775
9.9265337 10.847399 1.8500907
10.041692 10.877692 1.8534615
10.149378 10.855891 1.8500272
9.8917999 10.684401 1.9549999
9.9367867 10.685976 1.9470714
10.045088 10.68512 1.9461766
10.139322 10.684322 1.9494643
9.8942738 10.743728 1.9489089
9.9165125 10.750192 1.9488807
10.053875 10.706875 1.960125
10.160937 10.745751 1.9456563
9.8979998 10.835 1.944
9.9244785 10.848216 1.9516592
10.053417 10.87725 1.9530835
10.149485 10.85082 1.9446363
9.8963337 10.687667 2.0383334
9.9372787 10.684348 2.0440695
10.049375 10.684813 2.0541875
10.137679 10.684751 2.0517859
9.8975716 10.741715 2.0557141
9.9195042 10.749139 2.0512645
10.0498 10.7102 2.0458
10.160567 10.750165 2.0476999
9.8990002 10.868 2.01
9.9268341 10.847931 2.0528316
10.0585 10.87875 2.0480833
10.149633 10.847199 2.0518665
9.9639997 10.592667 2.194
9.9439001 10.65959 2.1513243
10.043904 10.658217 2.1561666
10.131251 10.68705 2.13465
9.8935003 10.73925 2.1342499
9.9188881 10.747549 2.1458869
10.0698 10.7084 2.1446002
10.156906 10.746251 2.151469
9.8990002 10.841 2.1210001
9.9293222 10.847498 2.1418066
10.0589 10.879799 2.1314001
10.150578 10.848923 2.1537306
9.9680004 10.9 2.175
10.135668 10.902 2.1489999
9.9447174 10.559777 2.2574124
10.037111 10.56286 2.2591388
9.8942003 10.6792 2.2524002
9.9205427 10.647 2.2405219
10.058314 10.646144 2.2476287
10.125444 10.691 2.2421112
9.8975 10.723666 2.2446668
9.9126997 10.748802 2.251075
10.0575 10.703 2.2605
10.153086 10.740201 2.2480285
9.8923998 10.825 2.2532003
9.9235697 10.849649 2.2460001
10.094 10.888 2.2703333
10.16011 10.834722 2.2443333
9.9323502 10.924549 2.2553501
10.025 10.932 2.2704999
10.125 10.908 2.2320001
9.8850002 10.461 2.3934999
9.9428253 10.463137 2.3576155
10.029853 10.464469 2.3615291
9.8943014 10.575999 2.3664999
9.9192238 10.539491 2.3429594
10.045915 10.542343 2.3469431
9.8934994 10.640928 2.3635001
9.9105349 10.651736 2.3367
10.054182 10.651214 2.3550906
10.125 10.6916 2.3434999
9.8945713 10.727 2.3187141
9.9271231 10.755634 2.3559756
10.06 10.701 2.3369999
10.157915 10.738171 2.3494575
9.9219599 10.85112 2.3514197
10.081 10.894 2.355
10.158741 10.83026 2.346087
9.9233503 10.942774 2.347625
10.038071 10.953143 2.3548572
10.122 10.909 2.375
9.9317503 11.009001 2.382
10.037 11.005 2.3759999
9.8904161 10.374 2.4807501
9.9425735 10.358593 2.4636667
10.029826 10.365262 2.4631305
9.8896656 10.458875 2.4664583
9.9240198 10.438944 2.4360387
10.038564 10.441249 2.4454374
9.8861094 10.55592 2.4598107
9.9101057 10.545367 2.4517369
10.038893 10.547714 2.4514999
9.8889999 10.6256 2.4356
9.9254541 10.670547 2.4567726
10.041569 10.656801 2.4530332
10.132637 10.68991 2.4510908
9.8950005 10.745501 2.4688749
9.9124727 10.748452 2.4548118
10.0455 10.71325 2.464
10.152879 10.74397 2.4539089
9.9174986 10.849564 2.4555004
10.0795 10.898001 2.4499998
10.152789 10.83521 2.4562106
9.8965006 10.958167 2.4808335
9.9209528 10.951727 2.4546819
10.056883 10.952001 2.4538233
9.8972006 11.046401 2.4806001
9.9222984 11.04135 2.4639499
10.034467 11.034867 2.4654002
10.0145 10.176001 2.5855
9.8894806 10.2758 2.5656798
9.9384394 10.262419 2.5605197
10.022636 10.270774 2.566591
9.8882265 10.35183 2.5532267
9.9211779 10.336574 2.5379503
10.030189 10.345093 2.5403438
9.8838625 10.453397 2.5535617
9.9082355 10.436471 2.5318823
10.034466 10.44693 2.5459647
9.8827238 10.53165 2.5361998
9.9392662 10.551466 2.5470669
10.027318 10.53741 2.5486364
9.9460001 10.687688 2.5508618
10.045906 10.678062 2.5469687
10.133833 10.690834 2.5570831
9.8946438 10.757358 2.5476429
9.9138451 10.748229 2.5474434
10.037 10.712 2.5320001
10.155143 10.747644 2.5507143
9.8952503 10.836501 2.5511248
9.9171734 10.850163 2.5488553
10.155444 10.834056 2.5513334
9.895999 10.946601 2.5332
9.9190722 10.950642 2.5487576
10.04842 10.953001 2.5505264
9.8941107 11.045222 2.5374444
9.9198313 11.051887 2.5477149
10.048858 11.04681 2.5520477
9.8943338 11.138 2.5903335
9.9369993 11.120485 2.5606
10.024667 11.117888 2.5665555
9.8884621 10.167423 2.6717308
9.9335842 10.163896 2.6623125
10.020531 10.169529 2.6730001
9.8848391 10.25078 2.6540442
9.9328938 10.224358 2.6261072
10.027577 10.245272 2.6459396
9.8818007 10.350262 2.6510253
9.9082003 10.328801 2.6464002
10.027699 10.349235 2.6469331
9.8806448 10.434834 2.6382864
9.9414377 10.44175 2.6525624
10.025827 10.447479 2.6386957
9.9870005 10.503 2.6129999
10.01 10.5135 2.6129999
9.8889999 10.690001 2.6415
9.9483223 10.691388 2.6522906
10.043115 10.683258 2.6488283
10.132319 10.68628 2.6491199
9.8940516 10.752551 2.6558502
9.9124651 10.747967 2.6475694
10.0445 10.7015 2.6275001
10.152858 10.744028 2.6436286
9.8942995 10.824701 2.6515
9.9221849 10.85576 2.6504366
10.02625 10.884749 2.6819999
10.155138 10.845454 2.6509094
9.9335871 10.966349 2.643239
10.026801 10.961735 2.6503336
9.8970013 11.042429 2.6572857
9.9178696 11.050258 2.6470294
10.057418 11.045291 2.6461248
9.893857 11.136 2.6577144
9.92484 11.148515 2.6512702
10.035542 11.149666 2.6526253
9.8979998 11.201 2.6830001
9.9452858 11.206286 2.6861432
10.028 11.207335 2.6836669
9.8846998 10.067966 2.7693
9.9357376 10.063475 2.7657371
10.018589 10.074705 2.7760584
9.8812304 10.150708 2.7511151
9.9429998 10.125 2.7269566
10.019581 10.15129 2.7507734
9.8755264 10.250013 2.7490947
9.904501 10.247833 2.7558334
10.018813 10.248148 2.7496295
9.874404 10.334681 2.7379997
9.9498329 10.350501 2.75825
10.018149 10.347777 2.7376294
9.8929996 10.415 2.7
9.9895 10.4155 2.7105
10.014 10.423 2.704
9.9576492 10.684404 2.7496758
10.051062 10.676817 2.7436366
10.127481 10.68484 2.7493601
9.8952684 10.755 2.7444005
9.914793 10.744926 2.7490003
10.155192 10.746387 2.7462902
9.8957138 10.824573 2.7681429
9.9246931 10.856429 2.7498026
10.053749 10.886001 2.7479999
10.154135 10.848001 2.7507334
9.9495001 10.988626 2.7193751
10.043667 10.934001 2.7409999
9.8971672 11.080501 2.7473335
9.9253635 11.051501 2.7478027
10.038079 11.051759 2.7412801
9.8959999 11.151999 2.7668889
9.9184046 11.149926 2.7478693
10.05392 11.147679 2.7488797
9.8943329 11.215334 2.776
9.9305458 11.23178 2.7557819
10.029 11.229842 2.7530525
9.885375 9.9697189 2.8705628
9.9489374 9.9661884 2.8707812
10.0218 9.9771996 2.8678999
9.8776979 10.047366 2.8526239
9.9431791 10.029108 2.8295357
10.013679 10.047964 2.8494642
9.8712902 10.149311 2.8499296
9.9379997 10.144333 2.8646667
10.01493 10.15425 2.8552861
9.8675308 10.237178 2.8384118
9.9496422 10.262501 2.8536429
10.017056 10.247833 2.8413332
9.8940001 10.307 2.8
9.9619999 10.310834 2.8195
10.027 10.319 2.8070002
9.8959999 10.672 2.8924999
9.9428806 10.679139 2.8496401
10.048162 10.677135 2.8487027
10.151355 10.685418 2.8538709
9.8899317 10.745896 2.857655
9.910882 10.754082 2.8451998
10.062 10.717 2.802
10.155501 10.755033 2.8470666
9.8934994 10.842875 2.8473749
9.9212952 10.853161 2.8492665
10.0535 10.8865 2.8511875
10.148499 10.857407 2.8525939
9.9569998 10.9 2.892
10.075001 10.9025 2.8435001
10.112 10.902 2.8599999
9.9432707 11.071846 2.8374236
10.023643 11.074 2.8287861
9.8972225 11.165112 2.8198886
9.919899 11.147839 2.8530879
10.051933 11.146969 2.8465333
9.8957138 11.229144 2.8467143
9.9203873 11.255403 2.8491206
10.04328 11.249239 2.84512
9.9413605 11.31728 2.8738403
10.0246 11.310199 2.8662002
9.8762903 9.8705168 2.9707417
9.9477482 9.8689985 2.967
10.012 9.8764296 2.9802859
9.8707876 9.9497004 2.9488337
9.9571018 9.9174013 2.9252002
10.017375 9.948 2.9451563
9.8657427 10.053657 2.9513052
9.9986 10.0288 2.9628003
10.0106 10.05105 2.9435
9.8610201 10.140983 2.9401479
9.9742508 10.1575 2.9561501
10.011 10.140643 2.9389288
9.9498577 10.227571 2.9230001
10.032 10.212 2.9289999
9.8716335 10.681935 2.9603002
9.9442654 10.663367 2.9436324
10.055 10.679911 2.9467945
10.153501 10.67335 2.9448497
10.213125 10.689125 2.9701252
9.8638859 10.749863 2.9501476
9.9300003 10.713333 2.9256666
10.188 10.747583 2.924417
10.216368 10.749368 2.9680524
9.8775768 10.818423 2.9478078
9.9224739 10.862407 2.948221
10.031273 10.887547 2.9478185
10.141859 10.868288 2.9463212
10.2135 10.81525 2.9765
9.9610004 10.902 2.9460001
10.0815 10.9095 2.9495001
10.101 10.901 2.9530001
9.9524994 11.0875 2.901
9.8986673 11.178333 2.9190001
9.9360952 11.156772 2.942095
10.0344 11.161799 2.9386399
9.8959999 11.249201 2.9335999
9.9155703 11.250599 2.9513333
10.054964 11.245001 2.9483707
9.8980007 11.360001 2.9324999
9.9290323 11.347371 2.9548466
10.031349 11.344099 2.9522502
9.9689999 11.404 2.9949999
0 0 0 1 0 0 0 1 0 0 0 1 0 0 0 0 0 639 1 0 0
