ply
format ascii 1.0
comment PCL generated
element vertex 1826
property float x
property float y
property float z
element camera 0
property float view_px
property float view_py
property float view_pz
property float x_axisx
property float x_axisy
property float x_axisz
property float y_axisx
property float y_axisy
property float y_axisz
property float z_axisx
property float z_axisy
property float z_axisz
property float focal
property float scalex
property float scaley
property float centerx
property float centery
property int viewportx
property int viewporty
property float k1
property float k2
end_header
-9.9750004 3.6830001 2.8900001
-9.9890003 3.6760001 2.869
-9.9540005 3.691 2.8770001
-9.9219999 3.7060001 2.8829999
-10.122 3.6340001 2.9949999
-10.129 3.6300001 2.9779999
-10.127 3.6300001 2.967
-10.12 3.632 2.9579999
-10.114 3.635 2.9489999
-10.104 3.6389999 2.9419999
-10.091 3.645 2.938
-10.08 3.6489999 2.9319999
-10.055 3.6600001 2.934
-10.077 3.6489999 2.908
-10.04 3.6659999 2.9170001
-10.041 3.665 2.904
-10.034 3.6670001 2.895
-10.019 3.674 2.892
-10.009 3.678 2.885
-9.993 3.6849999 2.882
-9.9849997 3.6889999 2.8740001
-9.9879999 3.6860001 2.859
-9.9309998 3.7130001 2.8789999
-9.9420004 3.707 2.8599999
-10.131 3.6400001 2.9920001
-10.126 3.642 2.9820001
-10.12 3.6440001 2.973
-10.133 3.6370001 2.9519999
-10.125 3.6400001 2.944
-10.119 3.642 2.9349999
-10.097 3.652 2.9360001
-10.089 3.655 2.928
-10.072 3.6630001 2.9260001
-10.073 3.6619999 2.9119999
-10.069 3.6630001 2.902
-10.056 3.668 2.8970001
-10.046 3.6719999 2.8900001
-10.037 3.6760001 2.8829999
-10.017 3.6849999 2.882
-10.006 3.6900001 2.8759999
-10 3.6919999 2.8670001
-9.9849997 3.698 2.862
-9.9779997 3.701 2.8540001
-9.9420004 3.7179999 2.862
-9.9259996 3.7249999 2.858
-10.126 3.6530001 2.997
-10.133 3.6489999 2.98
-10.11 3.6600001 2.9809999
-10.11 3.6589999 2.9679999
-10.124 3.651 2.9460001
-10.117 3.654 2.938
-10.108 3.6570001 2.931
-10.106 3.658 2.9200001
-10.087 3.6659999 2.9189999
-10.08 3.6689999 2.9100001
-10.078 3.6689999 2.898
-10.064 3.675 2.8940001
-10.05 3.681 2.8900001
-10.045 3.6830001 2.8800001
-10.04 3.6849999 2.8699999
-10.023 3.6919999 2.8670001
-10.02 3.6930001 2.8570001
-10.004 3.7 2.8529999
-9.9949999 3.7030001 2.845
-9.967 3.7160001 2.849
-9.9650002 3.717 2.8380001
-9.948 3.724 2.835
-9.9200001 3.737 2.8380001
-10.122 3.665 2.9890001
-10.116 3.6659999 2.9790001
-10.11 3.6689999 2.97
-10.105 3.671 2.961
-10.116 3.664 2.941
-10.116 3.664 2.928
-10.121 3.6600001 2.9119999
-10.094 3.6730001 2.9159999
-10.096 3.671 2.902
-10.095 3.671 2.8900001
-10.065 3.6849999 2.895
-10.062 3.6860001 2.8840001
-10.067 3.6830001 2.869
-10.044 3.6930001 2.8699999
-10.039 3.6949999 2.8599999
-10.022 3.7019999 2.8570001
-10.005 3.71 2.8540001
-10 3.7119999 2.8440001
-9.9860001 3.7179999 2.8399999
-9.9879999 3.7160001 2.826
-9.9560003 3.7309999 2.832
-9.9469995 3.7349999 2.8239999
-9.9069996 3.753 2.8340001
-10.125 3.674 2.9879999
-10.127 3.6719999 2.974
-10.123 3.6730001 2.964
-10.113 3.677 2.957
-10.123 3.6719999 2.938
-10.113 3.6760001 2.9319999
-10.107 3.678 2.9219999
-10.111 3.675 2.9070001
-10.111 3.675 2.895
-10.103 3.678 2.8870001
-10.091 3.6830001 2.881
-10.078 3.688 2.8759999
-10.063 3.6949999 2.8729999
-10.053 3.7 2.8659999
-10.047 3.7019999 2.8570001
-10.039 3.7049999 2.849
-10.025 3.711 2.8440001
-10.003 3.721 2.8440001
-9.9940004 3.7249999 2.8369999
-9.9840002 3.7290001 2.8299999
-9.9860001 3.727 2.816
-9.9709997 3.734 2.812
-9.9379997 3.7490001 2.8180001
-9.8979998 3.7679999 2.8280001
-10.127 3.6819999 2.9760001
-10.114 3.688 2.9719999
-10.109 3.6900001 2.961
-10.117 3.6849999 2.944
-10.113 3.687 2.934
-10.109 3.688 2.9230001
-10.117 3.6830001 2.905
-10.105 3.688 2.9000001
-10.106 3.687 2.8870001
-10.092 3.6930001 2.8829999
-10.093 3.6919999 2.8699999
-10.081 3.697 2.8640001
-10.068 3.7030001 2.859
-10.053 3.7090001 2.855
-10.045 3.7119999 2.8469999
-10.019 3.7249999 2.8499999
-10.015 3.7260001 2.8399999
-10.012 3.727 2.8280001
-9.9910002 3.7360001 2.8280001
-9.9919996 3.7349999 2.8150001
-9.9750004 3.743 2.812
-9.9790001 3.74 2.7969999
-9.9530001 3.7520001 2.799
-9.9130001 3.7709999 2.809
-10.124 3.6949999 2.993
-10.127 3.6930001 2.9779999
-10.126 3.6930001 2.9660001
-10.111 3.7 2.9619999
-10.117 3.6960001 2.9460001
-10.116 3.6960001 2.934
-10.118 3.694 2.9200001
-10.109 3.698 2.9130001
-10.127 3.688 2.8889999
-10.111 3.6949999 2.8859999
-10.117 3.691 2.869
-10.097 3.701 2.869
-10.085 3.7060001 2.8629999
-10.072 3.711 2.858
-10.059 3.717 2.8540001
-10.048 3.7219999 2.8469999
-10.039 3.7249999 2.8399999
-10.035 3.727 2.8299999
-10.016 3.7349999 2.8280001
-10.017 3.734 2.8150001
-10.001 3.7409999 2.8110001
-9.993 3.744 2.803
-9.9809999 3.75 2.7980001
-9.9809999 3.7490001 2.7839999
-9.9449997 3.766 2.7920001
-9.9250002 3.7750001 2.7909999
-10.115 3.71 2.9879999
-10.112 3.711 2.977
-10.125 3.7030001 2.9560001
-10.11 3.71 2.9519999
-10.111 3.7090001 2.9389999
-10.11 3.7090001 2.927
-10.107 3.7090001 2.9159999
-10.111 3.707 2.901
-10.122 3.7 2.881
-10.102 3.71 2.881
-10.109 3.7049999 2.8629999
-10.1 3.7090001 2.8570001
-10.09 3.7130001 2.8499999
-10.084 3.7160001 2.8410001
-10.076 3.7190001 2.8329999
-10.062 3.7249999 2.8280001
-10.051 3.73 2.822
-10.023 3.743 2.826
-10.015 3.747 2.8180001
-10.024 3.7409999 2.8
-10.001 3.7520001 2.8010001
-10.001 3.7509999 2.7880001
-9.9809999 3.76 2.7869999
-9.9809999 3.76 2.7739999
-9.9490004 3.7750001 2.779
-9.9189997 3.789 2.783
-9.915 3.79 2.773
-10.112 3.7219999 2.9909999
-10.11 3.7219999 2.98
-10.11 3.7219999 2.967
-10.11 3.721 2.954
-10.108 3.721 2.9430001
-10.107 3.721 2.9300001
-10.122 3.7130001 2.9089999
-10.108 3.7190001 2.904
-10.107 3.7190001 2.892
-10.098 3.723 2.885
-10.093 3.724 2.875
-10.092 3.724 2.8629999
-10.099 3.72 2.846
-10.088 3.724 2.8399999
-10.082 3.727 2.8310001
-10.068 3.733 2.826
-10.059 3.737 2.819
-10.047 3.7420001 2.8139999
-10.03 3.75 2.8110001
-10.026 3.7509999 2.8010001
-10.014 3.756 2.7950001
-10.001 3.7620001 2.79
-9.9949999 3.7639999 2.78
-9.9770002 3.773 2.7780001
-9.9879999 3.766 2.7590001
-9.9630003 3.7780001 2.76
-9.927 3.7950001 2.7679999
-9.9139996 3.8010001 2.763
-10.109 3.7349999 2.9960001
-10.103 3.737 2.987
-10.113 3.7309999 2.967
-10.109 3.7320001 2.957
-10.116 3.7279999 2.9400001
-10.11 3.73 2.9300001
-10.101 3.734 2.9230001
-10.109 3.7290001 2.9059999
-10.09 3.7379999 2.905
-10.104 3.73 2.8829999
-10.11 3.7260001 2.8670001
-10.111 3.7249999 2.8540001
-10.111 3.724 2.8410001
-10.099 3.73 2.836
-10.097 3.73 2.8239999
-10.078 3.7390001 2.823
-10.061 3.7460001 2.8199999
-10.059 3.747 2.809
-10.05 3.75 2.8010001
-10.026 3.7620001 2.802
-10.024 3.7620001 2.7909999
-10.014 3.766 2.7839999
-10.014 3.766 2.7720001
-9.9840002 3.78 2.776
-9.9919996 3.7750001 2.7590001
-9.9910002 3.7750001 2.7460001
-9.9549999 3.7920001 2.7539999
-9.9390001 3.8 2.7509999
-9.9130001 3.812 2.7520001
-10.094 3.753 2.994
-10.102 3.7479999 2.9760001
-10.104 3.7460001 2.9619999
-10.123 3.7349999 2.938
-10.114 3.7390001 2.9300001
-10.11 3.74 2.9200001
-10.11 3.74 2.9070001
-10.105 3.7409999 2.8970001
-10.106 3.74 2.8840001
-10.093 3.7460001 2.8789999
-10.091 3.7460001 2.8670001
-10.114 3.734 2.8410001
-10.107 3.737 2.8329999
-10.096 3.7409999 2.826
-10.1 3.7379999 2.812
-10.072 3.7520001 2.816
-10.07 3.7520001 2.8039999
-10.063 3.7550001 2.796
-10.054 3.7590001 2.7880001
-10.035 3.7679999 2.7869999
-10.035 3.767 2.7739999
-10.016 3.776 2.7720001
-9.9940004 3.786 2.7720001
-9.9949999 3.7850001 2.7590001
-10 3.7820001 2.744
-9.9709997 3.7950001 2.747
-9.9700003 3.7950001 2.7349999
-9.9329996 3.813 2.743
-9.9049997 3.8269999 2.7460001
-9.8900003 3.8329999 2.7409999
-10.107 3.756 2.9879999
-10.106 3.756 2.9749999
-10.102 3.757 2.9649999
-10.111 3.7520001 2.947
-10.114 3.75 2.9319999
-10.109 3.7509999 2.9230001
-10.108 3.7509999 2.9100001
-10.11 3.75 2.8959999
-10.106 3.7509999 2.8859999
-10.097 3.7539999 2.878
-10.1 3.753 2.8640001
-10.091 3.756 2.8570001
-10.105 3.7479999 2.836
-10.105 3.747 2.823
-10.092 3.753 2.8180001
-10.096 3.7509999 2.8039999
-10.088 3.7539999 2.7950001
-10.078 3.7579999 2.789
-10.059 3.767 2.7869999
-10.056 3.7679999 2.776
-10.024 3.783 2.7820001
-10.038 3.7750001 2.7609999
-10.009 3.789 2.7650001
-10.027 3.78 2.743
-10.016 3.7850001 2.7360001
-9.9969997 3.793 2.734
-9.9770002 3.803 2.733
-9.9569998 3.812 2.7320001
-9.9209995 3.8299999 2.7390001
-9.915 3.832 2.73
-9.9069996 3.835 2.721
-10.098 3.7709999 2.983
-10.091 3.7739999 2.974
-10.092 3.773 2.961
-10.11 3.763 2.937
-10.113 3.76 2.9219999
-10.116 3.7579999 2.908
-10.112 3.76 2.8970001
-10.107 3.7609999 2.888
-10.11 3.7590001 2.8729999
-10.093 3.767 2.8699999
-10.097 3.7639999 2.855
-10.082 3.7709999 2.8510001
-10.097 3.763 2.8299999
-10.09 3.766 2.822
-10.104 3.7579999 2.8010001
-10.088 3.7650001 2.7969999
-10.088 3.7639999 2.7850001
-10.071 3.7720001 2.7820001
-10.058 3.7780001 2.777
-10.047 3.783 2.7709999
-10.03 3.79 2.7679999
-10.03 3.79 2.7550001
-10.015 3.7969999 2.7509999
-10.017 3.7950001 2.7379999
-10.001 3.802 2.734
-9.9910002 3.806 2.727
-9.9680004 3.8169999 2.727
-9.9720001 3.8150001 2.7130001
-9.9359999 3.832 2.7190001
-9.9239998 3.8380001 2.714
-9.9069996 3.846 2.71
-10.083 3.79 2.994
-10.093 3.783 2.9749999
-10.098 3.78 2.9590001
-10.106 3.7750001 2.941
-10.101 3.777 2.931
-10.096 3.779 2.921
-10.115 3.7690001 2.8970001
-10.103 3.7739999 2.892
-10.094 3.7780001 2.8840001
-10.102 3.773 2.8670001
-10.109 3.7679999 2.8499999
-10.101 3.7720001 2.842
-10.091 3.776 2.836
-10.094 3.7739999 2.8210001
-10.096 3.7720001 2.8069999
-10.089 3.7750001 2.799
-10.09 3.7739999 2.7850001
-10.085 3.7750001 2.776
-10.062 3.7869999 2.776
-10.07 3.7820001 2.7590001
-10.06 3.786 2.753
-10.041 3.7950001 2.7509999
-10.026 3.802 2.747
-10.031 3.799 2.7320001
-10.009 3.809 2.7309999
-10.001 3.812 2.723
-9.9960003 3.8150001 2.714
-9.9689999 3.8269999 2.7160001
-9.967 3.8280001 2.704
-9.9680004 3.826 2.691
-9.9230003 3.848 2.7030001
-9.9069996 3.8559999 2.7
-10.085 3.8 2.9949999
-10.097 3.7920001 2.974
-10.096 3.7920001 2.9619999
-10.103 3.7880001 2.9449999
-10.095 3.7909999 2.937
-10.097 3.79 2.9230001
-10.096 3.789 2.911
-10.11 3.7809999 2.8889999
-10.105 3.783 2.8800001
-10.109 3.78 2.865
-10.105 3.7809999 2.8540001
-10.093 3.7869999 2.849
-10.101 3.7820001 2.8310001
-10.089 3.7869999 2.826
-10.092 3.7850001 2.8110001
-10.1 3.78 2.7939999
-10.111 3.7739999 2.7750001
-10.089 3.7839999 2.7750001
-10.081 3.7880001 2.7679999
-10.073 3.7909999 2.76
-10.052 3.8010001 2.7590001
-10.059 3.7969999 2.7420001
-10.038 3.8069999 2.7420001
-10.033 3.8080001 2.7320001
-10.004 3.822 2.7360001
-10.009 3.8199999 2.721
-9.9980001 3.8239999 2.714
-9.9910002 3.8269999 2.7049999
-9.9820004 3.8310001 2.698
-9.9659996 3.8380001 2.694
-9.948 3.8469999 2.6919999
-9.927 3.8570001 2.6900001
-9.927 3.8559999 2.678
-9.8900003 3.8740001 2.6849999
-10.095 3.8050001 2.9909999
-10.071 3.816 2.993
-10.093 3.8050001 2.9660001
-10.095 3.802 2.9519999
-10.099 3.8 2.937
-10.105 3.796 2.9200001
-10.107 3.7939999 2.9059999
-10.11 3.7920001 2.891
-10.101 3.7950001 2.8840001
-10.1 3.7950001 2.872
-10.103 3.793 2.8570001
-10.089 3.8 2.8529999
-10.103 3.7920001 2.832
-10.098 3.793 2.822
-10.103 3.79 2.8069999
-10.093 3.7939999 2.8
-10.091 3.7939999 2.7880001
-10.094 3.793 2.7750001
-10.091 3.793 2.763
-10.091 3.7920001 2.7509999
-10.073 3.8010001 2.7490001
-10.068 3.803 2.7390001
-10.054 3.809 2.7349999
-10.043 3.8139999 2.7279999
-10.045 3.812 2.714
-10.017 3.826 2.7179999
-10.016 3.826 2.7060001
-10.014 3.826 2.6949999
-10.003 3.8310001 2.688
-9.9779997 3.8429999 2.6889999
-9.9809999 3.8410001 2.675
-9.9610004 3.8499999 2.6730001
-9.9460001 3.8570001 2.6689999
-9.9250002 3.8670001 2.668
-9.8990002 3.8800001 2.6689999
-10.086 3.8199999 2.9849999
-10.078 3.823 2.977
-10.078 3.822 2.964
-10.087 3.8169999 2.9460001
-10.097 3.8110001 2.927
-10.096 3.8110001 2.915
-10.099 3.8080001 2.9000001
-10.102 3.806 2.8859999
-10.097 3.8080001 2.8759999
-10.115 3.7980001 2.852
-10.095 3.8069999 2.8510001
-10.1 3.8039999 2.836
-10.099 3.8039999 2.8239999
-10.093 3.806 2.8150001
-10.111 3.796 2.7920001
-10.088 3.8069999 2.7920001
-10.101 3.8 2.7720001
-10.103 3.7980001 2.7579999
-10.103 3.7980001 2.7460001
-10.082 3.8069999 2.7460001
-10.078 3.809 2.7349999
-10.061 3.8169999 2.7320001
-10.065 3.8139999 2.7179999
-10.049 3.822 2.714
-10.037 3.8269999 2.7090001
-10.023 3.8329999 2.704
-10.01 3.839 2.698
-10.004 3.842 2.6889999
-9.9919996 3.8469999 2.6830001
-9.9899998 3.848 2.6719999
-9.9729996 3.855 2.6689999
-9.9469995 3.868 2.6700001
-9.9499998 3.8659999 2.6559999
-9.934 3.8729999 2.652
-9.9130001 3.8840001 2.651
-10.082 3.832 2.977
-10.081 3.832 2.9649999
-10.079 3.832 2.9530001
-10.086 3.8280001 2.9360001
-10.081 3.8299999 2.9260001
-10.087 3.825 2.9089999
-10.094 3.8210001 2.892
-10.093 3.8210001 2.8800001
-10.096 3.8180001 2.8659999
-10.099 3.816 2.8510001
-10.106 3.812 2.8340001
-10.101 3.8139999 2.825
-10.101 3.813 2.812
-10.105 3.8099999 2.7969999
-10.087 3.819 2.7950001
-10.091 3.816 2.78
-10.1 3.8110001 2.7620001
-10.099 3.8099999 2.75
-10.092 3.813 2.7420001
-10.083 3.8169999 2.734
-10.072 3.822 2.7279999
-10.071 3.822 2.7160001
-10.058 3.8269999 2.711
-10.047 3.832 2.704
-10.041 3.835 2.6949999
-10.03 3.8399999 2.6889999
-10.014 3.8469999 2.6849999
-10.014 3.846 2.6730001
-9.9969997 3.855 2.6700001
-9.9770002 3.8640001 2.668
-9.9700003 3.8670001 2.6589999
-9.96 3.872 2.652
-9.9519997 3.875 2.6440001
-9.9440002 3.878 2.6359999
-9.9049997 3.898 2.6440001
-9.8909998 3.904 2.6389999
-10.075 3.846 2.97
-10.081 3.842 2.954
-10.084 3.8399999 2.9389999
-10.081 3.8399999 2.928
-10.103 3.8280001 2.902
-10.094 3.832 2.8940001
-10.097 3.8299999 2.8800001
-10.1 3.8269999 2.865
-10.1 3.8269999 2.8529999
-10.098 3.8269999 2.8410001
-10.101 3.8239999 2.826
-10.105 3.822 2.812
-10.091 3.8280001 2.8069999
-10.104 3.8210001 2.7869999
-10.106 3.819 2.773
-10.091 3.826 2.77
-10.104 3.819 2.7490001
-10.09 3.825 2.7449999
-10.098 3.8199999 2.7279999
-10.086 3.826 2.7219999
-10.086 3.825 2.71
-10.072 3.8310001 2.7049999
-10.063 3.836 2.698
-10.052 3.8410001 2.691
-10.039 3.846 2.6860001
-10.033 3.849 2.677
-10.02 3.855 2.6719999
-10.01 3.8599999 2.665
-9.9770002 3.8759999 2.6700001
-9.9899998 3.868 2.651
-9.9849997 3.8699999 2.641
-9.9689999 3.878 2.6370001
-9.9549999 3.885 2.632
-9.9440002 3.8889999 2.625
-9.9460001 3.8870001 2.612
-9.9569998 3.881 2.5940001
-10.075 3.8559999 2.96
-10.076 3.855 2.9460001
-10.078 3.8529999 2.9319999
-10.08 3.8510001 2.918
-10.087 3.8469999 2.901
-10.088 3.846 2.888
-10.093 3.842 2.872
-10.1 3.8369999 2.8540001
-10.091 3.842 2.8469999
-10.082 3.846 2.8399999
-10.101 3.835 2.816
-10.112 3.829 2.7969999
-10.1 3.8340001 2.7909999
-10.102 3.832 2.7780001
-10.094 3.836 2.77
-10.094 3.835 2.757
-10.09 3.836 2.747
-10.084 3.8380001 2.737
-10.098 3.8310001 2.717
-10.094 3.832 2.707
-10.08 3.839 2.7030001
-10.068 3.8440001 2.697
-10.054 3.8510001 2.6919999
-10.054 3.8499999 2.6800001
-10.036 3.859 2.677
-10.038 3.8559999 2.6630001
-10.015 3.868 2.664
-10.009 3.8699999 2.654
-9.993 3.878 2.651
-9.9899998 3.8789999 2.6400001
-9.9899998 3.878 2.628
-9.9709997 3.8870001 2.625
-9.9560003 3.8940001 2.6210001
-9.9530001 3.895 2.6099999
-9.9580002 3.892 2.595
-9.948 3.8959999 2.5880001
-10.077 3.865 2.948
-10.07 3.868 2.9389999
-10.074 3.865 2.924
-10.076 3.8640001 2.9100001
-10.082 3.859 2.8929999
-10.086 3.8570001 2.878
-10.084 3.8570001 2.8659999
-10.099 3.848 2.845
-10.08 3.858 2.8429999
-10.101 3.846 2.8180001
-10.1 3.845 2.806
-10.087 3.8510001 2.8010001
-10.098 3.845 2.7820001
-10.091 3.848 2.773
-10.09 3.848 2.7609999
-10.09 3.8469999 2.7490001
-10.081 3.8510001 2.7409999
-10.082 3.8499999 2.7279999
-10.091 3.8440001 2.711
-10.086 3.846 2.701
-10.085 3.846 2.6889999
-10.066 3.855 2.687
-10.06 3.858 2.678
-10.058 3.858 2.6670001
-10.043 3.865 2.6630001
-10.034 3.869 2.655
-10.018 3.8770001 2.652
-10.008 3.881 2.6440001
-10.008 3.881 2.632
-9.993 3.8870001 2.6270001
-9.9820004 3.8929999 2.6210001
-9.9680004 3.8989999 2.6159999
-9.9689999 3.898 2.6029999
-9.9490004 3.908 2.6010001
-9.9420004 3.911 2.5929999
-9.9390001 3.911 2.582
-10.033 3.8989999 2.964
-10.078 3.8740001 2.9230001
-10.074 3.8759999 2.9130001
-10.068 3.878 2.904
-10.074 3.8740001 2.8870001
-10.093 3.8640001 2.8629999
-10.092 3.8629999 2.8510001
-10.079 3.869 2.846
-10.086 3.8640001 2.829
-10.09 3.862 2.8139999
-10.089 3.862 2.802
-10.092 3.859 2.7869999
-10.09 3.8599999 2.776
-10.095 3.8570001 2.7609999
-10.096 3.855 2.747
-10.089 3.858 2.7390001
-10.085 3.859 2.7279999
-10.078 3.862 2.72
-10.084 3.859 2.704
-10.067 3.8670001 2.701
-10.082 3.858 2.6800001
-10.085 3.8559999 2.6659999
-10.073 3.8610001 2.6600001
-10.053 3.8710001 2.6589999
-10.044 3.875 2.652
-10.043 3.875 2.6389999
-10.031 3.8800001 2.6340001
-10.018 3.8870001 2.6289999
-10.004 3.8929999 2.6229999
-9.9949999 3.8970001 2.6159999
-9.9779997 3.905 2.612
-9.9759998 3.905 2.6010001
-9.9639997 3.911 2.595
-9.9580002 3.914 2.586
-9.9329996 3.9260001 2.5869999
-9.9630003 3.9089999 2.5580001
-10.069 3.8900001 2.918
-10.076 3.885 2.901
-10.08 3.882 2.8859999
-10.077 3.8829999 2.8740001
-10.076 3.8829999 2.862
-10.083 3.878 2.845
-10.091 3.8729999 2.8280001
-10.085 3.8759999 2.819
-10.092 3.8710001 2.802
-10.084 3.875 2.7939999
-10.073 3.8800001 2.7880001
-10.101 3.8640001 2.7590001
-10.086 3.8710001 2.7550001
-10.085 3.8710001 2.743
-10.081 3.8729999 2.733
-10.082 3.8710001 2.72
-10.088 3.8670001 2.704
-10.091 3.865 2.6889999
-10.096 3.8610001 2.674
-10.094 3.862 2.6630001
-10.073 3.872 2.6619999
-10.055 3.881 2.6600001
-10.053 3.881 2.648
-10.055 3.8800001 2.635
-10.034 3.8900001 2.6340001
-10.019 3.8970001 2.6300001
-10.002 3.905 2.6259999
-10.003 3.904 2.6140001
-9.9960003 3.9070001 2.605
-9.9860001 3.9119999 2.598
-9.967 3.921 2.596
-9.9610004 3.9230001 2.586
-9.9589996 3.924 2.575
-9.9560003 3.924 2.5639999
-9.9370003 3.934 2.562
-9.9519997 3.925 2.5409999
-10.069 3.9000001 2.9070001
-10.067 3.9000001 2.895
-10.071 3.8970001 2.8800001
-10.077 3.8929999 2.8640001
-10.08 3.891 2.849
-10.083 3.8889999 2.835
-10.082 3.8889999 2.823
-10.077 3.891 2.813
-10.084 3.8859999 2.796
-10.08 3.888 2.786
-10.091 3.881 2.767
-10.089 3.881 2.7550001
-10.092 3.8789999 2.7409999
-10.089 3.8789999 2.73
-10.077 3.885 2.724
-10.075 3.8859999 2.7130001
-10.08 3.882 2.698
-10.079 3.882 2.6860001
-10.089 3.8759999 2.668
-10.077 3.881 2.6619999
-10.081 3.878 2.6470001
-10.061 3.8889999 2.6459999
-10.044 3.8970001 2.6429999
-10.042 3.8970001 2.632
-10.029 3.9030001 2.6259999
-10.008 3.9130001 2.625
-10.017 3.908 2.608
-10.003 3.915 2.6029999
-9.9879999 3.9219999 2.598
-9.9770002 3.927 2.592
-9.9729996 3.928 2.582
-9.9720001 3.928 2.5699999
-9.9619999 3.9330001 2.563
-9.948 3.9389999 2.5569999
-9.9420004 3.9419999 2.5480001
-9.948 3.938 2.533
-10.027 3.9330001 2.9219999
-10.075 3.9059999 2.8800001
-10.059 3.915 2.8770001
-10.065 3.911 2.8599999
-10.087 3.898 2.8340001
-10.078 3.902 2.8269999
-10.089 3.895 2.8080001
-10.069 3.905 2.8069999
-10.087 3.895 2.783
-10.08 3.898 2.7750001
-10.098 3.888 2.7520001
-10.097 3.8870001 2.74
-10.083 3.8940001 2.7360001
-10.095 3.8870001 2.7160001
-10.102 3.882 2.6989999
-10.087 3.8889999 2.6949999
-10.08 3.8929999 2.687
-10.078 3.8929999 2.6760001
-10.092 3.885 2.6559999
-10.084 3.888 2.648
-10.087 3.8859999 2.6329999
-10.068 3.895 2.632
-10.074 3.891 2.6159999
-10.052 3.902 2.6159999
-10.034 3.911 2.6129999
-10.032 3.911 2.602
-10.021 3.9170001 2.595
-10.01 3.921 2.5880001
-9.993 3.9300001 2.585
-9.9879999 3.9319999 2.576
-9.9759998 3.938 2.5699999
-9.9759998 3.937 2.5569999
-9.9630003 3.9430001 2.552
-9.948 3.951 2.5469999
-9.934 3.957 2.5420001
-9.9449997 3.95 2.523
-9.8599997 3.9949999 2.5550001
-10.026 3.944 2.9119999
-10.062 3.924 2.8770001
-10.07 3.9189999 2.8599999
-10.076 3.915 2.8429999
-10.091 3.9059999 2.822
-10.083 3.9100001 2.8139999
-10.069 3.9159999 2.809
-10.08 3.9100001 2.79
-10.087 3.905 2.773
-10.086 3.905 2.7609999
-10.078 3.908 2.753
-10.074 3.9100001 2.7420001
-10.077 3.908 2.7290001
-10.077 3.9070001 2.7160001
-10.091 3.898 2.6949999
-10.079 3.904 2.6900001
-10.086 3.9000001 2.6730001
-10.063 3.911 2.674
-10.069 3.9070001 2.658
-10.076 3.9030001 2.642
-10.062 3.9100001 2.6370001
-10.065 3.9070001 2.6229999
-10.056 3.911 2.615
-10.046 3.9159999 2.608
-10.036 3.921 2.6010001
-10.023 3.927 2.596
-10.026 3.924 2.582
-10.011 3.931 2.5780001
-10.004 3.9349999 2.569
-9.9919996 3.9400001 2.563
-9.9849997 3.9430001 2.5539999
-9.9709997 3.95 2.549
-9.9549999 3.9579999 2.5450001
-9.9429998 3.9630001 2.539
-9.9359999 3.9660001 2.53
-9.9519997 3.957 2.51
-9.9250002 3.971 2.5109999
-10.039 3.947 2.8800001
-10.066 3.931 2.8510001
-10.074 3.9260001 2.8340001
-10.075 3.925 2.8199999
-10.078 3.9230001 2.806
-10.077 3.9219999 2.793
-10.076 3.9219999 2.7820001
-10.083 3.918 2.7650001
-10.074 3.9219999 2.757
-10.078 3.9189999 2.7420001
-10.086 3.914 2.7249999
-10.069 3.9219999 2.7219999
-10.086 3.9119999 2.7
-10.082 3.914 2.6900001
-10.076 3.9159999 2.681
-10.086 3.9100001 2.6630001
-10.073 3.9159999 2.658
-10.077 3.9130001 2.6429999
-10.079 3.9119999 2.6289999
-10.078 3.911 2.6170001
-10.074 3.9130001 2.6070001
-10.058 3.9200001 2.6040001
-10.057 3.9200001 2.592
-10.053 3.9219999 2.582
-10.027 3.9349999 2.5829999
-10.021 3.937 2.5739999
-10.009 3.9430001 2.5680001
-10.007 3.944 2.5569999
-9.9949999 3.9489999 2.5510001
-9.9770002 3.9579999 2.5480001
-9.9650002 3.964 2.5420001
-9.967 3.9619999 2.5280001
-9.9549999 3.9679999 2.5220001
-9.9530001 3.9679999 2.5109999
-9.934 3.9779999 2.5079999
-9.9239998 3.9820001 2.5009999
-10.044 3.9549999 2.8659999
-10.076 3.9360001 2.8340001
-10.064 3.9419999 2.829
-10.074 3.9360001 2.8099999
-10.081 3.931 2.793
-10.072 3.9349999 2.786
-10.079 3.931 2.7690001
-10.071 3.9349999 2.7609999
-10.082 3.928 2.7420001
-10.085 3.9260001 2.7279999
-10.093 3.921 2.711
-10.081 3.9260001 2.7049999
-10.068 3.9330001 2.7
-10.095 3.9170001 2.6719999
-10.078 3.925 2.6689999
-10.071 3.928 2.661
-10.078 3.924 2.6440001
-10.064 3.931 2.6389999
-10.065 3.9289999 2.6259999
-10.078 3.9219999 2.6070001
-10.078 3.921 2.595
-10.07 3.924 2.5869999
-10.066 3.9260001 2.5769999
-10.041 3.9389999 2.5780001
-10.037 3.9400001 2.5680001
-10.018 3.95 2.5650001
-10.008 3.954 2.5580001
-10.009 3.9530001 2.5450001
-9.9809999 3.967 2.5480001
-9.9989996 3.957 2.526
-9.9790001 3.967 2.5239999
-9.967 3.973 2.5179999
-9.9510002 3.98 2.513
-9.9440002 3.984 2.5050001
-9.9219999 3.9949999 2.5039999
-9.9209995 3.994 2.4909999
-10.056 3.9579999 2.836
-10.071 3.9489999 2.8139999
-10.062 3.9530001 2.806
-10.073 3.9460001 2.7869999
-10.08 3.9419999 2.7709999
-10.075 3.944 2.7609999
-10.078 3.941 2.7460001
-10.085 3.9360001 2.73
-10.067 3.9460001 2.7279999
-10.085 3.9349999 2.7049999
-10.084 3.9349999 2.6930001
-10.077 3.938 2.684
-10.072 3.9400001 2.675
-10.074 3.938 2.661
-10.074 3.937 2.648
-10.071 3.9389999 2.638
-10.069 3.9389999 2.6259999
-10.058 3.944 2.6199999
-10.076 3.9330001 2.598
-10.071 3.9349999 2.5880001
-10.065 3.938 2.579
-10.062 3.9389999 2.5680001
-10.062 3.938 2.556
-10.036 3.951 2.5569999
-10.033 3.9519999 2.5469999
-10.012 3.9630001 2.5450001
-10.013 3.9619999 2.533
-9.9910002 3.9719999 2.5320001
-9.9849997 3.9749999 2.5220001
-9.9809999 3.9760001 2.5120001
-9.9580002 3.9879999 2.5120001
-9.9560003 3.9890001 2.5009999
-9.9460001 3.993 2.493
-9.9239998 4.0040002 2.4920001
-9.8879995 4.0229998 2.4979999
-10.042 3.9760001 2.8329999
-10.071 3.9590001 2.803
-10.074 3.957 2.789
-10.065 3.961 2.7809999
-10.077 3.954 2.7620001
-10.079 3.9519999 2.7479999
-10.082 3.95 2.734
-10.073 3.9530001 2.7260001
-10.077 3.951 2.7119999
-10.07 3.954 2.7030001
-10.079 3.948 2.6849999
-10.084 3.9449999 2.6700001
-10.075 3.9489999 2.6619999
-10.07 3.951 2.6530001
-10.077 3.9460001 2.6359999
-10.075 3.9460001 2.625
-10.06 3.954 2.6210001
-10.072 3.947 2.602
-10.074 3.9449999 2.5880001
-10.078 3.9419999 2.5739999
-10.065 3.948 2.5680001
-10.062 3.9489999 2.5580001
-10.054 3.9530001 2.55
-10.035 3.9619999 2.5480001
-10.033 3.9630001 2.5369999
-10.016 3.971 2.533
-10.006 3.9760001 2.526
-9.9960003 3.98 2.5179999
-9.9910002 3.9820001 2.5090001
-9.9840002 3.9860001 2.5
-9.967 3.994 2.4960001
-9.9540005 4 2.4909999
-9.9510002 4.0009999 2.48
-9.9379997 4.007 2.474
-9.9289999 4.0120001 2.4660001
-9.8760004 4.04 2.4809999
-10.049 3.983 2.8180001
-10.078 3.9660001 2.789
-10.051 3.98 2.7909999
-10.065 3.9719999 2.7709999
-10.061 3.973 2.76
-10.075 3.9649999 2.74
-10.07 3.967 2.73
-10.081 3.96 2.711
-10.08 3.9590001 2.6989999
-10.077 3.961 2.6889999
-10.081 3.957 2.6730001
-10.075 3.96 2.664
-10.074 3.96 2.6530001
-10.078 3.957 2.638
-10.082 3.954 2.6229999
-10.075 3.957 2.6140001
-10.064 3.9630001 2.608
-10.065 3.961 2.595
-10.069 3.9579999 2.5810001
-10.061 3.9619999 2.573
-10.07 3.9560001 2.5550001
-10.067 3.957 2.5450001
-10.058 3.9619999 2.5380001
-10.048 3.9660001 2.53
-10.039 3.97 2.523
-10.018 3.9809999 2.5209999
-10.006 3.987 2.5150001
-9.9849997 3.9979999 2.5139999
-9.9879999 3.9949999 2.5
-9.9779997 4 2.493
-9.9639997 4.007 2.4879999
-9.9589996 4.0089998 2.4779999
-9.9499998 4.013 2.47
-9.9449997 4.0149999 2.46
-9.9180002 4.0279999 2.461
-9.9280005 4.0229998 2.444
-10.028 4.0050001 2.8199999
-10.058 3.987 2.79
-10.057 3.987 2.777
-10.068 3.98 2.7579999
-10.068 3.98 2.7460001
-10.075 3.9749999 2.7290001
-10.074 3.9749999 2.717
-10.062 3.9809999 2.711
-10.076 3.9719999 2.691
-10.088 3.9649999 2.6719999
-10.068 3.9749999 2.6700001
-10.071 3.973 2.6559999
-10.086 3.964 2.635
-10.068 3.973 2.6329999
-10.085 3.9630001 2.6110001
-10.074 3.9679999 2.605
-10.077 3.9660001 2.5910001
-10.077 3.9649999 2.579
-10.059 3.974 2.576
-10.075 3.9649999 2.5550001
-10.068 3.9679999 2.546
-10.068 3.967 2.5339999
-10.063 3.9690001 2.5250001
-10.038 3.9820001 2.5250001
-10.042 3.9790001 2.5109999
-10.024 3.9879999 2.5079999
-10.013 3.993 2.5009999
-10.008 3.9949999 2.4920001
-9.993 4.0029998 2.487
-9.9870005 4.006 2.4779999
-9.9729996 4.013 2.473
-9.9680004 4.0149999 2.4630001
-9.9390001 4.0300002 2.4649999
-9.9510002 4.0219998 2.447
-9.927 4.0349998 2.4460001
-9.9239998 4.0349998 2.4349999
-10.058 3.9979999 2.779
-10.065 3.993 2.7620001
-10.06 3.9949999 2.7520001
-10.067 3.9909999 2.7360001
-10.067 3.99 2.723
-10.058 3.994 2.7160001
-10.069 3.987 2.697
-10.061 3.9909999 2.6889999
-10.08 3.98 2.6659999
-10.067 3.9860001 2.6600001
-10.075 3.9809999 2.6429999
-10.07 3.983 2.6340001
-10.081 3.9760001 2.615
-10.075 3.9790001 2.6059999
-10.062 3.9849999 2.6010001
-10.066 3.9820001 2.586
-10.066 3.9820001 2.5739999
-10.053 3.9879999 2.5680001
-10.058 3.984 2.553
-10.071 3.977 2.5339999
-10.061 3.9820001 2.527
-10.057 3.983 2.517
-10.05 3.9860001 2.5090001
-10.03 3.9960001 2.507
-10.03 3.9960001 2.494
-10.01 4.006 2.4920001
-10.004 4.0089998 2.483
-9.9949999 4.0120001 2.4749999
-9.9820004 4.0190001 2.47
-9.9680004 4.026 2.4649999
-9.9750004 4.0209999 2.4489999
-9.9530001 4.033 2.448
-9.9329996 4.0430002 2.4449999
-9.9259996 4.046 2.4360001
-9.8950005 4.0619998 2.4389999
-9.8850002 4.0669999 2.4319999
-10.051 4.013 2.773
-10.061 4.006 2.7539999
-10.055 4.0089998 2.7449999
-10.057 4.007 2.7309999
-10.06 4.0040002 2.7160001
-10.067 4 2.7
-10.055 4.006 2.694
-10.065 4 2.6760001
-10.072 3.9949999 2.6600001
-10.075 3.993 2.645
-10.064 3.9979999 2.6389999
-10.082 3.987 2.6170001
-10.075 3.99 2.608
-10.059 3.9990001 2.605
-10.07 3.9920001 2.586
-10.059 3.997 2.579
-10.057 3.997 2.5680001
-10.069 3.99 2.55
-10.067 3.99 2.5380001
-10.07 3.9879999 2.5239999
-10.063 3.9909999 2.516
-10.061 3.9920001 2.5050001
-10.054 3.9949999 2.4960001
-10.042 4 2.49
-10.019 4.0120001 2.49
-10.015 4.0139999 2.48
-10.002 4.02 2.474
-10.002 4.0190001 2.461
-9.9779997 4.0320001 2.461
-9.974 4.0339999 2.451
-9.9650002 4.0370002 2.4430001
-9.9370003 4.052 2.4449999
-9.9490004 4.0450001 2.427
-9.9300003 4.0549998 2.424
-9.8879995 4.0770001 2.4319999
-9.8739996 4.0840001 2.427
-10.036 4.0320001 2.77
-10.066 4.0139999 2.7409999
-10.06 4.0170002 2.7309999
-10.05 4.0219998 2.724
-10.056 4.0170002 2.7079999
-10.078 4.0040002 2.6830001
-10.062 4.013 2.6800001
-10.065 4.0110002 2.6659999
-10.076 4.0040002 2.6470001
-10.071 4.0050001 2.6370001
-10.064 4.0089998 2.6289999
-10.074 4.0019999 2.6110001
-10.067 4.0050001 2.602
-10.063 4.007 2.592
-10.065 4.0050001 2.579
-10.055 4.0100002 2.5710001
-10.064 4.0040002 2.5539999
-10.066 4.0019999 2.5409999
-10.068 4.0009999 2.5280001
-10.059 4.0040002 2.52
-10.068 3.9990001 2.503
-10.062 4.0019999 2.494
-10.049 4.0079999 2.4879999
-10.031 4.0170002 2.4849999
-10.042 4.0100002 2.467
-10.019 4.0219998 2.467
-10.004 4.0300002 2.4619999
-10.007 4.0279999 2.4489999
-9.9849997 4.039 2.448
-9.9729996 4.0450001 2.441
-9.96 4.0510001 2.4349999
-9.9540005 4.0539999 2.4260001
-9.96 4.0500002 2.411
-9.9239998 4.0689998 2.4170001
-9.9209995 4.0700002 2.405
-9.8739996 4.0949998 2.4159999
-10.01 4.0570002 2.7750001
-10.057 4.0300002 2.7349999
-10.068 4.0229998 2.7160001
-10.052 4.0310001 2.7130001
-10.052 4.0300002 2.7
-10.06 4.0250001 2.6830001
-10.069 4.0190001 2.665
-10.061 4.0229998 2.6570001
-10.077 4.0139999 2.6359999
-10.071 4.0159998 2.6270001
-10.071 4.0149999 2.6140001
-10.072 4.0139999 2.6010001
-10.075 4.0110002 2.5869999
-10.063 4.0180001 2.5810001
-10.066 4.0149999 2.5680001
-10.071 4.0110002 2.552
-10.065 4.0139999 2.543
-10.055 4.0190001 2.536
-10.065 4.013 2.5190001
-10.067 4.0110002 2.5050001
-10.062 4.013 2.4949999
-10.052 4.0170002 2.4879999
-10.057 4.0139999 2.474
-10.051 4.0170002 2.4649999
-10.034 4.0250001 2.461
-10.019 4.033 2.4560001
-10.018 4.033 2.4449999
-10.013 4.0349998 2.4349999
-9.9919996 4.046 2.4330001
-9.9790001 4.052 2.427
-9.9580002 4.0640001 2.4260001
-9.9519997 4.066 2.4170001
-9.9530001 4.0650001 2.404
-9.9399996 4.0710001 2.398
-9.9250002 4.079 2.3929999
-9.9259996 4.0780001 2.3800001
-9.8360004 4.1269999 2.411
-10.045 4.0469999 2.7309999
-10.052 4.0430002 2.7149999
-10.046 4.0450001 2.7049999
-10.06 4.0370002 2.6849999
-10.063 4.0339999 2.671
-10.069 4.0300002 2.655
-10.053 4.0380001 2.651
-10.06 4.0339999 2.635
-10.068 4.0289998 2.618
-10.067 4.0279999 2.6059999
-10.064 4.0289998 2.595
-10.072 4.0240002 2.579
-10.072 4.0229998 2.566
-10.071 4.0229998 2.5550001
-10.062 4.027 2.5469999
-10.063 4.026 2.5339999
-10.072 4.02 2.517
-10.067 4.0219998 2.507
-10.057 4.027 2.5
-10.064 4.0219998 2.484
-10.045 4.0320001 2.4820001
-10.055 4.026 2.464
-10.044 4.0320001 2.4579999
-10.031 4.0380001 2.4519999
-10.017 4.0450001 2.447
-10.023 4.0409999 2.4319999
-10.009 4.0479999 2.427
-9.9910002 4.0580001 2.424
-9.9750004 4.066 2.4189999
-9.974 4.0650001 2.4070001
-9.9560003 4.0749998 2.404
-9.9449997 4.0799999 2.3970001
-9.9460001 4.079 2.385
-9.9160004 4.0949998 2.3870001
-9.9180002 4.0929999 2.3740001
-9.868 4.1199999 2.385
-10.034 4.0640001 2.727
-10.064 4.046 2.697
-10.056 4.0500002 2.6889999
-10.045 4.0560002 2.6830001
-10.061 4.046 2.661
-10.065 4.0430002 2.6459999
-10.061 4.0440001 2.6359999
-10.065 4.0409999 2.622
-10.06 4.0440001 2.612
-10.071 4.0359998 2.5929999
-10.052 4.046 2.5910001
-10.06 4.0409999 2.575
-10.056 4.0430002 2.5639999
-10.066 4.0359998 2.5469999
-10.037 4.052 2.55
-10.064 4.0359998 2.523
-10.062 4.0370002 2.5120001
-10.065 4.0339999 2.4979999
-10.056 4.0380001 2.49
-10.056 4.0380001 2.4779999
-10.059 4.0349998 2.464
-10.051 4.039 2.4560001
-10.058 4.0339999 2.4400001
-10.036 4.046 2.4389999
-10.038 4.0440001 2.4260001
-10.019 4.0539999 2.4230001
-10.015 4.0549998 2.4130001
-9.9949999 4.066 2.411
-9.9879999 4.0689998 2.402
-9.9709997 4.0780001 2.3989999
-9.9630003 4.0809999 2.3900001
-9.9540005 4.086 2.382
-9.9460001 4.0900002 2.3740001
-9.9280005 4.099 2.3699999
-9.9049997 4.1110001 2.369
-9.9259996 4.099 2.3469999
-9.3629999 4.29 0.57300001
-9.3660002 4.2870002 0.56199998
-9.3629999 4.2870002 0.53899997
-9.3660002 4.283 0.48100001
-9.368 4.2800002 0.458
-9.3669996 4.2800002 0.447
-9.3730001 4.2750001 0.42399999
-9.3649998 4.277 0.38999999
-9.3640003 4.277 0.37900001
-9.368 4.2750001 0.36700001
-9.3699999 4.2729998 0.35600001
-9.3660002 4.2740002 0.345
-9.9960003 4.0960002 2.7379999
-10.049 4.066 2.6960001
-10.063 4.0570002 2.675
-10.055 4.0609999 2.6670001
-10.037 4.0700002 2.664
-10.051 4.0619998 2.6440001
-10.062 4.0549998 2.625
-10.064 4.052 2.6110001
-10.064 4.052 2.599
-10.055 4.0560002 2.5910001
-10.071 4.0469999 2.5710001
-10.057 4.0539999 2.566
-10.052 4.0560002 2.556
-10.055 4.053 2.5420001
-10.065 4.0469999 2.5239999
-10.058 4.0500002 2.516
-10.049 4.0539999 2.5079999
-10.06 4.0469999 2.49
-10.06 4.0469999 2.4779999
-10.056 4.0479999 2.4679999
-10.065 4.0419998 2.451
-10.034 4.059 2.454
-10.048 4.0500002 2.4349999
-10.035 4.0570002 2.4289999
-10.036 4.0560002 2.4170001
-10.017 4.066 2.414
-10 4.0749998 2.411
-10.003 4.072 2.3970001
-9.9849997 4.0809999 2.3929999
-9.9720001 4.0879998 2.388
-9.967 4.0900002 2.378
-9.9549999 4.0960002 2.3710001
-9.9460001 4.0999999 2.3640001
-9.9379997 4.1040001 2.355
-9.9169998 4.1149998 2.3529999
-9.9309998 4.1069999 2.3340001
-9.8520002 4.1500001 2.359
-9.3640003 4.3039999 0.60799998
-9.3839998 4.2919998 0.59399998
-9.3699999 4.2989998 0.58399999
-9.3769999 4.2950001 0.57200003
-9.3800001 4.2919998 0.56
-9.3830004 4.29 0.54799998
-9.3769999 4.2919998 0.537
-9.3800001 4.29 0.52600002
-9.3839998 4.2880001 0.514
-9.3870001 4.2849998 0.50199997
-9.3850002 4.2849998 0.491
-9.3839998 4.2849998 0.479
-9.3859997 4.283 0.46799999
-9.382 4.2849998 0.45699999
-9.3760004 4.2870002 0.44600001
-9.375 4.2870002 0.435
-9.3739996 4.2870002 0.42399999
-9.3769999 4.2849998 0.412
-9.3879995 4.2779999 0.39899999
-9.3830004 4.2800002 0.389
-9.3769999 4.283 0.37799999
-9.3889999 4.276 0.36500001
-9.3730001 4.2839999 0.35499999
-9.3789997 4.2800002 0.34299999
-9.3739996 4.2820001 0.33199999
-10.052 4.0739999 2.6830001
-10.056 4.072 2.668
-10.047 4.0760002 2.661
-10.059 4.0679998 2.641
-10.062 4.0650001 2.6270001
-10.066 4.0630002 2.6129999
-10.061 4.0650001 2.6029999
-10.06 4.0640001 2.5910001
-10.063 4.0619998 2.5769999
-10.071 4.0570002 2.5599999
-10.053 4.066 2.5569999
-10.058 4.0630002 2.5420001
-10.059 4.0609999 2.529
-10.058 4.0609999 2.517
-10.062 4.0580001 2.503
-10.05 4.0640001 2.497
-10.06 4.0580001 2.48
-10.054 4.0609999 2.471
-10.049 4.0630002 2.461
-10.057 4.0570002 2.444
-10.044 4.0640001 2.4389999
-10.048 4.0609999 2.425
-10.044 4.0630002 2.415
-10.025 4.073 2.4119999
-10.02 4.0749998 2.402
-10.011 4.079 2.395
-9.9940004 4.0879998 2.391
-9.9860001 4.092 2.3829999
-9.9799995 4.0939999 2.3729999
-9.9540005 4.1079998 2.3740001
-9.9630003 4.1030002 2.3570001
-9.9460001 4.1110001 2.3529999
-9.9289999 4.1199999 2.349
-9.915 4.1269999 2.3429999
-9.8929996 4.1389999 2.3410001
-9.8500004 4.1620002 2.3499999
-9.3669996 4.3179998 0.65399998
-9.3739996 4.3130002 0.64099997
-9.3889999 4.3039999 0.62800002
-9.4049997 4.2950001 0.61400002
-9.3999996 4.2969999 0.60299999
-9.3979998 4.2969999 0.59200001
-9.3920002 4.3000002 0.58099997
-9.3909998 4.3000002 0.56999999
-9.4020004 4.2930002 0.55699998
-9.3800001 4.3049998 0.54900002
-9.3990002 4.2930002 0.53500003
-9.3950005 4.2950001 0.52399999
-9.3929996 4.2950001 0.51300001
-9.3950005 4.2930002 0.50099999
-9.3909998 4.2950001 0.49000001
-9.3929996 4.2930002 0.479
-9.401 4.2880001 0.46599999
-9.3990002 4.2880001 0.45500001
-9.3979998 4.2880001 0.44400001
-9.3999996 4.2859998 0.43200001
-9.3959999 4.2880001 0.421
-9.3979998 4.2859998 0.41
-9.3970003 4.2859998 0.398
-9.3999996 4.2839999 0.38699999
-9.3870001 4.29 0.377
-9.382 4.2919998 0.366
-9.3889999 4.2880001 0.354
-9.3800001 4.2919998 0.34299999
-9.3660002 4.2989998 0.333
-9.3649998 4.2979999 0.322
-9.3690004 4.296 0.31
-9.3629999 4.2979999 0.29899999
-10.038 4.0929999 2.6800001
-10.064 4.0780001 2.6530001
-10.047 4.086 2.6500001
-10.066 4.0749998 2.6270001
-10.055 4.0799999 2.6210001
-10.048 4.0840001 2.612
-10.044 4.085 2.602
-10.06 4.0749998 2.5799999
-10.068 4.0700002 2.5639999
-10.059 4.0739999 2.556
-10.053 4.0770001 2.5469999
-10.06 4.072 2.5309999
-10.064 4.0689998 2.517
-10.052 4.0749998 2.51
-10.069 4.0650001 2.4890001
-10.05 4.0749998 2.487
-10.05 4.0739999 2.474
-10.054 4.0710001 2.46
-10.047 4.0749998 2.4519999
-10.047 4.073 2.4389999
-10.042 4.0760002 2.4289999
-10.06 4.0650001 2.4089999
-10.044 4.073 2.404
-10.037 4.0760002 2.3959999
-10.017 4.0869999 2.3929999
-10.009 4.0910001 2.385
-9.9949999 4.098 2.3800001
-9.9890003 4.0999999 2.3699999
-9.9689999 4.1110001 2.368
-9.9639997 4.1139998 2.359
-9.9639997 4.112 2.346
-9.9440002 4.1230001 2.3440001
-9.9390001 4.125 2.3340001
-9.934 4.1269999 2.3239999
-9.9069996 4.1420002 2.3239999
-9.9169998 4.1360002 2.3080001
-9.3719997 4.3299999 0.68800002
-9.3920002 4.3179998 0.67299998
-9.3990002 4.3140001 0.66100001
-9.415 4.3039999 0.64700001
-9.4209995 4.3000002 0.63499999
-9.4200001 4.3000002 0.62400001
-9.4110003 4.3049998 0.61299998
-9.4209995 4.2979999 0.60100001
-9.408 4.3049998 0.59100002
-9.4139996 4.3010001 0.579
-9.4130001 4.3010001 0.56800002
-9.4239998 4.2940001 0.55500001
-9.4020004 4.3049998 0.546
-9.4130001 4.2979999 0.53299999
-9.4160004 4.2969999 0.52200001
-9.4060001 4.3010001 0.51099998
-9.4130001 4.2969999 0.49900001
-9.4119997 4.2969999 0.48800001
-9.4189997 4.2919998 0.47600001
-9.427 4.2870002 0.46399999
-9.4259996 4.2870002 0.45199999
-9.4239998 4.2870002 0.44100001
-9.4320002 4.2820001 0.42899999
-9.4130001 4.2919998 0.41999999
-9.4169998 4.289 0.40799999
-9.4200001 4.2870002 0.396
-9.4139996 4.289 0.38499999
-9.401 4.2950001 0.375
-9.3900003 4.3010001 0.36500001
-9.3920002 4.2989998 0.35299999
-9.3909998 4.2989998 0.34200001
-9.3719997 4.3080001 0.33199999
-9.3710003 4.3080001 0.32100001
-10.011 4.119 2.6849999
-10.052 4.0949998 2.6489999
-10.059 4.0900002 2.6329999
-10.056 4.0910001 2.622
-10.052 4.0929999 2.612
-10.058 4.0890002 2.596
-10.053 4.0900002 2.586
-10.057 4.0879998 2.572
-10.052 4.0890002 2.562
-10.06 4.0840001 2.5450001
-10.067 4.079 2.529
-10.052 4.0869999 2.5239999
-10.055 4.085 2.5109999
-10.057 4.0830002 2.4979999
-10.055 4.0840001 2.4860001
-10.05 4.085 2.4760001
-10.064 4.0770001 2.457
-10.05 4.0840001 2.4519999
-10.058 4.079 2.4349999
-10.032 4.0929999 2.437
-10.045 4.085 2.418
-10.048 4.0819998 2.404
-10.039 4.0869999 2.3970001
-10.041 4.085 2.3829999
-10.021 4.0960002 2.381
-10.018 4.0960002 2.3699999
-9.9969997 4.1079998 2.368
-9.9919996 4.1100001 2.359
-9.9879999 4.1110001 2.348
-9.9659996 4.1230001 2.3469999
-9.9709997 4.119 2.332
-9.9429998 4.1339998 2.3329999
-9.9320002 4.1399999 2.3269999
-9.9180002 4.1479998 2.3210001
-9.9219999 4.1440001 2.3069999
-9.9200001 4.145 2.296
-9.8990002 4.1560001 2.293
-9.4180002 4.3189998 0.704
-9.4040003 4.3249998 0.69499999
-9.4329996 4.309 0.67900002
-9.4390001 4.3049998 0.667
-9.4370003 4.3049998 0.65600002
-9.4239998 4.3119998 0.64600003
-9.434 4.3049998 0.63300002
-9.4329996 4.3060002 0.62199998
-9.4320002 4.3060002 0.611
-9.4350004 4.3039999 0.59899998
-9.4329996 4.3039999 0.588
-9.4359999 4.3010001 0.57599998
-9.4300003 4.3039999 0.565
-9.4379997 4.2989998 0.55299997
-9.4359999 4.2989998 0.542
-9.4309998 4.3010001 0.53100002
-9.4289999 4.3010001 0.51999998
-9.4239998 4.3039999 0.509
-9.4440002 4.2919998 0.49599999
-9.4390001 4.2940001 0.48500001
-9.4329996 4.2969999 0.47400001
-9.441 4.2919998 0.46200001
-9.4350004 4.2940001 0.45100001
-9.4429998 4.289 0.43900001
-9.4379997 4.2909999 0.428
-9.4250002 4.2979999 0.41800001
-9.4309998 4.2940001 0.40700001
-9.4250002 4.296 0.396
-9.4139996 4.302 0.38499999
-9.3940001 4.3119998 0.37599999
-9.4110003 4.302 0.36300001
-9.3889999 4.3130002 0.35299999
-9.3940001 4.309 0.34200001
-9.3859997 4.3140001 0.331
-9.3669996 4.323 0.32100001
-9.9720001 4.152 2.6949999
-10.038 4.1139998 2.6470001
-10.048 4.1069999 2.6289999
-10.047 4.1069999 2.6159999
-10.044 4.1079998 2.605
-10.058 4.099 2.586
-10.065 4.0939999 2.569
-10.061 4.0960002 2.559
-10.056 4.098 2.549
-10.052 4.099 2.539
-10.056 4.0970001 2.5250001
-10.071 4.0869999 2.5039999
-10.049 4.099 2.503
-10.044 4.1009998 2.494
-10.067 4.0869999 2.47
-10.068 4.086 2.457
-10.055 4.0929999 2.451
-10.052 4.0939999 2.441
-10.055 4.0910001 2.427
-10.065 4.085 2.4100001
-10.036 4.1009998 2.4119999
-10.05 4.092 2.3929999
-10.031 4.1020002 2.3900001
-10.041 4.0949998 2.3729999
-10.027 4.1030002 2.368
-10.018 4.1069999 2.3599999
-10.004 4.1149998 2.355
-9.993 4.1199999 2.348
-9.9829998 4.125 2.3410001
-9.9720001 4.1300001 2.3340001
-9.9729996 4.1290002 2.3210001
-9.9490004 4.1420002 2.3199999
-9.9499998 4.1409998 2.3080001
-9.9219999 4.1560001 2.309
-9.941 4.145 2.2880001
-9.9119997 4.1599998 2.289
-9.9099998 4.1609998 2.2780001
-9.4110003 4.3369999 0.72799999
-9.4309998 4.3249998 0.71399999
-9.4549999 4.3109999 0.699
-9.4729996 4.3000002 0.685
-9.4540005 4.3099999 0.676
-9.4619999 4.3049998 0.66399997
-9.46 4.3060002 0.653
-9.4589996 4.3060002 0.64200002
-9.4700003 4.2989998 0.62900001
-9.4510002 4.3080001 0.62
-9.4589996 4.3039999 0.60699999
-9.4530001 4.3060002 0.597
-9.4560003 4.3039999 0.58499998
-9.4370003 4.3130002 0.57599998
-9.4440002 4.309 0.56400001
-9.4560003 4.302 0.551
-9.4460001 4.3060002 0.54100001
-9.4580002 4.2989998 0.528
-9.4519997 4.302 0.51700002
-9.4510002 4.302 0.50599998
-9.4580002 4.2969999 0.49399999
-9.4399996 4.3060002 0.48500001
-9.4519997 4.2989998 0.472
-9.4460001 4.302 0.46200001
-9.4499998 4.2989998 0.44999999
-9.4460001 4.3000002 0.43900001
-9.4359999 4.3049998 0.42899999
-9.4180002 4.3140001 0.419
-9.4309998 4.3070002 0.40599999
-9.4230003 4.3099999 0.396
-9.4110003 4.316 0.38600001
-9.4130001 4.3150001 0.37400001
-9.4020004 4.3200002 0.36399999
-9.401 4.3200002 0.352
-9.3950005 4.322 0.34099999
-9.382 4.3280001 0.331
-9.3640003 4.3379998 0.32100001
-10.045 4.1209998 2.632
-10.045 4.1199999 2.6199999
-10.033 4.1259999 2.6129999
-10.044 4.119 2.595
-10.05 4.1139998 2.579
-10.051 4.1129999 2.5669999
-10.053 4.1110001 2.553
-10.061 4.1059999 2.536
-10.06 4.105 2.5239999
-10.064 4.1030002 2.51
-10.044 4.1129999 2.5079999
-10.064 4.1009998 2.4849999
-10.049 4.1090002 2.4809999
-10.045 4.1100001 2.47
-10.055 4.1040001 2.4530001
-10.048 4.1069999 2.444
-10.051 4.105 2.431
-10.055 4.1020002 2.4170001
-10.039 4.1100001 2.4119999
-10.048 4.1040001 2.3959999
-10.042 4.1069999 2.3859999
-10.05 4.1020002 2.3699999
-10.042 4.1059999 2.362
-10.034 4.1100001 2.3540001
-10.023 4.1149998 2.3469999
-10.004 4.125 2.3440001
-9.9989996 4.1279998 2.335
-9.9829998 4.1360002 2.3299999
-9.974 4.1409998 2.322
-9.9510002 4.1529999 2.3210001
-9.9510002 4.152 2.309
-9.9510002 4.152 2.2969999
-9.9329996 4.1609998 2.293
-9.9189997 4.1680002 2.2869999
-9.9049997 4.1760001 2.2820001
-9.9139996 4.1700001 2.2650001
-9.9219999 4.164 2.2490001
-9.4280005 4.342 0.74900001
-9.4530001 4.3270001 0.73400003
-9.4700003 4.3169999 0.72000003
-9.4689999 4.3169999 0.70899999
-9.4709997 4.3150001 0.69700003
-9.4790001 4.3099999 0.68400002
-9.4689999 4.3150001 0.67400002
-9.4759998 4.3109999 0.662
-9.4659996 4.316 0.65200001
-9.4770002 4.309 0.639
-9.4709997 4.3109999 0.62900001
-9.4519997 4.3210001 0.62
-9.4680004 4.3109999 0.60600001
-9.4630003 4.3140001 0.59600002
-9.4829998 4.302 0.58200002
-9.4689999 4.309 0.57200003
-9.4799995 4.302 0.55900002
-9.4919996 4.2950001 0.54699999
-9.4779997 4.302 0.537
-9.4720001 4.3039999 0.52700001
-9.4659996 4.3070002 0.51599997
-9.4779997 4.3000002 0.50300002
-9.4680004 4.3039999 0.493
-9.4840002 4.2950001 0.47999999
-9.4809999 4.296 0.46900001
-9.4700003 4.302 0.45899999
-9.4619999 4.3049998 0.449
-9.448 4.3119998 0.43900001
-9.4460001 4.3119998 0.428
-9.4350004 4.3179998 0.417
-9.427 4.3210001 0.40700001
-9.4329996 4.3169999 0.39500001
-9.4169998 4.3249998 0.38499999
-9.4209995 4.323 0.373
-9.4069996 4.3299999 0.36300001
-9.3940001 4.336 0.35299999
-9.3889999 4.3379998 0.34200001
-9.3830004 4.3410001 0.331
-9.3780003 4.3429999 0.31999999
-9.3739996 4.3439999 0.30899999
-10.034 4.138 2.628
-10.041 4.1329999 2.612
-10.044 4.1300001 2.5969999
-10.042 4.131 2.586
-10.037 4.1329999 2.576
-10.044 4.1279998 2.5599999
-10.047 4.1259999 2.546
-10.05 4.1230001 2.5320001
-10.054 4.1199999 2.517
-10.042 4.1259999 2.5109999
-10.052 4.119 2.493
-10.065 4.112 2.4749999
-10.049 4.1199999 2.471
-10.053 4.1170001 2.4560001
-10.053 4.1160002 2.444
-10.048 4.118 2.434
-10.044 4.1199999 2.424
-10.044 4.119 2.4119999
-10.044 4.118 2.3989999
-10.054 4.112 2.382
-10.038 4.1199999 2.378
-10.053 4.1110001 2.358
-10.036 4.1199999 2.355
-10.038 4.118 2.342
-10.016 4.1300001 2.3399999
-10.015 4.1300001 2.3280001
-10.003 4.1360002 2.323
-9.9870005 4.145 2.3180001
-9.9910002 4.1420002 2.3039999
-9.9560003 4.1609998 2.3080001
-9.9519997 4.1620002 2.2980001
-9.9589996 4.158 2.283
-9.927 4.1750002 2.2850001
-9.9160004 4.1810002 2.2780001
-9.9119997 4.1820002 2.2679999
-9.8950005 4.191 2.263
-9.9160004 4.1789999 2.2420001
-9.8929996 4.191 2.24
-9.4569998 4.3400002 0.76800001
-9.5050001 4.3130002 0.74900001
-9.4879999 4.322 0.74000001
-9.4899998 4.3189998 0.72799999
-9.5059996 4.3099999 0.71499997
-9.4960003 4.3150001 0.70499998
-9.4849997 4.3200002 0.69499999
-9.493 4.3150001 0.68300003
-9.4910002 4.3150001 0.671
-9.4940004 4.3130002 0.66000003
-9.4879999 4.316 0.64899999
-9.5039997 4.3060002 0.63599998
-9.4940004 4.3109999 0.62599999
-9.4919996 4.3109999 0.61500001
-9.4870005 4.3140001 0.60399997
-9.4899998 4.3109999 0.59200001
-9.4969997 4.3070002 0.57999998
-9.4870005 4.3109999 0.56999999
-9.4989996 4.3039999 0.55699998
-9.4879999 4.309 0.54699999
-9.4919996 4.3070002 0.53600001
-9.4860001 4.309 0.52499998
-9.4980001 4.302 0.51200002
-9.4879999 4.3070002 0.50199997
-9.4860001 4.3070002 0.491
-9.4809999 4.309 0.47999999
-9.4799995 4.309 0.46900001
-9.4779997 4.309 0.458
-9.4630003 4.3169999 0.44800001
-9.4589996 4.3189998 0.43799999
-9.4530001 4.3210001 0.42699999
-9.4449997 4.3249998 0.41600001
-9.4420004 4.3260002 0.405
-9.4239998 4.335 0.396
-9.4219999 4.335 0.384
-9.4209995 4.335 0.373
-9.4119997 4.3390002 0.36199999
-9.4040003 4.3429999 0.352
-9.3900003 4.3499999 0.34200001
-9.3760004 4.3569999 0.331
-9.3640003 4.3629999 0.32100001
-10.038 4.1459999 2.615
-10.045 4.1409998 2.599
-10.044 4.1409998 2.5869999
-10.056 4.1339998 2.5680001
-10.029 4.1479998 2.5699999
-10.038 4.1420002 2.552
-10.043 4.1389999 2.5369999
-10.05 4.1339998 2.5209999
-10.067 4.1230001 2.5
-10.05 4.132 2.497
-10.065 4.1230001 2.477
-10.049 4.131 2.4719999
-10.049 4.131 2.46
-10.05 4.1290002 2.447
-10.047 4.1300001 2.437
-10.037 4.1350002 2.4289999
-10.052 4.1259999 2.4089999
-10.049 4.1269999 2.3989999
-10.03 4.1370001 2.3959999
-10.05 4.125 2.3740001
-10.037 4.132 2.369
-10.047 4.125 2.3510001
-10.046 4.125 2.3399999
-10.032 4.132 2.3340001
-10.024 4.1360002 2.326
-10.012 4.1420002 2.3199999
-9.9969997 4.1500001 2.3150001
-9.9899998 4.1539998 2.306
-9.967 4.1659999 2.3050001
-9.9799995 4.158 2.2869999
-9.9610004 4.1680002 2.283
-9.948 4.1750002 2.277
-9.9399996 4.1789999 2.2690001
-9.9320002 4.1830001 2.2609999
-9.9160004 4.191 2.256
-9.915 4.191 2.244
-9.9160004 4.1900001 2.2309999
-9.915 4.1890001 2.22
-9.4580002 4.3540001 0.79100001
-9.5170002 4.3200002 0.76999998
-9.5019999 4.3270001 0.76099998
-9.5030003 4.3260002 0.74900001
-9.5100002 4.322 0.73699999
-9.5089998 4.322 0.72600001
-9.507 4.322 0.71499997
-9.5179996 4.3150001 0.70200002
-9.5080004 4.3200002 0.69199997
-9.4980001 4.3249998 0.68199998
-9.5089998 4.3179998 0.66900003
-9.5120001 4.316 0.65700001
-9.5109997 4.316 0.64600003
-9.5089998 4.316 0.63499999
-9.5039997 4.3179998 0.625
-9.5059996 4.316 0.61299998
-9.5010004 4.3189998 0.602
-9.5080004 4.3140001 0.58999997
-9.5150003 4.309 0.57800001
-9.5139999 4.309 0.56699997
-9.5039997 4.3140001 0.55699998
-9.5159998 4.3070002 0.54400003
-9.5190001 4.3039999 0.53200001
-9.5129995 4.3070002 0.52200001
-9.4989996 4.3140001 0.51200002
-9.4989996 4.3130002 0.50099999
-9.5050001 4.309 0.48899999
-9.4949999 4.3140001 0.479
-9.4729996 4.3260002 0.47
-9.4700003 4.3270001 0.45899999
-9.4709997 4.3249998 0.44800001
-9.4689999 4.3260002 0.43599999
-9.4630003 4.3280001 0.426
-9.4659996 4.3260002 0.414
-9.4560003 4.3309999 0.40400001
-9.4420004 4.3379998 0.39399999
-9.4320002 4.3429999 0.38299999
-9.4119997 4.3530002 0.37400001
-9.4180002 4.349 0.36199999
-9.3920002 4.3629999 0.35299999
