ply
format ascii 1.0
comment PCL generated
element vertex 1890
property float x
property float y
property float z
element camera 0
property float view_px
property float view_py
property float view_pz
property float x_axisx
property float x_axisy
property float x_axisz
property float y_axisx
property float y_axisy
property float y_axisz
property float z_axisx
property float z_axisy
property float z_axisz
property float focal
property float scalex
property float scaley
property float centerx
property float centery
property int viewportx
property int viewporty
property float k1
property float k2
end_header
29.424 4.6459999 1.911
29.395 4.6570001 1.89
29.393 4.6570001 1.877
29.360001 4.6700001 1.855
29.356001 4.671 1.841
29.368 4.6659999 1.831
29.344999 4.6739998 1.812
29.35 4.6719999 1.8
28.954 4.8270001 1.687
28.979 4.8169999 1.681
28.987 4.8130002 1.671
29.042999 4.7909999 1.6720001
29.157 4.7449999 1.688
29.275999 4.698 1.704
29.382999 4.6550002 1.717
29.355 4.6659999 1.697
29.357 4.665 1.6849999
29.35 4.6669998 1.67
28.410999 5.0819998 2.342
28.385 5.0910001 2.3199999
28.343 5.1069999 2.2909999
28.351 5.1040001 2.283
28.353001 5.1020002 2.2720001
28.348 5.1040001 2.2579999
28.35 5.1030002 2.247
28.348 5.1030002 2.2349999
28.344999 5.1040001 2.2219999
28.344 5.1040001 2.21
28.339001 5.1059999 2.1960001
28.346001 5.1020002 2.187
28.35 5.0999999 2.177
28.341999 5.1030002 2.1630001
28.347 5.1009998 2.1530001
28.344999 5.1009998 2.1400001
28.348 5.099 2.1300001
28.348 5.099 2.118
28.337 5.1030002 2.1029999
28.351999 5.0960002 2.0969999
28.347 5.098 2.0840001
28.347 5.098 2.072
28.35 5.0960002 2.0610001
28.353001 5.0939999 2.0510001
28.363001 5.0900002 2.043
28.361 5.0900002 2.0309999
28.365999 5.0879998 2.0209999
28.382 5.0809999 2.0150001
28.393 5.0770001 2.007
28.41 5.0700002 2.0009999
28.422001 5.0650001 1.993
28.424 5.0630002 1.983
28.431 5.0599999 1.973
28.448 5.053 1.967
28.459999 5.0479999 1.96
28.458 5.0479999 1.948
28.493 5.0339999 1.947
28.573999 4.9990001 1.891
28.58 4.9970002 1.881
28.582001 4.9949999 1.87
28.618999 4.9809999 1.869
28.681999 4.9559999 1.876
28.757999 4.9260001 1.886
28.837999 4.8940001 1.898
28.905001 4.8670001 1.905
28.965 4.8439999 1.91
29.042 4.8130002 1.92
29.110001 4.7859998 1.926
29.174999 4.7610002 1.932
29.25 4.7309999 1.9400001
29.361 4.6869998 1.9579999
29.423 4.6609998 1.936
29.399 4.6700001 1.916
29.395 4.671 1.902
29.358999 4.6849999 1.8789999
29.351 4.6869998 1.864
29.354 4.6849999 1.852
29.353001 4.6859999 1.8380001
29.344999 4.6880002 1.823
29.347 4.6869998 1.811
29.346001 4.6869998 1.7970001
29.004 4.8200002 1.698
29.011 4.8169999 1.687
29.002001 4.8200002 1.673
29.049 4.8010001 1.6720001
29.162001 4.757 1.687
29.299 4.7020001 1.7079999
29.361 4.678 1.71
29.358999 4.678 1.697
29.353001 4.6799998 1.682
29.360001 4.677 1.671
28.415001 5.0929999 2.3529999
28.364 5.112 2.3210001
28.361 5.112 2.3080001
28.347 5.1170001 2.2909999
28.341 5.119 2.277
28.353001 5.1139998 2.27
28.341999 5.118 2.2539999
28.344999 5.1160002 2.244
28.336 5.119 2.2279999
28.349001 5.1139998 2.2219999
28.333 5.119 2.204
28.358999 5.1090002 2.2019999
28.341 5.1160002 2.1830001
28.336 5.1170001 2.1700001
28.346001 5.1129999 2.1619999
28.341999 5.1139998 2.1489999
28.344999 5.112 2.1389999
28.336 5.1149998 2.1240001
28.353001 5.1079998 2.119
28.349001 5.1090002 2.105
28.354 5.1069999 2.096
28.351999 5.1069999 2.0829999
28.35 5.1079998 2.0710001
28.349001 5.1069999 2.059
28.357 5.1040001 2.0510001
28.372 5.098 2.0439999
28.367001 5.099 2.0309999
28.374001 5.0960002 2.0220001
28.393999 5.0879998 2.017
28.41 5.0809999 2.0109999
28.426001 5.0749998 2.0050001
28.43 5.073 1.995
28.436001 5.0700002 1.985
28.462 5.059 1.982
28.469 5.0560002 1.973
28.487 5.0489998 1.967
28.525999 5.0339999 1.967
28.613001 4.9959998 1.901
28.615999 4.994 1.89
28.612 4.9959998 1.877
28.618999 4.993 1.867
28.691999 4.9640002 1.877
28.750999 4.941 1.883
28.83 4.9099998 1.8940001
28.902 4.881 1.902
28.976 4.8520002 1.911
29.056 4.8210001 1.9220001
29.112 4.7979999 1.925
29.186001 4.7690001 1.933
29.267 4.7379999 1.943
29.358 4.7020001 1.956
29.413 4.6799998 1.9579999
29.398001 4.6849999 1.9400001
29.365 4.698 1.918
29.372 4.6939998 1.9069999
29.351999 4.7010002 1.888
29.346001 4.7030001 1.874
29.368999 4.6939998 1.867
29.354 4.6989999 1.85
29.351999 4.6999998 1.836
29.351 4.6989999 1.823
29.344999 4.7010002 1.808
29.344 4.7010002 1.795
29.35 4.698 1.784
29.042999 4.8169999 1.694
29.034 4.8200002 1.679
29.056 4.8109999 1.673
29.143 4.777 1.681
29.271999 4.7259998 1.7
29.379 4.684 1.7130001
29.364 4.6890001 1.696
29.351999 4.6929998 1.681
29.360001 4.6900001 1.67
28.429001 5.099 2.369
28.382999 5.1149998 2.339
28.365999 5.1220002 2.3199999
28.351999 5.1269999 2.303
28.327 5.1360002 2.2809999
28.34 5.1300001 2.2750001
28.349001 5.1269999 2.266
28.351 5.125 2.256
28.337999 5.1300001 2.2390001
28.361 5.1209998 2.2360001
28.360001 5.1209998 2.224
28.347 5.125 2.207
28.363001 5.118 2.2019999
28.341 5.1269999 2.1819999
28.349001 5.1230001 2.1730001
28.346001 5.1240001 2.161
28.35 5.1220002 2.1500001
28.34 5.125 2.135
28.351999 5.1199999 2.128
28.364 5.1149998 2.1199999
28.341 5.1240001 2.1010001
28.348 5.1199999 2.092
28.356001 5.1170001 2.0829999
28.355 5.1170001 2.0710001
28.365 5.1129999 2.063
28.362 5.1129999 2.0510001
28.368 5.1100001 2.0409999
28.382999 5.1040001 2.0350001
28.403 5.0960002 2.03
28.402 5.0960002 2.0179999
28.423 5.0879998 2.0139999
28.426001 5.086 2.003
28.461 5.072 2.003
28.462999 5.0710001 1.992
28.471001 5.0669999 1.983
28.497 5.0570002 1.98
28.552 5.0359998 1.9859999
28.676001 4.9840002 1.918
28.629 5.0009999 1.892
28.635 4.9990001 1.882
28.632 4.9990001 1.87
28.681 4.98 1.872
28.753 4.9520001 1.882
28.832001 4.921 1.893
28.915001 4.888 1.904
28.98 4.8629999 1.911
29.041 4.8390002 1.916
29.110001 4.8119998 1.923
29.190001 4.7800002 1.933
29.254999 4.7550001 1.938
29.351999 4.717 1.952
29.417 4.691 1.957
29.353001 4.7160001 1.926
29.351 4.7160001 1.913
29.34 4.7189999 1.897
29.347 4.717 1.885
29.344999 4.717 1.872
29.351 4.7140002 1.86
29.357 4.711 1.849
29.363001 4.7090001 1.837
29.35 4.7129998 1.821
29.337 4.717 1.8049999
29.341999 4.7150002 1.793
29.358 4.7080002 1.784
29.065001 4.8210001 1.698
29.066999 4.8200002 1.686
29.075001 4.816 1.676
29.157 4.7839999 1.683
29.254 4.7459998 1.694
29.370001 4.7010002 1.709
29.370001 4.6999998 1.696
29.356001 4.7049999 1.6799999
29.354 4.7049999 1.6670001
28.421 5.1139998 2.3759999
28.389 5.125 2.3510001
28.358 5.1370001 2.3269999
28.357 5.1360002 2.3150001
28.358 5.1350002 2.3039999
28.362 5.1339998 2.293
28.351999 5.1370001 2.2780001
28.353001 5.1360002 2.266
28.344999 5.138 2.2520001
28.354 5.1350002 2.243
28.344999 5.138 2.2279999
28.347 5.1360002 2.217
28.354 5.1329999 2.2079999
28.349001 5.1350002 2.1949999
28.353001 5.1329999 2.184
28.339001 5.138 2.168
28.358999 5.1300001 2.164
28.341 5.1360002 2.145
28.348 5.1329999 2.1359999
28.346001 5.1329999 2.1240001
28.349001 5.132 2.1129999
28.344 5.1329999 2.0999999
28.351999 5.1300001 2.092
28.358999 5.1269999 2.082
28.353001 5.1279998 2.069
28.385 5.1160002 2.069
28.378 5.118 2.0539999
28.391001 5.112 2.0480001
28.409 5.105 2.0420001
28.416 5.1020002 2.033
28.423 5.099 2.023
28.444 5.0910001 2.0190001
28.469999 5.0799999 2.016
28.473 5.079 2.0050001
28.473 5.079 1.994
28.511 5.0630002 1.995
28.642 5.0079999 1.895
28.67 4.9970002 1.891
28.662001 4.9990001 1.877
28.690001 4.9879999 1.873
28.775 4.9549999 1.886
28.851999 4.9250002 1.897
28.910999 4.902 1.902
28.990999 4.8709998 1.9119999
29.052999 4.8470001 1.918
29.118999 4.8210001 1.924
29.211 4.7849998 1.937
29.285 4.756 1.9450001
29.361 4.7270002 1.9529999
29.341 4.7340002 1.934
29.355 4.7280002 1.925
29.337 4.7340002 1.9069999
29.336 4.7340002 1.8940001
29.347 4.7290001 1.8839999
29.34 4.7319999 1.869
29.343 4.73 1.857
29.341 4.73 1.8430001
29.353001 4.7249999 1.8329999
29.351999 4.7249999 1.8200001
29.348 4.7259998 1.806
29.363001 4.7199998 1.7970001
29.341 4.7280002 1.778
29.066999 4.8330002 1.697
29.089001 4.8239999 1.6900001
29.091 4.822 1.678
29.156 4.7969999 1.682
29.263 4.7550001 1.6950001
29.351999 4.7210002 1.7029999
29.349001 4.7210002 1.6900001
29.365999 4.7140002 1.681
29.35 4.7199998 1.664
28.402 5.132 2.378
28.389 5.1370001 2.3610001
28.358 5.1479998 2.3369999
28.334 5.1570001 2.316
28.354 5.1479998 2.312
28.353001 5.1479998 2.3
28.34 5.1529999 2.283
28.344 5.151 2.273
28.346001 5.1500001 2.2620001
28.341 5.151 2.2479999
28.347 5.1479998 2.2390001
28.347 5.1479998 2.227
28.341999 5.1490002 2.214
28.334 5.152 2.1989999
28.349001 5.1459999 2.1930001
28.341 5.1490002 2.178
28.339001 5.1490002 2.1659999
28.334 5.151 2.1530001
28.349001 5.1440001 2.1470001
28.356001 5.1409998 2.1370001
28.346001 5.145 2.122
28.344999 5.1440001 2.1110001
28.344999 5.1440001 2.099
28.355 5.1399999 2.0910001
28.355 5.1399999 2.079
28.378 5.1300001 2.076
28.378 5.1300001 2.0639999
28.399 5.1220002 2.0599999
28.419001 5.1129999 2.0550001
28.413 5.1160002 2.0420001
28.433001 5.1069999 2.0369999
28.451 5.0999999 2.0309999
28.469999 5.0929999 2.026
28.459 5.0960002 2.0109999
28.476999 5.0890002 2.0050001
28.52 5.072 2.0079999
28.938 4.9130001 2.132
28.698 4.9980001 1.91
28.684999 5.0029998 1.8940001
28.679001 5.0050001 1.88
28.695 4.9980001 1.873
28.743999 4.9790001 1.876
28.843 4.941 1.893
28.908001 4.9159999 1.899
29.002001 4.8790002 1.914
29.049999 4.8610001 1.915
29.125999 4.8309999 1.924
29.226 4.7919998 1.9400001
29.292 4.7670002 1.9450001
29.347 4.7449999 1.948
29.358 4.7399998 1.937
29.357 4.7399998 1.924
29.346001 4.744 1.908
29.349001 4.7420001 1.896
29.334999 4.7470002 1.8789999
29.353001 4.7399998 1.8710001
29.344 4.743 1.855
29.343 4.743 1.842
29.336 4.7449999 1.827
29.341999 4.7420001 1.816
29.362 4.7340002 1.808
29.341999 4.7410002 1.79
29.35 4.7379999 1.779
29.176001 4.8039999 1.723
29.115999 4.8260002 1.6950001
29.122999 4.823 1.6849999
29.156 4.8099999 1.6799999
29.263 4.7690001 1.693
29.347 4.7360001 1.701
29.358999 4.7309999 1.691
29.371 4.7259998 1.681
29.349001 4.7340002 1.663
28.399 5.145 2.3870001
28.384001 5.151 2.369
28.371 5.1550002 2.352
28.348 5.1630001 2.3310001
28.363001 5.1570001 2.325
28.354 5.1599998 2.3099999
28.362 5.1570001 2.3010001
28.351999 5.1599998 2.286
28.364 5.1550002 2.279
28.354 5.158 2.263
28.351999 5.158 2.2509999
28.348 5.1589999 2.237
28.336 5.164 2.221
28.347 5.1589999 2.214
28.349001 5.158 2.2030001
28.356001 5.1550002 2.194
28.348 5.1570001 2.1789999
28.337 5.1609998 2.164
28.35 5.1560001 2.1570001
28.349001 5.1560001 2.145
28.363001 5.1500001 2.138
28.358999 5.151 2.125
28.358 5.151 2.1129999
28.351 5.1529999 2.099
28.361 5.1490002 2.0910001
28.358 5.1500001 2.079
28.375 5.1430001 2.073
28.395 5.1350002 2.0680001
28.414 5.1269999 2.063
28.413 5.1269999 2.0510001
28.443001 5.1149998 2.05
28.455 5.1100001 2.043
28.458 5.1090002 2.0320001
28.462999 5.1059999 2.0220001
28.483 5.098 2.017
28.513 5.086 2.0150001
28.548 5.073 2.0150001
28.546 5.073 2.003
28.988001 4.9060001 2.1340001
28.716 5.0029998 1.902
28.712999 5.0040002 1.8890001
28.719 5.0009999 1.8789999
28.757999 4.9860001 1.878
28.823 4.961 1.885
28.914 4.9260001 1.899
29 4.8930001 1.9119999
29.066999 4.8670001 1.919
29.131001 4.842 1.924
29.219999 4.8080001 1.936
29.289 4.7810001 1.943
29.343 4.7600002 1.9450001
29.341 4.7600002 1.931
29.339001 4.7610002 1.918
29.337999 4.7600002 1.904
29.341 4.7589998 1.892
29.334999 4.7610002 1.877
29.344999 4.756 1.867
29.353001 4.7529998 1.8559999
29.346001 4.7550001 1.841
29.344 4.7550001 1.8279999
29.351 4.7519999 1.817
29.349001 4.7519999 1.803
29.347 4.7529998 1.79
29.354 4.7490001 1.778
29.351 4.75 1.765
29.146999 4.8270001 1.701
29.149 4.8260002 1.689
29.153999 4.8239999 1.678
29.249001 4.7870002 1.688
29.356001 4.7459998 1.701
29.354 4.7459998 1.688
29.361 4.743 1.677
29.372 4.7379999 1.666
28.412001 5.1529999 2.414
28.407 5.1539998 2.4000001
28.377001 5.165 2.3759999
28.35 5.1739998 2.3540001
28.347 5.1750002 2.3410001
28.35 5.1739998 2.3299999
28.349001 5.1729999 2.3180001
28.337 5.177 2.302
28.365 5.1659999 2.3010001
28.351 5.171 2.283
28.35 5.171 2.2709999
28.337999 5.1750002 2.2550001
28.341 5.1739998 2.2449999
28.343 5.1719999 2.234
28.341999 5.1719999 2.2219999
28.337999 5.1739998 2.2079999
28.355 5.1669998 2.2030001
28.346001 5.1700001 2.188
28.346001 5.1690001 2.1760001
28.361 5.1630001 2.171
28.357 5.164 2.158
28.351999 5.1659999 2.1440001
28.346001 5.1669998 2.1300001
28.353001 5.164 2.122
28.344 5.1669998 2.1070001
28.372999 5.1560001 2.105
28.372999 5.1560001 2.0940001
28.382 5.152 2.085
28.412001 5.1399999 2.0840001
28.407 5.1420002 2.0710001
28.427999 5.1329999 2.0669999
28.443001 5.1269999 2.0599999
28.466 5.118 2.056
28.459999 5.1199999 2.043
28.468 5.1160002 2.0339999
28.514999 5.098 2.0380001
28.780001 4.9980001 2.1140001
28.823 4.9819999 2.1159999
28.9 4.9520001 2.128
28.943001 4.9359999 2.1300001
28.995001 4.9159999 2.1340001
29.087999 4.8800001 2.151
28.733999 5.0089998 1.905
28.732 5.0089998 1.893
28.731001 5.0089998 1.881
28.778 4.9899998 1.883
28.851 4.9619999 1.892
28.924999 4.934 1.901
28.993999 4.908 1.908
29.076 4.8759999 1.919
29.142 4.8509998 1.926
29.223 4.8200002 1.9349999
29.313999 4.7849998 1.948
29.337999 4.7750001 1.942
29.337 4.7750001 1.928
29.348 4.77 1.918
29.356001 4.7670002 1.9069999
29.346001 4.77 1.892
29.344 4.77 1.878
29.358999 4.7639999 1.869
29.353001 4.7659998 1.854
29.354 4.7649999 1.842
29.353001 4.7649999 1.8279999
29.337 4.7709999 1.811
29.353001 4.7639999 1.803
29.356001 4.7620001 1.79
29.348 4.7649999 1.775
29.341999 4.7670002 1.761
29.219 4.8130002 1.7180001
29.167 4.8319998 1.692
29.177 4.8280001 1.682
29.257999 4.7969999 1.689
29.347 4.7620001 1.698
29.363001 4.756 1.689
29.361 4.756 1.675
29.378 4.7490001 1.666
28.403999 5.1669998 2.421
28.400999 5.1680002 2.408
28.360001 5.1830001 2.3789999
28.341 5.1890001 2.3599999
28.351999 5.1849999 2.352
28.351 5.1849999 2.3399999
28.339001 5.1890001 2.3239999
28.349001 5.184 2.316
28.360001 5.1799998 2.3080001
28.357 5.1810002 2.296
28.343 5.1849999 2.279
28.341999 5.1849999 2.266
28.353001 5.1810002 2.2590001
28.34 5.1859999 2.2420001
28.355 5.1789999 2.2360001
28.344 5.1830001 2.221
28.336 5.1859999 2.2060001
28.339001 5.184 2.1960001
28.351999 5.1789999 2.188
28.349001 5.1799998 2.1760001
28.347 5.1799998 2.164
28.361 5.1739998 2.1570001
28.35 5.178 2.142
28.354 5.1760001 2.132
28.370001 5.1690001 2.1259999
28.368 5.1700001 2.1129999
28.372999 5.1669998 2.1040001
28.393 5.1589999 2.099
28.414 5.151 2.095
28.410999 5.152 2.082
28.433001 5.1430001 2.0780001
28.445 5.138 2.0710001
28.466 5.1300001 2.066
28.466 5.1300001 2.0550001
28.495001 5.118 2.053
28.548 5.098 2.059
28.709 5.0370002 2.1010001
28.791 5.006 2.1159999
28.847 4.9850001 2.122
28.91 4.961 2.1300001
28.964001 4.9400001 2.135
29.01 4.9229999 2.1370001
29.066 4.901 2.142
28.798 4.9959998 1.923
28.757999 5.0110002 1.899
28.764999 5.0079999 1.8890001
28.792 4.9970002 1.885
28.848 4.9759998 1.8890001
28.924 4.947 1.899
29.014999 4.9120002 1.913
29.076 4.8889999 1.918
29.134001 4.8670001 1.9220001
29.238001 4.8270001 1.938
29.318001 4.7969999 1.947
29.33 4.7919998 1.938
29.341999 4.7870002 1.928
29.353001 4.7820001 1.918
29.347 4.7839999 1.903
29.35 4.7820001 1.891
29.348 4.7820001 1.878
29.332001 4.7880001 1.86
29.353001 4.7800002 1.853
29.334999 4.7859998 1.835
29.365999 4.7729998 1.83
29.344 4.7810001 1.812
29.348 4.7789998 1.8
29.341 4.7810001 1.785
29.358 4.7750001 1.776
29.351 4.777 1.762
29.237 4.8189998 1.721
29.190001 4.836 1.696
29.197001 4.8330002 1.686
29.267 4.8060002 1.6900001
29.337999 4.7789998 1.694
29.372 4.7659998 1.689
29.396999 4.756 1.682
29.403999 4.7529998 1.671
29.438999 4.7389998 1.666
28.422001 5.1729999 2.45
28.396999 5.1820002 2.428
28.382999 5.1869998 2.4100001
28.351 5.198 2.3859999
28.346001 5.1989999 2.372
28.356001 5.1950002 2.3640001
28.341999 5.1999998 2.3469999
28.356001 5.1939998 2.3399999
28.346001 5.197 2.325
28.361 5.191 2.319
28.348 5.1960001 2.302
28.343 5.197 2.2880001
28.354 5.1929998 2.2809999
28.349001 5.1939998 2.267
28.34 5.197 2.2520001
28.351 5.1919999 2.2449999
28.337 5.197 2.2279999
28.358999 5.1890001 2.224
28.349001 5.1919999 2.2090001
28.343 5.1939998 2.1949999
28.349001 5.191 2.1860001
28.344999 5.1919999 2.1730001
28.343 5.1919999 2.161
28.358999 5.1859999 2.155
28.372 5.1810002 2.148
28.375999 5.1789999 2.138
28.365999 5.1820002 2.122
28.379999 5.1760001 2.1159999
28.389999 5.1719999 2.108
28.400999 5.1680002 2.0999999
28.417 5.1609998 2.0940001
28.434999 5.1539998 2.089
28.450001 5.1479998 2.082
28.457001 5.145 2.073
28.461 5.1430001 2.063
28.49 5.132 2.0610001
28.583 5.0970001 2.0810001
28.690001 5.0570002 2.105
28.731001 5.0409999 2.1059999
28.792999 5.0180001 2.1140001
28.846001 4.9970002 2.1199999
28.913 4.9720001 2.1289999
28.943001 4.961 2.1259999
29.004999 4.9369998 2.1340001
29.066 4.914 2.141
29.160999 4.8779998 2.158
29.336 4.8070002 2.082
28.792999 5.0100002 1.908
28.799 5.007 1.897
28.801001 5.006 1.886
28.855 4.9850001 1.89
28.922001 4.96 1.897
28.983 4.9369998 1.902
29.073 4.9029999 1.915
29.150999 4.8730001 1.925
29.232 4.842 1.9349999
29.302999 4.8150001 1.941
29.343 4.8000002 1.9400001
29.341999 4.8000002 1.926
29.334999 4.802 1.9119999
29.343 4.7979999 1.901
29.355 4.7930002 1.891
29.351999 4.7940001 1.877
29.323 4.8039999 1.8559999
29.360001 4.79 1.853
29.35 4.7930002 1.8380001
29.357 4.79 1.826
29.358999 4.789 1.814
29.351 4.7909999 1.799
29.35 4.7909999 1.786
29.357 4.7880001 1.775
29.371 4.7820001 1.765
29.346001 4.7909999 1.7460001
29.231001 4.8340001 1.705
29.238001 4.8309999 1.694
29.250999 4.8249998 1.6849999
29.374001 4.7789998 1.701
29.403999 4.7670002 1.6950001
29.410999 4.7639999 1.684
29.427 4.757 1.675
29.448 4.7490001 1.6670001
28.382 5.1989999 2.444
28.375999 5.2010002 2.4300001
28.370001 5.2030001 2.415
28.347 5.211 2.3940001
28.35 5.2090001 2.3829999
28.357 5.2059999 2.3740001
28.351 5.2080002 2.3599999
28.346001 5.2090001 2.3469999
28.362 5.2030001 2.3410001
28.362 5.2030001 2.329
28.353001 5.2049999 2.3139999
28.358999 5.2030001 2.3050001
28.356001 5.204 2.2909999
28.365999 5.1989999 2.2839999
28.323999 5.2140002 2.256
28.349001 5.2049999 2.2539999
28.358 5.2010002 2.2460001
28.341999 5.2059999 2.2279999
28.344999 5.2049999 2.217
28.34 5.2059999 2.204
28.364 5.197 2.201
28.358999 5.198 2.188
28.347 5.2020001 2.1719999
28.357 5.198 2.164
28.364 5.1950002 2.155
28.367001 5.1939998 2.1440001
28.367001 5.1929998 2.1329999
28.374001 5.1900001 2.1240001
28.393999 5.1820002 2.119
28.4 5.1799998 2.1099999
28.413 5.1739998 2.1029999
28.431 5.1669998 2.0969999
28.426001 5.1690001 2.0840001
28.464001 5.1539998 2.085
28.481001 5.1479998 2.0799999
28.496 5.1420002 2.073
28.587999 5.1069999 2.0929999
28.652 5.0830002 2.102
28.695999 5.066 2.105
28.749001 5.046 2.1099999
28.816999 5.0209999 2.1210001
28.858999 5.0050001 2.122
28.921 4.9809999 2.1300001
28.975 4.961 2.135
29.007 4.948 2.1329999
29.083 4.9200001 2.145
29.145 4.8959999 2.151
29.358 4.8130002 2.0999999
29.382 4.8039999 2.0940001
28.827 5.0089998 1.916
28.836 5.0050001 1.9069999
28.82 5.0110002 1.89
28.856001 4.9970002 1.8890001
28.931999 4.9679999 1.898
29.017 4.9359999 1.91
29.082001 4.9120002 1.916
29.165001 4.8800001 1.927
29.239 4.8530002 1.9349999
29.333 4.8169999 1.948
29.334 4.816 1.936
29.341999 4.8130002 1.925
29.344 4.8109999 1.9119999
29.337 4.8140001 1.897
29.344999 4.8099999 1.887
29.337999 4.8119998 1.872
29.336 4.8119998 1.858
29.353001 4.8060002 1.85
29.34 4.8099999 1.8329999
29.358 4.803 1.825
29.354 4.8039999 1.811
29.343 4.8070002 1.795
29.347 4.8049998 1.784
29.341 4.8070002 1.7690001
29.354 4.802 1.7589999
29.35 4.803 1.7460001
29.271 4.8319998 1.7130001
29.257999 4.836 1.697
29.261 4.835 1.6849999
29.379 4.79 1.701
29.408001 4.7789998 1.6950001
29.438 4.7670002 1.689
29.459 4.7589998 1.681
28.412001 5.1999998 2.4790001
28.382 5.211 2.454
28.370001 5.2150002 2.437
28.348 5.2220001 2.4159999
28.347 5.2220001 2.404
28.351999 5.2199998 2.3940001
28.348 5.2210002 2.381
28.334 5.2259998 2.3629999
28.337999 5.224 2.3529999
28.343 5.2220001 2.3429999
28.346001 5.2199998 2.3329999
28.336 5.223 2.3169999
28.351 5.217 2.312
28.351 5.217 2.299
28.344999 5.2179999 2.286
28.360001 5.2129998 2.28
28.344 5.2179999 2.2620001
28.344999 5.217 2.25
28.343 5.2179999 2.2379999
28.346001 5.2160001 2.2279999
28.341999 5.217 2.2149999
28.339001 5.217 2.2019999
28.358999 5.21 2.198
28.355 5.211 2.184
28.351999 5.2119999 2.1719999
28.360001 5.2080002 2.1630001
28.372 5.2030001 2.1559999
28.375999 5.2010002 2.1459999
28.389 5.1960001 2.1389999
28.396 5.1929998 2.1300001
28.422001 5.1830001 2.128
28.422001 5.1830001 2.1159999
28.454 5.171 2.115
28.440001 5.1750002 2.099
28.465 5.1659999 2.096
28.468 5.164 2.085
28.492001 5.1550002 2.082
28.554001 5.132 2.0910001
28.605 5.112 2.0969999
28.656 5.0929999 2.102
28.708 5.0739999 2.1070001
28.753 5.0570002 2.1099999
28.816 5.033 2.119
28.872999 5.0120001 2.125
28.917999 4.9949999 2.1270001
28.962 4.9780002 2.1289999
29.030001 4.9530001 2.138
29.083 4.9330001 2.1429999
29.139999 4.9109998 2.148
29.379 4.8189998 2.1040001
28.889999 4.9980001 1.933
28.844999 5.0139999 1.908
28.839001 5.0159998 1.8940001
28.858 5.0089998 1.887
28.927999 4.9819999 1.896
29.004999 4.9530001 1.905
29.073 4.928 1.9119999
29.157 4.8959999 1.923
29.240999 4.8649998 1.934
29.327 4.8319998 1.9450001
29.329 4.8309999 1.932
29.341 4.8260002 1.923
29.33 4.8299999 1.9069999
29.334 4.8280001 1.895
29.334 4.8270001 1.882
29.329 4.829 1.868
29.327 4.829 1.854
29.337999 4.8239999 1.844
29.344 4.822 1.8329999
29.341999 4.822 1.819
29.349001 4.8189998 1.808
29.347 4.8189998 1.795
29.351999 4.8169999 1.783
29.348 4.8179998 1.7690001
29.343 4.8189998 1.755
29.354 4.8140001 1.745
29.320999 4.8260002 1.724
29.287001 4.8379998 1.7029999
29.291 4.836 1.691
29.398001 4.796 1.704
29.408001 4.7919998 1.694
28.42 5.2090001 2.4920001
28.393 5.2179999 2.4690001
28.358999 5.23 2.4430001
28.351 5.2329998 2.428
28.346001 5.2340002 2.414
28.358999 5.2290001 2.4070001
28.344 5.2340002 2.3889999
28.348 5.2319999 2.3789999
28.339001 5.2350001 2.3640001
28.341 5.2340002 2.3529999
28.349001 5.23 2.3440001
28.348 5.23 2.332
28.349001 5.2290001 2.3210001
28.355 5.2270002 2.3110001
28.346001 5.23 2.296
28.337 5.2319999 2.2809999
28.344 5.2290001 2.2720001
28.344 5.2290001 2.26
28.34 5.23 2.247
28.35 5.2259998 2.2390001
28.341 5.2290001 2.224
28.336 5.23 2.211
28.351 5.224 2.2049999
28.360001 5.2210002 2.1960001
28.354 5.2220001 2.1819999
28.363001 5.2179999 2.174
28.364 5.2179999 2.1630001
28.368 5.2160001 2.1530001
28.381001 5.211 2.1459999
28.403999 5.2020001 2.1429999
28.410999 5.1989999 2.1340001
28.416 5.197 2.1240001
28.440001 5.1880002 2.1210001
28.448 5.184 2.112
28.502001 5.164 2.119
28.481001 5.171 2.0999999
28.490999 5.1669998 2.092
28.511 5.1599998 2.0869999
28.554001 5.1430001 2.0899999
28.591999 5.1290002 2.0899999
28.657 5.105 2.1010001
28.704 5.0869999 2.1040001
28.759001 5.066 2.1099999
28.816 5.0450001 2.1170001
28.868 5.026 2.122
28.922001 5.0050001 2.1270001
28.995001 4.9780002 2.138
29.034 4.9640002 2.138
29.080999 4.9460001 2.1400001
29.146999 4.921 2.1489999
29.222 4.8930001 2.1589999
29.379999 4.8319998 2.1159999
29.417 4.8169999 2.1010001
29.4 4.823 2.082
28.871 5.0170002 1.914
28.879 5.013 1.904
28.884001 5.0110002 1.893
28.913 5 1.89
28.992001 4.9699998 1.9
29.066 4.9429998 1.908
29.150999 4.9109998 1.92
29.257 4.8709998 1.937
29.326 4.8460002 1.943
29.347 4.8369999 1.936
29.346001 4.8369999 1.923
29.334 4.8410001 1.906
29.349001 4.835 1.898
29.339001 4.8379998 1.882
29.333 4.8400002 1.867
29.344999 4.835 1.857
29.334 4.8390002 1.842
29.353001 4.8309999 1.834
29.351 4.8319998 1.8200001
29.358 4.8280001 1.809
29.349001 4.8309999 1.794
29.361 4.8270001 1.784
29.34 4.8340001 1.766
29.334 4.835 1.751
29.377001 4.8189998 1.749
29.375 4.8189998 1.7359999
29.327999 4.836 1.711
29.334999 4.8330002 1.7
29.378 4.8169999 1.698
28.391001 5.2309999 2.49
28.372999 5.237 2.471
28.344999 5.2470002 2.447
28.348 5.2449999 2.4360001
28.341 5.2470002 2.4219999
28.35 5.244 2.4130001
28.353001 5.2420001 2.4030001
28.347 5.244 2.3889999
28.341999 5.2449999 2.375
28.347 5.243 2.365
28.329 5.2490001 2.346
28.337 5.2459998 2.3369999
28.348 5.2410002 2.3299999
28.355 5.2379999 2.3210001
28.334 5.2449999 2.3010001
28.353001 5.2379999 2.2969999
28.341 5.2420001 2.28
28.351999 5.237 2.273
28.356001 5.2360001 2.263
28.334999 5.243 2.243
28.362 5.2319999 2.2420001
28.357 5.2340002 2.2279999
28.355 5.2340002 2.2160001
28.353001 5.2350001 2.204
28.358 5.2319999 2.194
28.364 5.23 2.184
28.372999 5.2259998 2.1760001
28.379999 5.223 2.1670001
28.389 5.2189999 2.1589999
28.393 5.2179999 2.1489999
28.417 5.2080002 2.1459999
28.416 5.2080002 2.1340001
28.441 5.1989999 2.131
28.454 5.1939998 2.1240001
28.475 5.1849999 2.1199999
28.537001 5.1630001 2.1289999
28.52 5.1680002 2.112
28.521 5.1680002 2.0999999
28.533001 5.1630001 2.092
28.566 5.1500001 2.092
28.622 5.1290002 2.099
28.660999 5.1149998 2.0999999
28.714001 5.0949998 2.1059999
28.761999 5.0770001 2.1099999
28.815001 5.0580001 2.115
28.868999 5.0370002 2.1199999
28.929001 5.0149999 2.1270001
28.983 4.9949999 2.1329999
29.040001 4.974 2.138
29.101999 4.9510002 2.145
29.153999 4.9310002 2.1489999
29.214001 4.9089999 2.155
29.367001 4.8499999 2.1240001
29.382999 4.8439999 2.102
29.377001 4.8449998 2.0869999
29.349001 4.855 2.066
28.899 5.0190001 1.921
28.905001 5.0159998 1.91
28.910999 5.013 1.9
28.934999 5.0040002 1.8940001
29.011 4.9759998 1.904
29.063999 4.9559999 1.906
29.134001 4.9299998 1.914
29.243999 4.8889999 1.932
29.327 4.8579998 1.942
29.341999 4.8520002 1.933
29.325001 4.8579998 1.915
29.337999 4.8530002 1.906
29.341 4.8509998 1.8940001
29.339001 4.8509998 1.88
29.341999 4.8499999 1.868
29.344 4.849 1.8559999
29.351999 4.8449998 1.845
29.368 4.8390002 1.836
29.356001 4.8429999 1.8200001
29.346001 4.8460002 1.8049999
29.344 4.8460002 1.791
29.347 4.8449998 1.779
29.349001 4.8429999 1.767
29.375 4.8330002 1.76
29.386999 4.8280001 1.75
29.412001 4.8189998 1.743
29.336 4.8460002 1.712
29.344999 4.842 1.701
29.410999 4.8179998 1.704
28.400999 5.2389998 2.5039999
28.353001 5.256 2.4719999
28.344 5.2589998 2.457
28.353001 5.2550001 2.448
28.364 5.2509999 2.441
28.351 5.2550001 2.424
28.357 5.2519999 2.414
28.356001 5.2519999 2.402
28.347 5.2550001 2.3870001
28.341999 5.256 2.3729999
28.344999 5.2550001 2.362
28.344 5.2550001 2.3499999
28.344 5.2540002 2.3380001
28.355 5.25 2.3310001
28.343 5.2540002 2.3150001
28.332001 5.257 2.299
28.348 5.2509999 2.293
28.349001 5.25 2.2820001
28.351999 5.2480001 2.2709999
28.347 5.25 2.2579999
28.35 5.2480001 2.247
28.344 5.25 2.233
28.362 5.243 2.2290001
28.361 5.243 2.217
28.367001 5.2399998 2.207
28.355 5.244 2.191
28.368999 5.2389998 2.1849999
28.385 5.2329998 2.1789999
28.386 5.2319999 2.1670001
28.406 5.224 2.1630001
28.413 5.2210002 2.154
28.424999 5.2160001 2.1470001
28.429001 5.2150002 2.1359999
28.465 5.2010002 2.138
28.476 5.197 2.1300001
28.483999 5.1939998 2.1210001
28.552999 5.1680002 2.1210001
28.547001 5.1690001 2.1070001
28.549999 5.1680002 2.0969999
28.562 5.1630001 2.089
28.625999 5.1389999 2.099
28.646999 5.132 2.0940001
28.721001 5.1040001 2.1070001
28.782 5.0819998 2.115
28.826 5.066 2.1170001
28.872999 5.0479999 2.1199999
28.944 5.0219998 2.131
28.989 5.0050001 2.1329999
29.056 4.98 2.142
29.113001 4.9590001 2.1470001
29.164 4.9400001 2.1500001
29.237 4.9130001 2.161
29.389999 4.855 2.142
29.409 4.848 2.135
29.415001 4.8449998 2.1229999
29.374001 4.8600001 2.098
29.358999 4.8649998 2.0799999
29.33 4.875 2.0580001
28.955999 5.0100002 1.936
28.931 5.0190001 1.916
28.938999 5.0149999 1.906
28.936001 5.0159998 1.893
29.018 4.9860001 1.904
29.051001 4.973 1.901
29.150999 4.9359999 1.9170001
29.257 4.8969998 1.934
29.320999 4.8740001 1.938
29.35 4.8629999 1.933
29.339001 4.8660002 1.918
29.333 4.8670001 1.903
29.327 4.869 1.888
29.325001 4.869 1.875
29.341999 4.8629999 1.8660001
29.326 4.868 1.849
29.363001 4.8540001 1.846
29.35 4.8590002 1.83
29.348 4.8590002 1.816
29.34 4.8610001 1.802
29.348 4.8579998 1.791
29.356001 4.8540001 1.78
29.386999 4.8429999 1.774
29.403 4.836 1.766
29.427 4.8270001 1.7589999
29.452999 4.8169999 1.752
29.396999 4.8369999 1.725
29.416 4.8299999 1.717
29.403 4.8340001 1.701
28.427999 5.2410002 2.5380001
28.393 5.2529998 2.5109999
28.372999 5.2600002 2.4909999
28.348 5.2680001 2.4679999
28.346001 5.2690001 2.4560001
28.35 5.2670002 2.4460001
28.351 5.2659998 2.434
28.348 5.2659998 2.421
28.344 5.2680001 2.4070001
28.337999 5.2690001 2.3929999
28.341 5.2680001 2.3829999
28.344999 5.2659998 2.372
28.34 5.2670002 2.358
28.341 5.2659998 2.3469999
28.332001 5.2690001 2.332
28.337 5.2670002 2.322
28.344999 5.2639999 2.3139999
28.341 5.2639999 2.3
28.344 5.263 2.29
28.353001 5.2589998 2.2820001
28.346001 5.2610002 2.267
28.344999 5.2620001 2.2550001
28.349001 5.2600002 2.2449999
28.348 5.2600002 2.233
28.348 5.2589998 2.2219999
28.358999 5.2550001 2.214
28.360001 5.2540002 2.2030001
28.378 5.2470002 2.198
28.372999 5.2490001 2.184
28.406 5.2360001 2.1849999
28.41 5.2340002 2.175
28.422001 5.23 2.1670001
28.434 5.2249999 2.1600001
28.455999 5.217 2.1559999
28.472 5.21 2.1500001
28.469999 5.211 2.138
28.493999 5.2020001 2.135
28.500999 5.1989999 2.125
28.589001 5.1659999 2.132
28.58 5.1690001 2.1170001
28.570999 5.1719999 2.102
28.587999 5.165 2.096
28.634001 5.1479998 2.0999999
28.669001 5.1350002 2.099
28.719999 5.1160002 2.105
28.785999 5.092 2.1140001
28.837 5.073 2.119
28.891001 5.053 2.1240001
28.952 5.0310001 2.132
28.993 5.0159998 2.132
29.062 4.9899998 2.142
29.105 4.974 2.1429999
29.181 4.9460001 2.154
29.219999 4.9320002 2.154
29.275 4.9120002 2.158
29.402 4.8639998 2.1570001
29.386 4.8699999 2.1389999
29.391001 4.8670001 2.128
29.365999 4.8759999 2.1070001
29.347 4.882 2.0880001
29.348 4.881 2.075
29.341 4.8829999 2.0599999
29.341999 4.882 2.0469999
28.973 5.0149999 1.927
28.962 5.0190001 1.911
28.983999 5.0100002 1.905
29.01 5.0009999 1.9
29.080999 4.9749999 1.908
29.150999 4.9489999 1.915
29.243999 4.915 1.928
29.325001 4.8850002 1.938
29.341 4.8779998 1.9299999
29.344 4.8769999 1.9170001
29.333 4.8800001 1.901
29.35 4.8740001 1.893
29.339001 4.8769999 1.877
29.327999 4.881 1.8609999
29.339001 4.8759999 1.851
29.341999 4.875 1.839
29.34 4.875 1.826
29.35 4.8709998 1.8150001
29.35 4.8699999 1.803
29.357 4.8670001 1.791
29.393 4.8540001 1.7869999
29.403999 4.849 1.777
29.434 4.8379998 1.772
29.445 4.8330002 1.762
28.410999 5.2579999 2.5409999
28.389 5.2659998 2.52
28.368999 5.2719998 2.4990001
28.344 5.2810001 2.477
28.353001 5.277 2.4679999
28.361 5.2740002 2.46
28.348 5.2779999 2.4430001
28.348 5.2779999 2.431
28.334 5.2820001 2.4130001
28.339001 5.2800002 2.4030001
28.341 5.2789998 2.3929999
28.344999 5.277 2.382
28.341 5.2779999 2.369
28.336 5.2789998 2.355
28.339001 5.2779999 2.345
28.35 5.2729998 2.3369999
28.337999 5.277 2.3210001
28.332001 5.2789998 2.3069999
28.343 5.2750001 2.299
28.35 5.2719998 2.29
28.349001 5.2719998 2.2780001
28.334 5.276 2.2609999
28.344 5.2719998 2.253
28.357 5.2670002 2.247
28.367001 5.263 2.2390001
28.363001 5.2639999 2.2260001
28.378 5.2589998 2.22
28.374001 5.2589998 2.2060001
28.378 5.2579999 2.1960001
28.396999 5.2509999 2.1919999
28.417999 5.243 2.188
28.415001 5.243 2.175
28.438999 5.2350001 2.1719999
28.445999 5.2319999 2.1630001
28.468 5.223 2.1589999
28.485001 5.217 2.1530001
28.487 5.2150002 2.142
28.518999 5.204 2.142
28.584 5.1789999 2.1170001
28.603001 5.171 2.1110001
28.597 5.1729999 2.098
28.629 5.1609998 2.096
28.681 5.1420002 2.102
28.733 5.1230001 2.1070001
28.784 5.1040001 2.112
28.844 5.0830002 2.119
28.908001 5.059 2.128
28.945 5.0450001 2.128
28.992001 5.0279999 2.1300001
29.069 5 2.142
29.122999 4.98 2.1470001
29.18 4.9590001 2.152
29.233999 4.9390001 2.1559999
29.306999 4.9130001 2.1659999
29.398001 4.8790002 2.168
29.415001 4.8720002 2.1600001
29.370001 4.888 2.1329999
29.349001 4.895 2.1129999
29.334999 4.9000001 2.096
29.344 4.8959999 2.085
29.337 4.8979998 2.0699999
29.325001 4.902 2.0539999
29.349001 4.8930001 2.0480001
28.993 5.02 1.931
28.983 5.0229998 1.916
29.000999 5.0159998 1.909
29.004 5.0149999 1.897
29.052999 4.9970002 1.899
29.169001 4.954 1.919
29.256001 4.9229999 1.9299999
29.33 4.8959999 1.938
29.327 4.8959999 1.924
29.339001 4.8909998 1.914
29.337 4.8909998 1.901
29.34 4.8899999 1.8890001
29.347 4.8870001 1.878
29.341 4.8889999 1.863
29.344 4.8870001 1.851
29.346001 4.8860002 1.839
29.344 4.8860002 1.825
29.356001 4.881 1.816
29.377001 4.8730001 1.808
29.393999 4.8670001 1.799
29.414 4.8590002 1.791
29.431 4.8530002 1.7819999
28.410999 5.27 2.5510001
28.384001 5.2789998 2.5280001
28.363001 5.2859998 2.507
28.337999 5.2940001 2.484
28.346001 5.2909999 2.4760001
28.349001 5.289 2.4649999
28.357 5.2859998 2.457
28.344999 5.29 2.4400001
28.334999 5.2930002 2.424
28.346001 5.289 2.4170001
28.332001 5.2930002 2.3989999
28.349001 5.2870002 2.3940001
28.344999 5.2880001 2.381
28.34 5.289 2.3670001
28.334 5.2909999 2.3529999
28.346001 5.2859998 2.346
28.341 5.2880001 2.332
28.343 5.2859998 2.3210001
28.347 5.2849998 2.3110001
28.347 5.2839999 2.299
28.354 5.2810001 2.29
28.346001 5.283 2.276
28.357 5.2789998 2.2679999
28.344 5.283 2.2520001
28.360001 5.277 2.2460001
28.371 5.2729998 2.2379999
28.360001 5.276 2.223
28.382999 5.2680001 2.22
28.393999 5.263 2.2119999
28.398001 5.2620001 2.2019999
28.422001 5.2529998 2.1989999
28.422001 5.2519999 2.188
28.444 5.244 2.184
28.451 5.2410002 2.175
28.459 5.2379999 2.1659999
28.48 5.23 2.1619999
28.489 5.2259998 2.1530001
28.528 5.2119999 2.155
28.639999 5.1700001 2.135
28.625999 5.1739998 2.118
28.632 5.1719999 2.108
28.643 5.1669998 2.0999999
28.684999 5.152 2.102
28.731001 5.1350002 2.105
28.789 5.1139998 2.112
28.847 5.0929999 2.119
28.905001 5.072 2.1259999
28.966999 5.0489998 2.1329999
29.018999 5.0300002 2.1370001
29.061001 5.0149999 2.138
29.127001 4.9910002 2.1470001
29.184 4.9699998 2.152
29.242001 4.9489999 2.1570001
29.316999 4.9219999 2.1670001
29.374001 4.901 2.1719999
29.391001 4.895 2.164
29.351999 4.908 2.1389999
29.337 4.9130001 2.1210001
29.334999 4.9130001 2.1070001
29.34 4.9109998 2.096
29.333 4.9130001 2.0810001
29.341 4.9089999 2.0699999
29.35 4.9060001 2.059
29.332001 4.9109998 2.0409999
29.322001 4.915 2.0250001
29.018 5.0229998 1.925
29.025999 5.02 1.914
29.025999 5.0190001 1.902
29.089001 4.9959998 1.9069999
29.167999 4.967 1.9170001
29.252001 4.9369998 1.928
29.327 4.9099998 1.9349999
29.34 4.9039998 1.926
29.343 4.9029999 1.914
29.346001 4.901 1.902
29.344 4.901 1.888
29.341999 4.902 1.875
29.341 4.902 1.862
29.334 4.9039998 1.847
29.327999 4.9050002 1.832
29.353001 4.8959999 1.826
29.370001 4.8889999 1.817
29.396 4.8790002 1.811
29.424999 4.868 1.806
29.437 4.8639998 1.796
28.421 5.2779999 2.5780001
28.379999 5.2919998 2.5480001
28.35 5.302 2.523
28.348 5.302 2.5109999
28.354 5.3000002 2.5009999
28.363001 5.296 2.493
28.35 5.3000002 2.4760001
28.361 5.296 2.4690001
28.349001 5.3000002 2.451
28.344 5.3010001 2.438
28.341999 5.302 2.425
28.337999 5.303 2.411
28.337 5.303 2.3989999
28.334999 5.303 2.3870001
28.339001 5.3010001 2.3759999
28.355 5.2950001 2.3710001
28.35 5.296 2.3570001
28.358999 5.2919998 2.349
28.346001 5.2969999 2.332
28.349001 5.2950001 2.3210001
28.334999 5.3000002 2.3050001
28.339001 5.2979999 2.2939999
28.341999 5.296 2.2839999
28.353001 5.2919998 2.276
28.344 5.2950001 2.2620001
28.354 5.2909999 2.2539999
28.356001 5.29 2.243
28.363001 5.2870002 2.234
28.386 5.2779999 2.2309999
28.382 5.2789998 2.2179999
28.406 5.27 2.2149999
28.43 5.2610002 2.2119999
28.417999 5.2649999 2.1960001
28.452999 5.2519999 2.197
28.452 5.2519999 2.1849999
28.455 5.2509999 2.174
28.489 5.2379999 2.175
28.507999 5.2309999 2.1700001
28.666 5.1719999 2.1300001
28.653999 5.1760001 2.1140001
28.672001 5.1690001 2.108
28.683001 5.165 2.099
28.736 5.145 2.105
28.791 5.125 2.1110001
28.841 5.1069999 2.115
28.903 5.085 2.1229999
28.941 5.0710001 2.1229999
29.004999 5.0479999 2.131
29.069 5.0250001 2.1389999
29.127001 5.0029998 2.145
29.179001 4.9840002 2.148
29.254 4.9569998 2.1589999
29.323999 4.9320002 2.168
29.356001 4.9200001 2.165
29.339001 4.9260001 2.1459999
29.337999 4.9260001 2.1329999
29.327999 4.9289999 2.1170001
29.339001 4.9239998 2.1070001
29.336 4.9250002 2.0929999
29.333 4.9250002 2.079
29.34 4.9229999 2.0680001
29.313999 4.9310002 2.0469999
29.330999 4.9250002 2.039
29.326 4.9260001 2.0250001
29.028999 5.0310001 1.926
29.055 5.0209999 1.921
29.059999 5.0190001 1.91
29.086 5.0089998 1.905
29.177 4.9770002 1.918
29.252001 4.9489999 1.926
29.333 4.9200001 1.936
29.344999 4.9159999 1.926
29.343 4.9159999 1.9119999
29.346001 4.914 1.9
29.339001 4.9159999 1.886
29.337 4.9159999 1.872
29.336 4.9159999 1.859
29.334 4.9169998 1.845
29.368 4.9039998 1.842
29.389999 4.895 1.834
29.402 4.8909998 1.824
29.427 4.881 1.818
29.424999 4.882 1.804
28.438999 5.283 2.596
28.400999 5.296 2.5680001
28.363001 5.309 2.539
28.347 5.3140001 2.52
28.35 5.3130002 2.51
28.344 5.3140001 2.4949999
28.344999 5.3130002 2.484
28.336 5.316 2.4679999
28.34 5.3140001 2.4579999
28.343 5.3130002 2.447
28.341999 5.3130002 2.4349999
28.344999 5.3109999 2.424
28.339001 5.3130002 2.4100001
28.351 5.3080001 2.4030001
28.343 5.3109999 2.388
28.34 5.3109999 2.375
28.337999 5.3109999 2.362
28.34 5.3099999 2.3510001
28.341 5.3099999 2.3399999
28.333 5.3119998 2.325
28.343 5.3080001 2.3180001
28.347 5.3060002 2.3069999
28.341999 5.3070002 2.2939999
28.349001 5.3039999 2.2850001
28.356001 5.302 2.276
28.360001 5.3000002 2.266
28.355 5.3010001 2.2520001
28.355 5.3010001 2.2409999
28.370001 5.2950001 2.2349999
28.382999 5.29 2.2279999
28.422001 5.276 2.2309999
28.413 5.2779999 2.2160001
28.431999 5.2719998 2.211
28.452 5.2639999 2.207
28.447001 5.2649999 2.1930001
28.474001 5.256 2.191
28.485001 5.2509999 2.184
28.513 5.2410002 2.1819999
28.705999 5.1690001 2.142
28.697001 5.1719999 2.1270001
28.687 5.1750002 2.1110001
28.695 5.1719999 2.102
28.749001 5.152 2.108
28.809 5.131 2.115
28.858999 5.1129999 2.119
28.915001 5.092 2.125
28.976 5.0700002 2.1329999
29.032 5.0500002 2.138
29.077999 5.0339999 2.1400001
29.139 5.0120001 2.1470001
29.204 4.9879999 2.155
29.264 4.967 2.1600001
29.329 4.9429998 2.168
29.349001 4.9359999 2.161
29.348 4.9359999 2.1470001
29.334 4.9400001 2.1300001
29.332001 4.9400001 2.1159999
29.334999 4.9380002 2.1040001
29.343 4.9349999 2.0929999
29.327 4.9400001 2.075
29.327 4.9400001 2.062
29.309999 4.9450002 2.0439999
29.332001 4.9369998 2.0380001
29.341 4.9330001 2.027
29.096001 5.02 1.944
29.079 5.0250001 1.926
29.087 5.0219998 1.916
29.082001 5.0229998 1.902
29.146999 5 1.908
29.254 4.961 1.925
29.336 4.9320002 1.9349999
29.33 4.9330001 1.92
29.337999 4.9299998 1.91
29.336 4.9299998 1.896
29.348 4.9260001 1.886
29.341999 4.927 1.872
29.344 4.9260001 1.86
29.370001 4.9159999 1.853
29.396 4.9070001 1.847
29.412001 4.901 1.8380001
29.433001 4.8930001 1.831
29.445 4.888 1.821
28.400999 5.3080001 2.5899999
28.371 5.3179998 2.5650001
28.337999 5.329 2.5380001
28.358999 5.3210001 2.5350001
28.337 5.3280001 2.5139999
28.353001 5.323 2.5090001
28.344 5.3249998 2.493
28.34 5.3260002 2.48
28.347 5.323 2.471
28.356001 5.3200002 2.4630001
28.343 5.3239999 2.4449999
28.337 5.3249998 2.431
28.35 5.3200002 2.424
28.360001 5.316 2.4170001
28.341999 5.322 2.398
28.343 5.3210001 2.3859999
28.349001 5.3189998 2.3770001
28.351999 5.3169999 2.3659999
28.344 5.3200002 2.3510001
28.348 5.3179998 2.3410001
28.339001 5.3210001 2.326
28.351 5.316 2.319
28.349001 5.316 2.3069999
28.35 5.316 2.2950001
28.347 5.316 2.283
28.377001 5.3060002 2.2820001
28.360001 5.3109999 2.2639999
28.365 5.309 2.2539999
28.375999 5.3049998 2.247
28.4 5.296 2.244
28.407 5.2930002 2.2349999
28.416 5.289 2.227
28.452999 5.276 2.2290001
28.448999 5.277 2.2160001
28.455999 5.2740002 2.2060001
28.472 5.2680001 2.201
28.476999 5.2659998 2.191
28.517 5.2509999 2.194
28.767 5.1599998 2.161
28.704 5.1810002 2.1270001
28.701 5.1820002 2.1140001
28.728001 5.1719999 2.1110001
28.747999 5.164 2.1059999
28.809999 5.1420002 2.1140001
28.864 5.1230001 2.119
28.924 5.1020002 2.1270001
28.964001 5.0869999 2.1270001
29.038 5.0599999 2.1389999
29.091 5.0409999 2.1429999
29.148001 5.0209999 2.148
29.188 5.006 2.148
29.263 4.9790001 2.1589999
29.325001 4.9580002 2.165
29.330999 4.9549999 2.154
29.326 4.9559999 2.1389999
29.333 4.9530001 2.128
29.336 4.9510002 2.1159999
29.34 4.9499998 2.1040001
29.333 4.9520001 2.0880001
29.334999 4.9499998 2.076
29.329 4.9520001 2.0610001
29.327999 4.9520001 2.0480001
29.337 4.948 2.0369999
29.332001 4.9489999 2.023
29.327 4.9510002 2.0090001
29.105 5.0289998 1.932
29.113001 5.026 1.9220001
29.115999 5.0240002 1.91
29.162001 5.007 1.911
29.26 4.9720001 1.925
29.334 4.9460001 1.933
29.344 4.9419999 1.923
29.347 4.9400001 1.91
29.336 4.9439998 1.8940001
29.337999 4.9419999 1.882
29.360001 4.934 1.875
29.371 4.9299998 1.865
29.398001 4.9200001 1.859
29.417999 4.9120002 1.851
29.434 4.9060001 1.8430001
29.459999 4.8959999 1.836
28.396999 5.3210001 2.598
28.364 5.3319998 2.572
28.334999 5.3410001 2.5469999
28.356001 5.3340001 2.5439999
28.358 5.3319998 2.533
28.348 5.336 2.517
28.348 5.335 2.5050001
28.344 5.336 2.4909999
28.349001 5.3340001 2.4820001
28.343 5.335 2.467
28.334 5.3379998 2.4519999
28.354 5.3309999 2.448
28.349001 5.3319998 2.434
28.344 5.3330002 2.4200001
28.343 5.3330002 2.408
28.341 5.3330002 2.3959999
28.341999 5.3330002 2.3840001
28.329 5.3369999 2.3670001
28.336 5.3340001 2.358
28.34 5.3319998 2.348
28.348 5.329 2.339
28.351 5.3280001 2.329
28.349001 5.3280001 2.3169999
28.349001 5.3270001 2.3050001
28.365999 5.3210001 2.3
28.368 5.3200002 2.289
28.360001 5.322 2.2739999
28.356001 5.323 2.2609999
28.402 5.3070002 2.267
28.403999 5.3060002 2.256
28.417 5.3010001 2.2490001
28.433001 5.2950001 2.243
28.433001 5.2940001 2.2320001
28.454 5.2870002 2.227
28.465 5.2820001 2.22
28.483 5.276 2.2149999
28.492001 5.2719998 2.2060001
28.542999 5.2540002 2.2130001
28.742001 5.1789999 2.1389999
28.743999 5.178 2.1270001
28.753 5.1750002 2.118
28.761 5.1719999 2.108
28.805 5.1560001 2.1110001
28.865 5.1350002 2.118
28.923 5.1139998 2.125
28.962999 5.099 2.125
29.028 5.0760002 2.1340001
29.086 5.0560002 2.1400001
29.141001 5.0359998 2.1440001
29.195 5.0170002 2.148
29.261 4.993 2.1559999
29.334 4.967 2.1659999
29.34 4.9640002 2.155
29.347 4.9619999 2.1440001
29.336 4.9650002 2.1270001
29.32 4.9699998 2.109
29.329 4.9660001 2.099
29.33 4.9650002 2.086
29.334999 4.9629998 2.075
29.341999 4.96 2.063
29.339001 4.961 2.049
29.337 4.961 2.036
29.337 4.96 2.023
29.343 4.9580002 2.0120001
29.16 5.0219998 1.946
29.146999 5.0250001 1.9299999
29.138 5.0279999 1.915
29.16 5.02 1.909
29.245001 4.9899998 1.92
29.344999 4.954 1.934
29.334 4.9580002 1.918
29.346001 4.9530001 1.909
29.34 4.9549999 1.8940001
29.347 4.9520001 1.883
29.386 4.9369998 1.881
29.417 4.9260001 1.876
29.424 4.9229999 1.865
29.441 4.9169998 1.8559999
29.448 4.914 1.845
28.400999 5.3309999 2.6099999
28.361 5.3439999 2.5810001
28.339001 5.3509998 2.559
28.356001 5.3449998 2.5539999
28.34 5.3499999 2.536
28.344 5.348 2.5250001
28.365 5.3410001 2.5220001
28.348 5.3460002 2.503
28.364 5.3400002 2.4979999
28.354 5.3429999 2.4820001
28.353001 5.3429999 2.47
28.346001 5.3449998 2.4549999
28.344999 5.3449998 2.4430001
28.347 5.3439999 2.431
28.343 5.3449998 2.418
28.337999 5.3460002 2.404
28.337999 5.3460002 2.392
28.337 5.3449998 2.3800001
28.358 5.3379998 2.3770001
28.351 5.3400002 2.362
28.337999 5.3439999 2.345
28.347 5.3400002 2.3369999
28.347 5.3400002 2.326
28.35 5.3379998 2.3150001
28.356001 5.336 2.306
28.361 5.3330002 2.296
28.368 5.3309999 2.2869999
28.372 5.329 2.277
28.375999 5.3270001 2.267
28.405001 5.316 2.266
28.421 5.3109999 2.2609999
28.424 5.309 2.25
28.424 5.309 2.2379999
28.454 5.2979999 2.2379999
28.458 5.296 2.227
28.479 5.289 2.224
28.509001 5.2779999 2.2219999
28.896999 5.1440001 2.352
28.943001 5.1269999 2.3559999
28.764 5.184 2.1440001
28.771999 5.1799998 2.135
28.773001 5.1789999 2.1229999
28.761999 5.1830001 2.1070001
28.813 5.165 2.112
28.868 5.145 2.118
28.922001 5.1259999 2.1229999
28.976 5.1069999 2.128
29.040001 5.0840001 2.1359999
29.1 5.0630002 2.142
29.166 5.039 2.151
29.232 5.0159998 2.158
29.284 4.9980001 2.1619999
29.332001 4.9809999 2.164
29.330999 4.9809999 2.1500001
29.334 4.9790001 2.138
29.318001 4.9840002 2.1199999
29.33 4.9790001 2.1110001
29.329 4.9790001 2.0969999
29.341 4.9749999 2.0880001
29.334 4.9759998 2.073
29.341999 4.973 2.062
29.346001 4.9710002 2.05
29.351999 4.9689999 2.039
29.341999 4.9720001 2.023
29.326 4.9770002 2.0050001
29.32 4.9780002 1.9910001
29.17 5.0300002 1.9349999
29.164 5.0320001 1.921
29.177999 5.026 1.9119999
29.253 5 1.92
29.347 4.9660001 1.933
29.337999 4.9689999 1.918
29.341 4.9679999 1.906
29.358 4.961 1.897
29.388 4.9510002 1.892
29.400999 4.9460001 1.883
29.43 4.9349999 1.878
29.447001 4.9289999 1.869
29.459 4.9239998 1.859
28.393 5.3449998 2.6170001
28.347 5.3600001 2.585
28.343 5.362 2.5710001
28.357 5.3559999 2.5650001
28.341 5.3610001 2.546
28.356001 5.3559999 2.5409999
28.353001 5.3559999 2.527
28.33 5.3629999 2.506
28.364 5.3520002 2.5079999
28.363001 5.3520002 2.4960001
28.346001 5.3569999 2.477
28.353001 5.3540001 2.4679999
28.341 5.3579998 2.451
28.34 5.3579998 2.4389999
28.327999 5.3610001 2.4219999
28.337999 5.3569999 2.414
28.341999 5.3559999 2.404
28.346001 5.3540001 2.3940001
28.344999 5.3540001 2.382
28.344999 5.3530002 2.3699999
28.347 5.3520002 2.359
28.347 5.3520002 2.3469999
28.354 5.349 2.3380001
28.346001 5.3509998 2.323
28.360001 5.3460002 2.3169999
28.360001 5.3460002 2.306
28.368999 5.342 2.2980001
28.385 5.336 2.2920001
28.392 5.3330002 2.283
28.396999 5.3309999 2.273
28.427 5.3200002 2.273
28.427999 5.3189998 2.2620001
28.445999 5.3130002 2.257
28.454 5.3099999 2.2479999
28.466 5.3049998 2.2409999
28.475 5.302 2.2320001
28.518 5.2870002 2.2360001
28.832001 5.178 2.339
28.900999 5.1539998 2.3510001
28.947001 5.138 2.355
29.028999 5.1090002 2.372
28.794001 5.1849999 2.1400001
28.788 5.1859999 2.1259999
28.806 5.1799998 2.1199999
28.813 5.177 2.1099999
28.872 5.1560001 2.1170001
28.924 5.138 2.122
28.982 5.1170001 2.128
29.052 5.0929999 2.138
29.099001 5.0760002 2.1400001
29.155001 5.0560002 2.145
29.239 5.027 2.1589999
29.288 5.0089998 2.161
29.326 4.9959998 2.1600001
29.329 4.994 2.148
29.341999 4.9889998 2.1389999
29.322001 4.9959998 2.1199999
29.320999 4.9959998 2.1059999
29.333 4.9910002 2.0969999
29.327 4.993 2.082
29.336 4.9889998 2.072
29.327999 4.9910002 2.056
29.33 4.9899998 2.0439999
29.336 4.987 2.033
29.327 4.9899998 2.017
29.347 4.9829998 2.01
29.337 4.9860001 1.994
29.238001 5.02 1.9529999
29.202 5.0310001 1.9299999
29.216999 5.026 1.921
29.257 5.0110002 1.92
29.346001 4.98 1.931
29.351999 4.9780002 1.92
29.368 4.9710002 1.9119999
29.385 4.9650002 1.903
29.402 4.9590001 1.895
29.422001 4.9510002 1.887
29.452999 4.9400001 1.882
28.395 5.3559999 2.628
28.356001 5.369 2.599
28.346001 5.3720002 2.582
28.344999 5.3720002 2.5699999
28.353001 5.369 2.5610001
28.349001 5.369 2.5480001
28.356001 5.3670001 2.539
28.351 5.368 2.5250001
28.343 5.3699999 2.5090001
28.341 5.3699999 2.497
28.344999 5.368 2.4860001
28.35 5.3660002 2.4760001
28.336 5.3709998 2.4590001
28.334999 5.3709998 2.447
28.337999 5.369 2.4360001
28.341999 5.3670001 2.4260001
28.329 5.3709998 2.4089999
28.344999 5.3649998 2.404
28.348 5.3639998 2.3929999
28.330999 5.369 2.3740001
28.349001 5.3629999 2.3699999
28.343 5.3639998 2.3559999
28.347 5.362 2.346
28.356001 5.3590002 2.3380001
28.367001 5.355 2.3299999
28.354 5.3590002 2.313
28.377001 5.3499999 2.3110001
28.384001 5.348 2.3010001
28.398001 5.3429999 2.2950001
28.417999 5.335 2.2909999
28.422001 5.3340001 2.2809999
28.437 5.3280001 2.2750001
28.443001 5.3260002 2.2650001
28.455 5.3210001 2.2579999
28.468 5.316 2.2509999
28.475 5.3130002 2.2420001
28.528999 5.2950001 2.25
28.805 5.1999998 2.3399999
28.854 5.1830001 2.345
28.898001 5.1680002 2.348
28.945999 5.151 2.3529999
29.007 5.1290002 2.362
29.086 5.1020002 2.378
28.801001 5.1939998 2.141
28.820999 5.1869998 2.135
28.834999 5.1810002 2.128
28.830999 5.1820002 2.115
