ply
format ascii 1.0
comment PCL generated
element vertex 778
property float x
property float y
property float z
element camera 1
property float view_px
property float view_py
property float view_pz
property float x_axisx
property float x_axisy
property float x_axisz
property float y_axisx
property float y_axisy
property float y_axisz
property float z_axisx
property float z_axisy
property float z_axisz
property float focal
property float scalex
property float scaley
property float centerx
property float centery
property int viewportx
property int viewporty
property float k1
property float k2
end_header
2.3872666 -4.7167001 0.011966667
2.4417839 -4.7227569 0.022567565
2.5085557 -4.718833 0.015777776
2.374496 -4.6494193 0.045834735
2.4468281 -4.6688738 0.069474705
2.5146413 -4.6611128 0.057377364
2.3751009 -4.5492687 0.0496349
2.4923999 -4.5658002 0.040000003
2.5192223 -4.5424442 0.065222226
1.3763335 -4.4020004 0.018666666
1.415 -4.4045 0.022500001
2.3810289 -4.4529696 0.052379295
2.426357 -4.437429 0.015142856
2.5445557 -4.4625559 0.05366667
2.6262 -4.4239001 0.066600002
1.347353 -4.371716 0.051813524
1.4500717 -4.3755374 0.049616475
1.5392498 -4.3699584 0.057751242
1.6068333 -4.3625002 0.087333336
2.3898966 -4.3596811 0.052991368
2.4070845 -4.3384514 0.04809859
2.6332002 -4.3539505 0.044349998
1.278726 -4.2487402 0.021602729
1.3453176 -4.2272596 0.052343491
1.4477593 -4.2164111 0.04905349
1.5370517 -4.2235994 0.059333336
1.605 -4.2375002 0.095249996
2.3966208 -4.2403102 0.072896555
2.4114339 -4.2493873 0.044993434
2.5867999 -4.2612 0.0396
2.6350265 -4.2682109 0.04873684
1.2757499 -4.1975002 0.01275
1.364125 -4.194375 0.05125
1.4635454 -4.1963639 0.064636365
1.575 -4.1999998 0.090000004
2.3962679 -4.1434107 0.064446442
2.4059832 -4.1535125 0.044058818
2.5332999 -4.1617999 0.0656
2.395937 -4.0548863 0.054683536
2.4236004 -4.0374775 0.055709679
2.5317605 -4.0315213 0.065347821
2.3965001 -3.9886665 0.026166666
2.4456806 -3.9785542 0.028387932
2.5237646 -3.9808822 0.025588239
2.3762999 -4.6202397 0.11929999
2.4441426 -4.6231751 0.12329414
2.5056667 -4.6158333 0.11500001
2.3767917 -4.5525265 0.15012325
2.4433544 -4.5777235 0.17028344
2.5267713 -4.544343 0.15325713
1.607 -4.4250002 0.109
2.3794842 -4.4499855 0.14988019
2.4090002 -4.4393339 0.13933334
2.568794 -4.4650879 0.17349999
2.6287391 -4.4335785 0.15799996
3.3906841 -4.4263158 0.19005261
3.4512358 -4.4347086 0.15029579
3.5480971 -4.4444127 0.15077618
1.3726374 -4.3578815 0.12832595
1.4465363 -4.3685374 0.15048248
1.5498 -4.3725672 0.14823653
1.6337608 -4.3677106 0.15984903
1.7 -4.355 0.19400001
2.3842676 -4.3580194 0.14991303
2.406625 -4.3276873 0.1285
2.6401112 -4.3467221 0.14911112
2.7060001 -4.303 0.12800001
3.3892779 -4.3487229 0.18872221
3.4375978 -4.3489366 0.14138994
3.5611999 -4.3052001 0.14780001
3.6608503 -4.3340502 0.15545002
1.3738383 -4.2460809 0.1275859
1.4415197 -4.2244463 0.15371282
1.5481237 -4.217607 0.1510281
1.6322736 -4.2229061 0.16173586
2.3882794 -4.2480512 0.15827216
2.4049687 -4.2592807 0.13465625
2.5730665 -4.2542 0.15293334
2.6458442 -4.2606401 0.15670314
3.3889091 -4.2820005 0.19118182
3.4516873 -4.2837062 0.15470639
3.5471919 -4.2843146 0.14808989
3.6400003 -4.2886434 0.14538571
1.388 -4.1869998 0.104
1.4634074 -4.1965551 0.15325926
1.551 -4.1963339 0.148
1.6160001 -4.1999998 0.12899999
2.3918536 -4.1508589 0.14968155
2.418484 -4.131516 0.15348388
2.5426157 -4.1353464 0.163
2.6010001 -4.152 0.124
2.3929996 -4.0737023 0.13089362
2.4462266 -4.0637498 0.14477907
2.5182705 -4.0699997 0.14172973
2.3841016 -4.5261602 0.22427537
2.445081 -4.5285192 0.22828451
2.5076251 -4.5151253 0.223625
1.6504999 -4.4022503 0.23325001
1.7344999 -4.4029999 0.25749999
2.3795877 -4.4480739 0.24958286
2.450247 -4.4810605 0.27732992
2.559859 -4.4498963 0.25700638
2.6266816 -4.4262419 0.24609084
3.2900913 -4.4173636 0.289
3.3547401 -4.428164 0.25344568
3.4514728 -4.4359746 0.25010315
3.5449843 -4.4367332 0.24564993
3.6161432 -4.4309287 0.21149999
1.4683589 -4.3578839 0.23535928
1.5491863 -4.3749013 0.24884403
1.6484152 -4.3746791 0.2471963
1.72658 -4.3692522 0.26538661
2.3822219 -4.3530059 0.25172776
2.6398637 -4.3590007 0.25604549
3.2914617 -4.3483458 0.29200003
3.3397593 -4.3510499 0.2437771
3.4649999 -4.3150001 0.27599999
3.5669999 -4.3550591 0.26664707
3.6150908 -4.3521819 0.21918182
1.4685513 -4.2415833 0.23425987
1.5447681 -4.220902 0.25296381
1.6509063 -4.2162433 0.24850279
1.7325717 -4.2232494 0.2700834
2.3843527 -4.2504187 0.24870397
2.4438572 -4.2505717 0.24028572
2.5729532 -4.2372327 0.26613957
2.6402781 -4.2514181 0.25208694
2.7098572 -4.2670002 0.2557143
3.2923334 -4.2854166 0.29008335
3.352808 -4.276967 0.25433338
3.44716 -4.2752786 0.24894997
3.5470631 -4.279325 0.24826251
3.619077 -4.2850771 0.21569234
1.4828 -4.1961999 0.2254
1.5475262 -4.1960001 0.25089476
1.6435623 -4.1967497 0.24581251
2.3868794 -4.1657495 0.24347413
2.446522 -4.1402512 0.24898751
2.523103 -4.1620774 0.24328208
2.4534998 -4.099 0.2035
1.6849999 -4.401 0.377
2.3887191 -4.4259567 0.34548235
2.4494791 -4.4391575 0.35043001
2.5487428 -4.4407139 0.34989527
2.6250198 -4.4176936 0.35028571
3.194 -4.4134998 0.39300001
3.2554517 -4.4196143 0.35483682
3.3477621 -4.4261022 0.35185546
3.4459076 -4.4282622 0.34440291
3.5162499 -4.4264374 0.32287505
1.497 -4.3379998 0.30000001
1.5630041 -4.3580046 0.33906746
1.6464109 -4.3753972 0.34874731
1.7478284 -4.3734751 0.35029379
1.8216972 -4.3658819 0.37396047
2.3842673 -4.3491397 0.35155335
2.415 -4.3540001 0.35299999
2.6428065 -4.3681931 0.35190326
3.1937859 -4.3530002 0.39214286
3.2450898 -4.3498864 0.34635648
3.4700718 -4.3480005 0.36421427
3.5163634 -4.347909 0.32627273
1.5623807 -4.2395296 0.33830962
1.6470414 -4.2142143 0.35074139
1.750596 -4.2167611 0.34991017
1.8268985 -4.2258139 0.37042379
2.3786628 -4.2525082 0.34637013
2.448838 -4.2179151 0.36437148
2.5499587 -4.2310495 0.35252064
2.6377566 -4.2474031 0.34971431
3.198 -4.2749996 0.38850001
3.2517004 -4.2729087 0.35673055
3.3474138 -4.2667313 0.34995198
3.4486947 -4.2718101 0.34601054
3.5166111 -4.2761111 0.32083336
1.5743573 -4.1964288 0.32807142
1.649 -4.1948385 0.36313513
1.7360001 -4.1964283 0.35361904
1.812 -4.1945 0.39025
2.3886669 -4.1888895 0.31444445
2.446907 -4.1887217 0.32076743
2.5090001 -4.1929998 0.303
1.635 -4.402 0.40000001
1.7585 -4.401 0.43199998
2.3902354 -4.4230576 0.45140013
2.4480629 -4.4356213 0.4494777
2.5463037 -4.4386954 0.4487235
2.617979 -4.4209599 0.44646949
3.0964999 -4.4069996 0.495
3.1625621 -4.4127507 0.45963311
3.2500439 -4.4170804 0.4482688
3.3467479 -4.4218521 0.44792855
3.4187086 -4.4241247 0.41645831
1.597 -4.3492498 0.40474999
1.6558447 -4.3590837 0.44213954
1.749274 -4.37567 0.45042855
1.8478987 -4.3714123 0.45211357
1.9199774 -4.3592038 0.47927278
2.3869345 -4.3466702 0.44891885
2.4035335 -4.3466668 0.45913333
2.6384795 -4.3649597 0.4492
3.0975001 -4.3467503 0.49800003
3.1497457 -4.3507242 0.44966072
3.2047501 -4.3739996 0.40325001
3.3757 -4.3449001 0.4736
3.4242146 -4.343286 0.42364293
1.6559238 -4.2450771 0.4466942
1.749364 -4.2131066 0.44985268
1.8482684 -4.2131953 0.44944438
1.9233096 -4.2211676 0.474381
2.3809168 -4.277317 0.43977645
2.4377632 -4.2268162 0.45182115
2.5501788 -4.2290335 0.4493334
2.6357882 -4.2426629 0.44935396
3.0955 -4.2874999 0.495
3.1569812 -4.267643 0.4553875
3.2456877 -4.2588835 0.45200884
3.3501446 -4.2634225 0.44684622
3.4270797 -4.2734394 0.42268005
1.670925 -4.1940002 0.43352506
1.7443494 -4.1956353 0.45107934
1.8391539 -4.1953459 0.45953849
1.9056667 -4.1953335 0.48133335
2.4303813 -4.1960001 0.46033344
2.3898919 -4.4205899 0.55165064
2.4506693 -4.4301815 0.54887909
2.5462704 -4.4352007 0.55040467
2.6174424 -4.4198837 0.5459767
3.0671232 -4.4076715 0.5575341
3.1516454 -4.4106798 0.54959875
3.2513013 -4.412168 0.54452318
3.3182609 -4.414 0.51808697
1.6893928 -4.3506784 0.50728571
1.7521144 -4.360775 0.54672861
1.8494045 -4.3729377 0.54951721
1.9454615 -4.3678379 0.55483389
2.013478 -4.3634348 0.58534783
2.3909664 -4.3546333 0.55005771
2.404923 -4.3368464 0.54192311
2.598 -4.3979998 0.54100001
2.6328752 -4.3770838 0.54691666
3.0551631 -4.35712 0.55408746
3.1275451 -4.3845763 0.5431515
3.2583332 -4.3834815 0.5618518
3.3321252 -4.3598752 0.52525002
1.6924287 -4.2515717 0.50328571
1.748868 -4.2332478 0.54792213
1.8469114 -4.209774 0.54554915
1.9467 -4.2138567 0.54815829
2.0144815 -4.2215562 0.58059269
2.3937147 -4.2719212 0.55174607
2.4319425 -4.2274284 0.54970747
2.5495901 -4.2232351 0.5498485
2.6389513 -4.239572 0.55022323
3.0582044 -4.2635303 0.55631822
3.1467054 -4.2516742 0.54645175
3.250283 -4.256258 0.54715014
3.3267567 -4.264081 0.53040534
1.697 -4.1989999 0.50099999
1.7614186 -4.1936975 0.5383023
1.8498485 -4.1948233 0.55211395
1.9439526 -4.196238 0.56250006
2.0250001 -4.1950002 0.58200002
2.4315169 -4.1954136 0.54486209
2.3901479 -4.4172349 0.64890128
2.4503717 -4.4261351 0.64995587
2.5491683 -4.4297476 0.64980209
2.6151564 -4.414875 0.64403129
2.9788573 -4.4058571 0.65242863
3.0560579 -4.4052134 0.64635295
3.1476772 -4.4078059 0.64006454
3.2217503 -4.4102001 0.62440002
1.7850627 -4.3469791 0.61435425
1.8507644 -4.3561134 0.64847809
1.9483411 -4.3709922 0.65039933
2.0400827 -4.3669047 0.65646654
2.1089001 -4.3559003 0.68889999
2.3887432 -4.3538804 0.64927536
2.4112222 -4.3557777 0.64977771
2.6321113 -4.3832779 0.65213889
2.9628625 -4.3580422 0.65919507
3.0352061 -4.3834448 0.64092582
3.149955 -4.3909845 0.66426879
3.2266486 -4.3833795 0.62851346
1.7902309 -4.2557693 0.61226922
1.8414059 -4.2351518 0.65139842
1.9532915 -4.2114038 0.64116657
2.0458977 -4.2125793 0.64826143
2.1168001 -4.2184997 0.67939997
2.3926709 -4.2724648 0.64980805
2.430115 -4.2232571 0.64606869
2.5497215 -4.2194171 0.64479989
2.6348841 -4.2331791 0.64878953
2.9634192 -4.2563901 0.65908879
3.0443852 -4.2404881 0.6415804
3.1466987 -4.2434697 0.64642483
3.2284334 -4.2577667 0.63366663
1.8599507 -4.1929755 0.64055556
1.946038 -4.1933112 0.65270883
2.034936 -4.1951489 0.6642127
2.10425 -4.1967502 0.69024998
2.388 -4.1999998 0.61400002
2.4343796 -4.1937594 0.65648001
2.5119998 -4.1995997 0.66160005
2.389051 -4.4160132 0.74797469
2.4493003 -4.4250941 0.74890453
2.5468268 -4.4281683 0.75013852
2.6169674 -4.4086771 0.74674189
2.8705001 -4.4070001 0.74874997
2.9791667 -4.4031668 0.73991674
3.048382 -4.4036169 0.74105877
3.1183333 -4.4106665 0.72944438
1.8804119 -4.3419123 0.72182339
1.9491192 -4.3555803 0.74939907
2.0474899 -4.3673935 0.75016451
2.1365843 -4.3617115 0.76046979
2.201 -4.3610001 0.79100001
2.387948 -4.3525677 0.75042522
2.4046669 -4.323667 0.77633333
2.6292496 -4.3840003 0.74680555
2.8663096 -4.3534579 0.76452345
2.9409552 -4.3791361 0.74277711
3.0505285 -4.3904486 0.75202149
3.129638 -4.3792415 0.73136193
1.8827201 -4.2527003 0.71872002
1.9391004 -4.2362761 0.7611925
2.0543478 -4.2085795 0.74668115
2.1453283 -4.2167907 0.75034338
2.209125 -4.2121253 0.785375
2.3915973 -4.262598 0.75178045
2.4279053 -4.2261739 0.74997807
2.5490084 -4.2170401 0.75017977
2.6335804 -4.2287297 0.74834406
2.8675373 -4.2513423 0.76553798
2.9403727 -4.2363324 0.74011862
3.0479283 -4.2327013 0.74855882
3.1294382 -4.2497025 0.73621893
1.88875 -4.1919994 0.71074998
1.9591097 -4.1913304 0.74267989
2.0483093 -4.1918979 0.75426793
2.136656 -4.1938281 0.76484388
2.2 -4.1950002 0.79400003
2.375 -4.1989999 0.71799999
2.4361219 -4.1937194 0.74995112
2.5145001 -4.1987495 0.75925004
2.882 -4.1960001 0.77999997
2.3891971 -4.4128947 0.85137892
2.4478126 -4.4223595 0.8496446
2.545188 -4.4264274 0.84834027
2.6153333 -4.4097619 0.83142865
2.8210001 -4.4130001 0.83099997
2.9749999 -4.4051666 0.86600006
3.0294375 -4.4068751 0.84318745
1.9745169 -4.3399558 0.82636273
2.0480921 -4.3575277 0.85076326
2.1499565 -4.3644586 0.84952837
2.2311368 -4.3607264 0.86152989
2.3867896 -4.3532786 0.84866673
2.4023335 -4.3340006 0.81500006
2.595 -4.3924999 0.85949999
2.6277695 -4.3781924 0.84903854
2.7701352 -4.3499522 0.86681706
2.8412097 -4.3699527 0.84249175
2.9496486 -4.3838534 0.85073161
3.0287201 -4.37956 0.83255976
1.978358 -4.2507758 0.82711929
2.0367949 -4.2342653 0.86301196
2.1558049 -4.2121706 0.8501218
2.2414713 -4.2122078 0.85084915
2.3905098 -4.2605095 0.85374051
2.4228797 -4.2255802 0.84719002
2.5501039 -4.2148366 0.85025871
2.6351295 -4.2294412 0.84783894
2.767122 -4.251555 0.86788416
2.8392875 -4.2307825 0.83840203
2.9481685 -4.2231083 0.84852308
3.0333998 -4.2412395 0.83806652
1.9852859 -4.1907859 0.81242859
2.0534997 -4.1880651 0.84630328
2.1476066 -4.1901236 0.85162282
2.2282779 -4.192667 0.86242592
2.3746669 -4.1953335 0.86633337
2.4377902 -4.191648 0.85074812
2.5162668 -4.1960664 0.85586667
2.7727501 -4.197875 0.88037503
2.8199999 -4.1989999 0.85600001
2.3877547 -4.4133401 0.94647175
2.4475217 -4.4205308 0.94943225
2.5432322 -4.4236026 0.94883513
2.6027272 -4.4039092 0.94081819
2.8900001 -4.4039998 0.98799998
2.9420002 -4.4081998 0.93699998
2.0714335 -4.3411779 0.93321705
2.1470749 -4.3586135 0.95120388
2.2487307 -4.3635573 0.95056522
2.3686523 -4.3514218 0.95162928
2.4030001 -4.3899999 0.94599998
2.5933332 -4.3940001 0.9513334
2.6646314 -4.3536701 0.96301883
2.7459393 -4.3616481 0.94511712
2.8511026 -4.3745065 0.94893712
2.9344654 -4.3764238 0.93680173
2.0683086 -4.248064 0.93157434
2.1360004 -4.2250428 0.96424645
2.2565129 -4.2103329 0.94453841
2.3767574 -4.2475333 0.94705397
2.4246376 -4.2229862 0.94728994
2.5555909 -4.2123227 0.94833356
2.6461699 -4.2271185 0.95208484
2.7380588 -4.2338428 0.93421459
2.8514597 -4.2139645 0.94856751
2.9385545 -4.2309756 0.93744564
2.083591 -4.1852274 0.92118198
2.1504014 -4.1876478 0.94686878
2.2485278 -4.1900005 0.95163202
2.3420906 -4.1910677 0.96729559
2.4437256 -4.1891756 0.95042741
2.5198147 -4.1937404 0.95311111
2.6714613 -4.1933846 0.9817692
2.7497368 -4.1955786 0.95501757
2.8338885 -4.1967778 0.9565556
2.9169998 -4.198 0.93449998
2.3881199 -4.4119196 1.0488602
2.4486692 -4.4181757 1.0486379
2.5441308 -4.4212136 1.0503882
2.6003335 -4.4023337 1.049
2.1643782 -4.3417621 1.0358268
2.2472453 -4.3605404 1.0513258
2.3504462 -4.3641109 1.0474765
2.4319999 -4.4000001 1.073
2.589 -4.3916664 1.0543333
2.6587741 -4.3652868 1.0489587
2.7502704 -4.3646379 1.0494146
2.8384342 -4.3664842 1.0379704
2.9070001 -4.3724999 1.0085
2.16274 -4.2499518 1.0412213
2.2409303 -4.2232318 1.0659301
2.3451431 -4.2125721 1.0460358
2.4517872 -4.2275863 1.0521463
2.5550671 -4.2141352 1.0463707
2.6391089 -4.2237496 1.0366719
2.7547059 -4.2112355 1.0474316
2.8408458 -4.2214732 1.0399102
2.9006667 -4.2226667 1.005
2.1749146 -4.1877441 1.0264043
2.2489622 -4.1858778 1.0483713
2.348295 -4.1888533 1.0525194
2.4497533 -4.1887283 1.0466666
2.5417085 -4.1920915 1.0563818
2.6548707 -4.188765 1.0572708
2.7437866 -4.1938138 1.0501068
2.8151875 -4.1968126 1.0448126
2.3895831 -4.4116249 1.1491666
2.4495347 -4.4162097 1.1492463
2.5469997 -4.4190688 1.1514657
2.6043334 -4.4028335 1.1590002
2.197 -4.3060002 1.1109999
2.2608285 -4.3421841 1.1398284
2.3494809 -4.3656712 1.1489096
2.4336667 -4.3970003 1.1403334
2.598 -4.388 1.146
2.6611416 -4.3603044 1.147567
2.7406454 -4.3597913 1.1389863
2.8080001 -4.3099999 1.105
2.187 -4.2940001 1.103
2.2541685 -4.2466054 1.1449831
2.3369229 -4.2157693 1.1576539
2.4590364 -4.2107511 1.1407144
2.5421796 -4.2229199 1.1267201
2.6527498 -4.2116003 1.1400999
2.7542639 -4.2223854 1.1463685
2.8063335 -4.2343335 1.1056666
2.2709475 -4.1859117 1.1317893
2.3507316 -4.184238 1.1494553
2.4459088 -4.1850824 1.1505917
2.5526578 -4.1837173 1.1546751
2.6437929 -4.1835046 1.1537122
2.7295716 -4.1949797 1.1382245
2.8 -4.1999998 1.11
2.3882823 -4.4083333 1.2461797
2.449852 -4.4128962 1.2472476
2.5440676 -4.4157062 1.249401
2.6199999 -4.401 1.26
2.29125 -4.3210001 1.202
2.3609486 -4.3530855 1.2457726
2.4271543 -4.3976159 1.2646154
2.5691431 -4.3948574 1.2492857
2.649236 -4.360455 1.2400001
2.709167 -4.3559999 1.2055001
2.2926667 -4.2870002 1.2086667
2.3472712 -4.2438126 1.2490931
2.4570589 -4.2086468 1.2372942
2.5705001 -4.2066669 1.2321668
2.6630611 -4.2276673 1.2584544
2.711091 -4.225091 1.2149092
2.3679745 -4.1830254 1.2364554
2.4475563 -4.1788459 1.2474097
2.548351 -4.1806693 1.2498214
2.6363645 -4.1866722 1.2415295
2.7125001 -4.1940002 1.2035
2.4507911 -4.4086852 1.346234
2.6170001 -4.4029999 1.3710001
2.3828874 -4.3557706 1.3503479
2.4425714 -4.3964486 1.3582857
2.5784171 -4.3913341 1.3615001
2.6184826 -4.3733792 1.346638
2.3866537 -4.2504654 1.3499066
2.4467144 -4.2106433 1.3472857
2.5661671 -4.2074995 1.3603333
2.6332424 -4.230401 1.3547002
2.39059 -4.188334 1.3509743
2.4486392 -4.182548 1.3481673
2.545855 -4.1833301 1.3473134
2.6179316 -4.1952753 1.353655
2.3827043 -4.3565488 1.4499516
2.4408607 -4.3939614 1.4511901
2.5567312 -4.3913898 1.4574876
2.6163125 -4.3701253 1.4450312
2.3867071 -4.2489495 1.4497676
2.4517827 -4.2130008 1.4380436
2.5558233 -4.2090297 1.4530883
2.6328356 -4.2265081 1.4531475
2.3904464 -4.184319 1.4475744
2.4470167 -4.1814518 1.4490401
2.545686 -4.1878099 1.4501826
2.6238244 -4.1936755 1.4533252
2.4502354 -4.2130003 1.5390589
2.6304405 -4.2272201 1.5520847
2.3861849 -4.1842465 1.5497077
2.4465506 -4.1803045 1.549529
2.5461328 -4.1855001 1.5497164
2.6250002 -4.1924324 1.5483412
2.4360769 -4.2104616 1.6568462
2.3864923 -4.1824775 1.6497009
2.4468453 -4.1774435 1.6489013
2.5468521 -4.1829667 1.6520817
2.4396667 -4.203167 1.7506666
2.3864856 -4.1811032 1.7501913
2.4457936 -4.1753674 1.7511132
2.5466747 -4.1817646 1.7509917
2.385987 -4.1804738 1.8514999
2.4460828 -4.1729574 1.8501527
2.5472972 -4.1804996 1.8496172
2.6255002 -4.188962 1.8471538
2.3845861 -4.2528152 1.9501952
2.4105 -4.2519999 1.9460001
2.5545001 -4.2065835 1.9388335
2.6252506 -4.2272043 1.9464091
2.3868353 -4.1777353 1.9515694
2.4438953 -4.1698728 1.9480979
2.5465581 -4.1795292 1.9505434
2.6263275 -4.1867452 1.9515089
2.3826239 -4.3459125 2.0495923
2.3838596 -4.2518525 2.0510423
2.4043336 -4.2523336 2.0176668
2.5454001 -4.2176003 2.0302
2.6192577 -4.2336779 2.0509677
2.3870761 -4.1748481 2.0503373
2.4463215 -4.1683788 2.0496004
2.5480068 -4.1765442 2.0504274
2.6249833 -4.1841354 2.0485425
2.4649999 -4.4017501 2.13925
2.53725 -4.4033751 2.1358747
2.3825653 -4.3438673 2.1509347
2.4481242 -4.3824787 2.1502366
2.545352 -4.3862824 2.1472037
2.6127994 -4.3522573 2.1570284
2.3830595 -4.2492824 2.1502693
2.404 -4.2336669 2.1603334
2.6219168 -4.2286673 2.1407084
2.3854601 -4.1730099 2.1488402
2.4504347 -4.1657252 2.1496029
2.5480378 -4.174016 2.1517649
2.6230488 -4.182507 2.1504095
2.4990001 -4.4039998 2.2060001
2.553 -4.4025002 2.2232499
2.3838327 -4.3445287 2.2509797
2.4481151 -4.3797984 2.2478909
2.5449729 -4.3852158 2.2507985
2.6124053 -4.352809 2.251667
2.3830585 -4.2510252 2.2492068
2.6222222 -4.2333894 2.252111
2.3834093 -4.1708536 2.2507908
2.4505887 -4.1619725 2.2504246
2.551357 -4.1729374 2.2514112
2.6241271 -4.1802177 2.2471273
2.3841999 -4.4034004 2.3903999
2.4335001 -4.4060001 2.3947501
2.5545001 -4.401 2.3345001
2.3826571 -4.3479652 2.3526449
2.4470861 -4.3788476 2.3510525
2.5414586 -4.3830886 2.3498902
2.6124566 -4.3512821 2.3529999
2.3816862 -4.2473593 2.3504298
2.579 -4.2020001 2.302
2.6210001 -4.243 2.3530908
2.3776202 -4.1564689 2.3616798
2.4466255 -4.1271963 2.3271029
2.5509729 -4.1590714 2.3421545
2.6242237 -4.1800861 2.3462591
2.3880801 -4.0823197 2.3806798
2.4468591 -4.0741205 2.3728318
2.5103335 -4.0779333 2.381
2.379348 -4.4271708 2.4623575
2.4511445 -4.4253297 2.4573102
2.5084801 -4.4159198 2.4484
2.3692174 -4.3476944 2.4481719
2.4513998 -4.3938575 2.4127142
2.5577388 -4.380146 2.4440484
2.6158574 -4.3438334 2.4467621
2.3759847 -4.2488456 2.4470005
2.4236667 -4.2440004 2.4563336
2.5639999 -4.2030001 2.45
2.6187084 -4.2462506 2.4598751
2.3714652 -4.155982 2.4411523
2.5641568 -4.1583338 2.4369414
2.6226034 -4.1772246 2.4451897
2.3904059 -4.0535049 2.4452176
2.4455914 -4.0292602 2.428391
2.5287304 -4.0441589 2.4461274
2.3947058 -3.9837646 2.474412
2.4465845 -3.9732034 2.4733644
2.5153704 -3.9835923 2.477
2.3709376 -4.5096245 2.5891874
2.459842 -4.5095787 2.5866055
2.3710585 -4.4534564 2.5524993
2.45084 -4.4728436 2.5445952
2.5172608 -4.4344344 2.5398695
2.3670206 -4.3494306 2.548722
2.493 -4.3740001 2.5350001
2.5658972 -4.3768678 2.5433376
2.6174419 -4.3368144 2.5479066
2.376929 -4.2523742 2.5481613
2.4152501 -4.243 2.5155001
2.596 -4.2649999 2.569
2.6156113 -4.245944 2.5512779
2.3830001 -4.1515284 2.548568
2.4072499 -4.1772499 2.5510001
2.5625188 -4.1571116 2.5465925
2.6230385 -4.178731 2.546808
2.3916366 -4.0513372 2.5506818
2.4065554 -4.0286665 2.5451109
2.5340002 -4.0571995 2.5443199
2.3951252 -3.9648547 2.5556667
2.4306901 -3.9336855 2.5363445
2.5311584 -3.9448788 2.5397682
2.398 -3.8759999 2.5770001
2.4450383 -3.8736558 2.5718622
2.5206282 -3.8788366 2.578651
2.3671656 -4.5348449 2.6569722
2.446768 -4.5411124 2.6503351
2.5093501 -4.5274501 2.6643503
2.3586621 -4.4506817 2.6493506
2.4756 -4.4604797 2.6434002
2.5260003 -4.4443078 2.6460772
2.3645358 -4.3537722 2.6484091
2.4680002 -4.3543339 2.6803336
2.5766485 -4.3686762 2.6441348
2.6161358 -4.3314056 2.6480005
2.3797078 -4.2461267 2.6491106
2.4065001 -4.2680001 2.6424999
2.5983334 -4.2779999 2.6423335
2.6169562 -4.242826 2.644913
2.3859277 -4.1687589 2.6501088
2.4167728 -4.1455007 2.6585453
2.5548823 -4.1684117 2.646059
2.6273479 -4.1808696 2.6480002
2.3942907 -4.0371456 2.6384513
2.4074707 -4.0515881 2.6629705
2.5402939 -4.0447655 2.639765
2.3958704 -3.9622226 2.6467221
2.4041402 -3.9374523 2.6499856
2.53864 -3.9538805 2.6500401
2.3945 -3.8746669 2.6325002
2.4266148 -3.8419189 2.6402309
2.5332067 -3.8396809 2.6411443
2.4495065 -3.7731447 2.6712675
2.5235336 -3.7747335 2.6807778
2.3699479 -4.6123271 2.7791898
2.4404359 -4.614223 2.7744365
2.3585 -4.5586786 2.747014
2.4531438 -4.5814209 2.732614
2.5156896 -4.5518279 2.7446206
2.3514428 -4.4512286 2.7482431
2.4890003 -4.4517055 2.7596474
2.5151668 -4.421833 2.7645001
2.3692381 -4.3566093 2.7471805
2.4345715 -4.3670001 2.765286
2.5814669 -4.3519335 2.7469335
2.6130002 -4.3356466 2.7370584
2.3783069 -4.2489929 2.7494588
2.4045 -4.2284999 2.7364998
2.5946667 -4.2898331 2.7413335
2.61305 -4.2421999 2.7471001
2.3834782 -4.1687164 2.7495546
2.4299045 -4.1480274 2.7545207
2.5547271 -4.1637278 2.7523637
2.6273851 -4.1796155 2.7435002
2.4243076 -4.0223846 2.7246156
2.533 -4.026 2.7049999
2.3971002 -3.9572999 2.7204998
2.4135621 -3.9436979 2.7485094
2.5410001 -3.9473124 2.7417502
2.3984001 -3.8742001 2.727
2.4080005 -3.8461614 2.74808
2.54812 -3.8489199 2.7535205
2.4311981 -3.7429576 2.7401769
2.5384679 -3.7394989 2.7391918
2.4518781 -3.671068 2.7696831
2.5262535 -3.6722684 2.7754934
2.3829999 -4.7020001 2.8989999
2.359268 -4.6438155 2.8530881
2.4451115 -4.6506133 2.8489554
2.514111 -4.6150002 2.8743334
2.342458 -4.5507979 2.8504021
2.4775417 -4.5552082 2.8495417
2.5290625 -4.5693126 2.8326874
2.3529775 -4.455955 2.8469553
2.447212 -4.446485 2.8566363
2.5035 -4.448 2.836
2.3743386 -4.3375235 2.8454616
2.42875 -4.3632503 2.8578334
2.5809093 -4.3408179 2.850091
2.6109998 -4.3262501 2.8345001
2.3778269 -4.2516618 2.8489525
2.4045999 -4.2389998 2.8424001
2.5955 -4.2787499 2.8475003
2.611182 -4.2425003 2.846091
2.3839779 -4.1667113 2.8512442
2.4430189 -4.1466646 2.8518074
2.5591247 -4.1635003 2.8529372
2.6305795 -4.1790528 2.8506315
2.4301431 -3.9160957 2.8199048
2.5504999 -3.9194999 2.802
2.4237094 -3.8457587 2.8471522
2.5419998 -3.8477778 2.8477223
2.4154325 -3.7486537 2.8495116
2.555913 -3.7474346 2.8552608
2.6040001 -3.7160001 2.8380001
2.4382036 -3.642288 2.841116
2.5451851 -3.6372898 2.8384738
2.4547958 -3.5688787 2.8699012
2.5262618 -3.570797 2.8719711
2.3662977 -4.7121048 2.9509473
2.4401069 -4.7150102 2.9558351
2.3450947 -4.6596956 2.9402678
2.4537439 -4.6800365 2.9297564
2.5137408 -4.6492591 2.951704
2.3412254 -4.551168 2.9511337
2.4694169 -4.5507083 2.9555423
2.5320001 -4.5999999 2.911
2.3564641 -4.4750247 2.9406669
2.438237 -4.4781322 2.9491577
2.3758068 -4.3293529 2.9511817
2.4189999 -4.3510003 2.9366367
2.5788825 -4.3475881 2.9511764
2.6070001 -4.3170004 2.9549999
2.3778551 -4.2503037 2.9478471
2.4022503 -4.2342501 2.937
2.5908 -4.2694001 2.9555998
2.6102781 -4.2512779 2.9444447
2.3834951 -4.1677384 2.9495535
2.4472663 -4.1417503 2.9486825
2.5304725 -4.1428185 2.9552178
2.6253333 -4.1789999 2.9472778
2.4360001 -3.9130001 2.9159999
2.4296789 -3.8258576 2.9260001
2.5267999 -3.8080003 2.9087999
2.4298072 -3.7434294 2.9472373
2.5423124 -3.7492192 2.9529691
2.4226451 -3.6484625 2.9465783
2.5637617 -3.6510952 2.9442382
2.6289999 -3.6700001 2.9449999
2.4411831 -3.5440416 2.9391627
2.5434682 -3.5334997 2.9334593
2.6030002 -3.5615001 2.9775
2.4580514 -3.4711475 2.970088
2.5329168 -3.47106 2.9745002
0 0 0 1 0 0 0 1 0 0 0 1 0 0 0 0 0 778 1 0 0
