ply
format ascii 1.0
comment PCL generated
element vertex 1852
property float x
property float y
property float z
element camera 0
property float view_px
property float view_py
property float view_pz
property float x_axisx
property float x_axisy
property float x_axisz
property float y_axisx
property float y_axisy
property float y_axisz
property float z_axisx
property float z_axisy
property float z_axisz
property float focal
property float scalex
property float scaley
property float centerx
property float centery
property int viewportx
property int viewporty
property float k1
property float k2
end_header
12.746 -4.7480001 1.455
12.741 -4.75 1.438
12.74 -4.7509999 1.421
12.738 -4.7509999 1.404
12.746 -4.75 1.386
12.744 -4.7509999 1.369
12.747 -4.75 1.352
12.745 -4.7509999 1.335
12.796 -4.7350001 1.312
12.875 -4.71 1.286
12.881 -4.7090001 1.2690001
12.9 -4.7030001 1.25
12.938 -4.691 1.229
12.961 -4.684 1.21
12.957 -4.6859999 1.194
12.993 -4.6750002 1.174
13.015 -4.6680002 1.155
13.018 -4.6669998 1.138
13.041 -4.6609998 1.119
13.052 -4.6570001 1.102
13.071 -4.651 1.0829999
13.088 -4.6459999 1.0650001
13.113 -4.6389999 1.0470001
13.132 -4.6329999 1.029
13.138 -4.632 1.012
13.149 -4.6279998 0.995
13.18 -4.619 0.97600001
13.185 -4.618 0.95999998
13.212 -4.6090002 0.94099998
13.215 -4.6079998 0.92500001
13.234 -4.6030002 0.90700001
13.24 -4.6009998 0.89099997
13.26 -4.5949998 0.87300003
13.276 -4.5900002 0.85600001
13.291 -4.586 0.83899999
13.293 -4.585 0.82300001
13.3 -4.5840001 0.80699998
13.309 -4.5809999 0.79000002
13.31 -4.5809999 0.77399999
13.302 -4.5840001 0.759
13.299 -4.585 0.74299997
13.306 -4.5830002 0.727
13.299 -4.585 0.71100003
13.294 -4.5869999 0.69499999
13.276 -4.5929999 0.68000001
13.292 -4.5890002 0.66399997
13.276 -4.5939999 0.648
13.265 -4.598 0.63300002
13.27 -4.5960002 0.61699998
12.756 -4.7600002 0.62
12.741 -4.7649999 0.60299999
12.746 -4.763 0.58600003
12.75 -4.7620001 0.56900001
12.754 -4.7610002 0.55199999
12.754 -4.7620001 0.53500003
12.749 -4.7639999 0.51800001
12.749 -4.7639999 0.50099999
12.772 -4.757 0.484
12.743 -4.7659998 0.46700001
12.753 -4.7639999 0.44999999
12.757 -4.7620001 0.433
12.762 -4.7610002 0.41600001
12.747 -4.7659998 0.40000001
12.743 -4.7680001 0.38299999
12.766 -4.7610002 0.366
12.757 -4.7649999 0.34900001
12.757 -4.7649999 0.33199999
12.757 -4.7649999 0.315
12.757 -4.7649999 0.29800001
12.752 -4.7670002 0.28099999
12.752 -4.7670002 0.264
12.757 -4.7659998 0.24699999
12.752 -4.7680001 0.23
12.762 -4.7649999 0.213
12.757 -4.7670002 0.19599999
12.753 -4.7690001 0.17900001
12.758 -4.7670002 0.163
12.749 -4.7709999 0.146
12.735 -4.7750001 0.12800001
12.759 -4.7680001 0.112
12.745 -4.7729998 0.094999999
12.774 -4.7639999 0.078000002
12.75 -4.7709999 0.061000001
12.751 -4.7719998 0.044
12.756 -4.77 0.027000001
12.757 -4.77 0.0099999998
12.597 -4.7859998 2.9960001
12.597 -4.7859998 2.977
12.599 -4.7859998 2.9579999
12.616 -4.7810001 2.9349999
12.602 -4.7859998 2.9200001
12.607 -4.7839999 2.901
12.609 -4.7839999 2.882
12.598 -4.7880001 2.8659999
12.602 -4.7870002 2.8469999
12.602 -4.7870002 2.829
12.579 -4.7950001 2.816
12.602 -4.7880001 2.7920001
12.605 -4.7870002 2.773
12.601 -4.789 2.756
12.618 -4.7839999 2.733
12.601 -4.79 2.7190001
12.62 -4.7839999 2.6960001
12.602 -4.79 2.6830001
12.613 -4.7870002 2.6619999
12.606 -4.79 2.645
12.717 -4.757 2.51
12.688 -4.7659998 2.4990001
12.72 -4.756 2.474
12.729 -4.7540002 2.454
12.726 -4.7550001 2.437
12.741 -4.7509999 2.415
12.723 -4.756 2.402
12.72 -4.7579999 2.385
12.731 -4.7550001 2.365
12.732 -4.7550001 2.3469999
12.733 -4.7550001 2.329
12.73 -4.756 2.312
12.726 -4.7579999 2.2950001
12.717 -4.7610002 2.279
12.724 -4.7589998 2.26
12.724 -4.7589998 2.2420001
12.731 -4.757 2.223
12.718 -4.7620001 2.2079999
12.71 -4.7639999 2.1919999
12.726 -4.7600002 2.171
12.731 -4.7579999 2.1530001
12.72 -4.7620001 2.1370001
12.722 -4.7620001 2.119
12.719 -4.763 2.102
12.726 -4.7610002 2.0840001
12.718 -4.7639999 2.0669999
12.734 -4.7589998 2.0469999
12.72 -4.7639999 2.0320001
12.717 -4.7649999 2.0150001
12.739 -4.7589998 1.994
12.747 -4.756 1.975
12.73 -4.7620001 1.96
12.74 -4.7589998 1.941
12.73 -4.763 1.925
12.73 -4.763 1.908
12.734 -4.7620001 1.89
12.734 -4.7620001 1.872
12.733 -4.763 1.855
12.736 -4.7620001 1.837
12.742 -4.7610002 1.819
12.737 -4.763 1.802
12.745 -4.7600002 1.784
12.726 -4.7670002 1.77
12.737 -4.763 1.75
12.726 -4.7670002 1.735
12.744 -4.7620001 1.715
12.735 -4.7649999 1.699
12.723 -4.7690001 1.683
12.74 -4.7639999 1.663
12.738 -4.7649999 1.646
12.736 -4.7659998 1.6289999
12.746 -4.763 1.6109999
12.734 -4.7670002 1.595
12.742 -4.7649999 1.577
12.746 -4.7639999 1.559
12.735 -4.7680001 1.543
12.763 -4.7600002 1.522
12.745 -4.7659998 1.508
12.741 -4.7670002 1.4910001
12.739 -4.7680001 1.474
12.744 -4.7670002 1.456
12.75 -4.7649999 1.438
12.752 -4.7649999 1.421
12.747 -4.7670002 1.404
12.758 -4.763 1.386
12.738 -4.77 1.3710001
12.759 -4.7639999 1.351
12.741 -4.77 1.336
12.73 -4.7740002 1.321
12.767 -4.7620001 1.299
12.774 -4.7600002 1.281
12.853 -4.7360001 1.256
12.924 -4.7129998 1.2309999
12.961 -4.7020001 1.211
12.989 -4.6929998 1.191
12.985 -4.6950002 1.175
12.996 -4.691 1.1569999
13.036 -4.6789999 1.137
13.033 -4.6799998 1.1210001
13.056 -4.6729999 1.102
13.085 -4.664 1.0829999
13.09 -4.6630001 1.066
13.106 -4.658 1.048
13.134 -4.6490002 1.029
13.141 -4.6479998 1.013
13.155 -4.6430001 0.995
13.172 -4.638 0.97799999
13.194 -4.632 0.95999998
13.204 -4.6290002 0.94300002
13.224 -4.6230001 0.92500001
13.254 -4.6129999 0.90700001
13.248 -4.6149998 0.89099997
13.261 -4.612 0.87400001
13.28 -4.6059999 0.85699999
13.288 -4.6030002 0.83999997
13.325 -4.592 0.82200003
13.325 -4.592 0.80599999
13.325 -4.5929999 0.79000002
13.327 -4.592 0.77399999
13.348 -4.586 0.75700003
13.356 -4.5840001 0.741
13.349 -4.586 0.72500002
13.357 -4.5840001 0.70899999
13.352 -4.586 0.69300002
13.361 -4.5830002 0.67699999
13.346 -4.5879998 0.662
13.349 -4.5879998 0.64600003
13.339 -4.5910001 0.63
13.345 -4.5900002 0.61400002
13.344 -4.5900002 0.59799999
13.318 -4.599 0.583
12.765 -4.776 0.58600003
12.755 -4.7789998 0.56900001
12.765 -4.776 0.55199999
12.759 -4.7779999 0.53500003
12.759 -4.7789998 0.51800001
12.749 -4.7820001 0.50199997
12.758 -4.7789998 0.48500001
12.753 -4.7810001 0.46799999
12.758 -4.7800002 0.45100001
12.758 -4.7810001 0.43399999
12.758 -4.7810001 0.417
12.748 -4.7839999 0.40000001
12.753 -4.783 0.38299999
12.757 -4.7820001 0.366
12.752 -4.7839999 0.34900001
12.762 -4.7810001 0.33199999
12.762 -4.7810001 0.315
12.75 -4.7859998 0.29800001
12.757 -4.783 0.28099999
12.743 -4.7880001 0.264
12.748 -4.7870002 0.24699999
12.763 -4.7820001 0.23100001
12.758 -4.7839999 0.214
12.763 -4.783 0.197
12.758 -4.7849998 0.18000001
12.758 -4.7849998 0.163
12.754 -4.7870002 0.146
12.764 -4.7839999 0.12899999
12.754 -4.7870002 0.112
12.779 -4.7800002 0.096000001
12.769 -4.783 0.078000002
12.751 -4.789 0.061000001
12.756 -4.7880001 0.044
12.757 -4.7880001 0.027000001
12.762 -4.7870002 0.011
12.602 -4.803 2.9779999
12.598 -4.8049998 2.96
12.602 -4.803 2.941
12.609 -4.802 2.9200001
12.617 -4.7989998 2.9000001
12.599 -4.8060002 2.8859999
12.59 -4.809 2.8699999
12.59 -4.809 2.852
12.605 -4.8049998 2.8299999
12.602 -4.8060002 2.812
12.617 -4.802 2.79
12.608 -4.8049998 2.7739999
12.599 -4.8080001 2.7579999
12.596 -4.809 2.7409999
12.619 -4.802 2.7160001
12.604 -4.8070002 2.7019999
12.594 -4.8109999 2.6860001
12.596 -4.8099999 2.668
12.703 -4.7789998 2.497
12.73 -4.77 2.473
12.739 -4.7680001 2.4530001
12.731 -4.7709999 2.437
12.732 -4.7709999 2.4189999
12.72 -4.7750001 2.404
12.73 -4.7729998 2.3840001
12.75 -4.7659998 2.362
12.732 -4.7719998 2.348
12.734 -4.7719998 2.3299999
12.735 -4.7719998 2.312
12.722 -4.777 2.2969999
12.742 -4.7709999 2.2750001
12.739 -4.7719998 2.2579999
12.722 -4.7779999 2.244
12.728 -4.776 2.2249999
12.739 -4.7729998 2.2049999
12.731 -4.776 2.1889999
12.742 -4.7719998 2.1689999
12.739 -4.7740002 2.152
12.727 -4.7779999 2.1370001
12.743 -4.7729998 2.1170001
12.744 -4.7729998 2.099
12.737 -4.776 2.0829999
12.738 -4.776 2.0650001
12.731 -4.7779999 2.049
12.737 -4.776 2.03
12.735 -4.7779999 2.013
12.732 -4.7789998 1.9960001
12.745 -4.7750001 1.976
12.731 -4.7800002 1.961
12.752 -4.7729998 1.9400001
12.744 -4.776 1.924
12.746 -4.776 1.906
12.73 -4.7810001 1.892
12.725 -4.783 1.875
12.739 -4.7789998 1.855
12.727 -4.783 1.84
12.719 -4.7859998 1.824
12.731 -4.7820001 1.8049999
12.729 -4.783 1.788
12.719 -4.7870002 1.772
12.73 -4.7839999 1.753
12.717 -4.7880001 1.737
12.719 -4.7880001 1.72
12.734 -4.783 1.7
12.71 -4.7909999 1.686
12.722 -4.7880001 1.6670001
12.717 -4.79 1.651
12.713 -4.7909999 1.6339999
12.696 -4.7969999 1.619
12.722 -4.789 1.598
12.727 -4.7880001 1.58
12.699 -4.7969999 1.567
12.711 -4.7930002 1.548
12.705 -4.796 1.531
12.701 -4.7969999 1.5140001
12.71 -4.7940001 1.4960001
12.71 -4.7950001 1.479
12.734 -4.7880001 1.4579999
12.7 -4.7989998 1.4450001
12.712 -4.7950001 1.427
12.701 -4.7989998 1.411
12.71 -4.7969999 1.392
12.716 -4.7950001 1.375
12.703 -4.8000002 1.359
12.708 -4.7979999 1.341
12.706 -4.7989998 1.324
12.705 -4.8000002 1.307
12.722 -4.7950001 1.288
12.739 -4.789 1.2690001
12.719 -4.796 1.2539999
12.868 -4.7490001 1.221
12.948 -4.724 1.196
12.972 -4.7160001 1.177
12.999 -4.7080002 1.158
13.022 -4.7010002 1.1390001
13.046 -4.6929998 1.12
13.047 -4.6929998 1.104
13.062 -4.6890001 1.086
13.078 -4.684 1.068
13.113 -4.6729999 1.048
13.122 -4.6700001 1.031
13.147 -4.6630001 1.013
13.158 -4.6599998 0.99599999
13.174 -4.6550002 0.97799999
13.21 -4.6440001 0.95899999
13.212 -4.6430001 0.94300002
13.238 -4.6350002 0.92500001
13.234 -4.6360002 0.90899998
13.264 -4.6269999 0.89099997
13.282 -4.6220002 0.87300003
13.289 -4.6199999 0.85699999
13.306 -4.6149998 0.83999997
13.314 -4.612 0.82300001
13.326 -4.6090002 0.80599999
13.344 -4.6030002 0.78899997
13.348 -4.6020002 0.773
13.352 -4.6009998 0.75700003
13.368 -4.5960002 0.74000001
13.4 -4.586 0.72299999
13.395 -4.5879998 0.70700002
13.397 -4.5879998 0.69199997
13.393 -4.5890002 0.676
13.412 -4.5840001 0.65899998
13.403 -4.5869999 0.64399999
13.389 -4.592 0.62900001
13.399 -4.5890002 0.61299998
13.39 -4.592 0.597
13.378 -4.5960002 0.58200002
13.376 -4.5970001 0.56599998
13.364 -4.6009998 0.551
13.363 -4.6009998 0.53500003
12.755 -4.7969999 0.53600001
12.774 -4.7909999 0.51800001
12.754 -4.7979999 0.50199997
12.759 -4.7969999 0.48500001
12.749 -4.8000002 0.46799999
12.758 -4.7969999 0.45100001
12.763 -4.796 0.43399999
12.768 -4.796 0.417
12.758 -4.7989998 0.40000001
12.758 -4.7989998 0.38299999
12.743 -4.8039999 0.36700001
12.762 -4.7979999 0.34900001
12.743 -4.8049998 0.333
12.762 -4.7989998 0.31600001
12.743 -4.8049998 0.29899999
12.753 -4.803 0.28200001
12.753 -4.803 0.26499999
12.767 -4.7979999 0.248
12.758 -4.802 0.23100001
12.768 -4.7989998 0.214
12.773 -4.7969999 0.197
12.758 -4.802 0.18000001
12.763 -4.8010001 0.163
12.754 -4.8039999 0.146
12.778 -4.7969999 0.13
12.745 -4.8080001 0.112
12.755 -4.8049998 0.094999999
12.737 -4.8109999 0.078000002
12.746 -4.8080001 0.061000001
12.747 -4.8080001 0.044
12.757 -4.8060002 0.028000001
12.753 -4.8070002 0.0099999998
12.598 -4.822 2.98
12.594 -4.8239999 2.9630001
12.594 -4.8239999 2.9449999
12.59 -4.8260002 2.928
12.606 -4.8210001 2.905
12.599 -4.8239999 2.888
12.619 -4.8179998 2.8640001
12.599 -4.8239999 2.8510001
12.603 -4.823 2.832
12.604 -4.823 2.813
12.594 -4.8270001 2.7980001
12.606 -4.8239999 2.776
12.613 -4.822 2.756
12.608 -4.823 2.7390001
12.602 -4.8260002 2.7219999
12.631 -4.8169999 2.697
12.728 -4.789 2.4749999
12.731 -4.789 2.4560001
12.728 -4.79 2.4389999
12.737 -4.7880001 2.4189999
12.739 -4.7880001 2.401
12.726 -4.7919998 2.3859999
12.732 -4.79 2.3670001
12.728 -4.7919998 2.3499999
12.734 -4.79 2.3310001
12.74 -4.789 2.312
12.732 -4.7909999 2.296
12.724 -4.7940001 2.28
12.721 -4.796 2.263
12.723 -4.7950001 2.2449999
12.738 -4.7909999 2.224
12.721 -4.7969999 2.21
12.727 -4.7950001 2.191
12.743 -4.79 2.171
12.726 -4.796 2.1570001
12.727 -4.796 2.1389999
12.734 -4.7940001 2.1199999
12.735 -4.7940001 2.102
12.742 -4.7919998 2.0829999
12.744 -4.7919998 2.0650001
12.741 -4.7930002 2.0480001
12.733 -4.796 2.0320001
12.735 -4.7950001 2.0139999
12.742 -4.7940001 1.9960001
12.744 -4.7930002 1.978
12.746 -4.7930002 1.96
12.724 -4.8000002 1.946
12.74 -4.7950001 1.926
12.733 -4.7979999 1.91
12.744 -4.7950001 1.89
12.729 -4.8000002 1.876
12.747 -4.7940001 1.855
12.751 -4.7930002 1.837
12.734 -4.7989998 1.823
12.736 -4.7989998 1.8049999
12.748 -4.7950001 1.786
12.741 -4.7979999 1.7690001
12.753 -4.7940001 1.75
12.746 -4.7969999 1.734
12.738 -4.7989998 1.7180001
12.755 -4.7940001 1.698
12.729 -4.803 1.6849999
12.736 -4.8010001 1.666
12.729 -4.8039999 1.65
12.746 -4.7989998 1.63
12.753 -4.7969999 1.612
12.737 -4.802 1.597
12.726 -4.8060002 1.581
12.743 -4.8010001 1.561
12.736 -4.803 1.545
12.743 -4.8010001 1.527
12.75 -4.7989998 1.5089999
12.758 -4.7969999 1.4910001
12.747 -4.8010001 1.475
12.759 -4.7969999 1.456
12.743 -4.803 1.441
12.76 -4.7979999 1.4220001
12.749 -4.802 1.406
12.737 -4.8060002 1.39
12.74 -4.8049998 1.373
12.745 -4.8039999 1.355
12.725 -4.8109999 1.34
12.74 -4.8060002 1.321
12.736 -4.8070002 1.304
12.758 -4.8010001 1.285
12.754 -4.802 1.268
12.756 -4.802 1.251
12.729 -4.8109999 1.237
12.733 -4.8099999 1.219
12.734 -4.8099999 1.202
12.818 -4.7839999 1.176
12.973 -4.7340002 1.145
13.021 -4.7189999 1.123
13.047 -4.711 1.104
13.075 -4.7020001 1.085
13.093 -4.697 1.067
13.1 -4.6939998 1.05
13.115 -4.6900001 1.033
13.135 -4.684 1.015
13.159 -4.6760001 0.99599999
13.174 -4.6719999 0.97899997
13.192 -4.6659999 0.96100003
13.218 -4.658 0.94300002
13.232 -4.6539998 0.926
13.244 -4.6500001 0.90899998
13.25 -4.6490002 0.89200002
13.279 -4.6399999 0.87400001
13.312 -4.6290002 0.85600001
13.311 -4.6300001 0.83999997
13.321 -4.6269999 0.82300001
13.331 -4.6240001 0.80699998
13.356 -4.6160002 0.78899997
13.357 -4.6160002 0.773
13.376 -4.6100001 0.75599998
13.385 -4.6079998 0.74000001
13.403 -4.6020002 0.72299999
13.415 -4.599 0.70700002
13.44 -4.5910001 0.69
13.433 -4.5929999 0.67500001
13.439 -4.592 0.65899998
13.45 -4.5879998 0.64200002
13.447 -4.5890002 0.62699997
13.451 -4.5879998 0.611
13.455 -4.5879998 0.59500003
13.448 -4.5900002 0.57999998
13.457 -4.5869999 0.56400001
13.441 -4.5929999 0.54900002
13.418 -4.6009998 0.53399998
13.42 -4.5999999 0.51800001
13.387 -4.6110001 0.50300002
13.428 -4.598 0.486
12.759 -4.8140001 0.48500001
12.768 -4.8119998 0.46799999
12.759 -4.8150001 0.45100001
12.758 -4.816 0.435
12.754 -4.8169999 0.41800001
12.758 -4.816 0.40099999
12.749 -4.8200002 0.384
12.739 -4.823 0.36700001
12.763 -4.816 0.34999999
12.753 -4.8189998 0.333
12.748 -4.8210001 0.31600001
12.753 -4.8200002 0.29899999
12.758 -4.8179998 0.28200001
12.748 -4.822 0.26499999
12.768 -4.816 0.248
12.768 -4.816 0.23100001
12.763 -4.8179998 0.214
12.754 -4.8210001 0.197
12.764 -4.8189998 0.18000001
12.759 -4.8200002 0.163
12.75 -4.8239999 0.146
12.764 -4.8189998 0.13
12.77 -4.8179998 0.113
12.76 -4.8210001 0.096000001
12.751 -4.8239999 0.078000002
12.766 -4.8200002 0.061999999
12.752 -4.8249998 0.045000002
12.753 -4.8249998 0.028000001
12.753 -4.8249998 0.011
12.604 -4.8390002 2.9809999
12.616 -4.835 2.9590001
12.609 -4.8379998 2.9419999
12.595 -4.8429999 2.928
12.579 -4.848 2.914
12.603 -4.8410001 2.8889999
12.617 -4.8369999 2.8659999
12.611 -4.8390002 2.8499999
12.603 -4.842 2.8340001
12.608 -4.8400002 2.8139999
12.609 -4.8410001 2.7950001
12.616 -4.8390002 2.7750001
12.608 -4.8410001 2.7590001
12.606 -4.842 2.7409999
12.739 -4.8039999 2.474
12.737 -4.8049998 2.4560001
12.724 -4.8099999 2.4419999
12.725 -4.8099999 2.424
12.739 -4.8049998 2.4030001
12.727 -4.8099999 2.388
12.737 -4.8070002 2.368
12.729 -4.8099999 2.352
12.744 -4.8049998 2.3310001
12.732 -4.809 2.316
12.733 -4.809 2.2980001
12.734 -4.809 2.28
12.722 -4.8130002 2.2650001
12.733 -4.8099999 2.2449999
12.725 -4.8130002 2.2290001
12.74 -4.8080001 2.2079999
12.751 -4.8049998 2.188
12.725 -4.8140001 2.1760001
12.726 -4.8140001 2.158
12.737 -4.8109999 2.138
12.744 -4.809 2.119
12.727 -4.8150001 2.105
12.738 -4.8109999 2.085
12.74 -4.8109999 2.0669999
12.723 -4.8169999 2.053
12.734 -4.8140001 2.033
12.726 -4.816 2.017
12.739 -4.8119998 1.997
12.735 -4.8140001 1.9809999
12.732 -4.8150001 1.964
12.739 -4.8130002 1.9450001
12.741 -4.8130002 1.927
12.729 -4.8169999 1.9119999
12.731 -4.8169999 1.8940001
12.742 -4.8140001 1.875
12.74 -4.8150001 1.858
12.732 -4.8169999 1.841
12.739 -4.8150001 1.823
12.732 -4.8179998 1.807
12.744 -4.8150001 1.7869999
12.756 -4.8109999 1.768
12.748 -4.8140001 1.752
12.737 -4.8179998 1.737
12.734 -4.8189998 1.72
12.751 -4.8140001 1.7
12.744 -4.816 1.683
12.742 -4.8169999 1.666
12.735 -4.8200002 1.65
12.728 -4.822 1.6339999
12.74 -4.8189998 1.615
12.742 -4.8179998 1.597
12.745 -4.8179998 1.58
12.743 -4.8189998 1.563
12.75 -4.8169999 1.544
12.745 -4.8189998 1.528
12.761 -4.8140001 1.5089999
12.735 -4.823 1.495
12.747 -4.8189998 1.476
12.737 -4.823 1.46
12.762 -4.8150001 1.4400001
12.737 -4.823 1.426
12.74 -4.823 1.408
12.733 -4.8249998 1.392
12.736 -4.8249998 1.374
12.73 -4.8270001 1.358
12.753 -4.8200002 1.3380001
12.745 -4.823 1.321
12.739 -4.8249998 1.3049999
12.747 -4.823 1.2869999
12.745 -4.823 1.27
12.753 -4.8210001 1.252
12.756 -4.8200002 1.235
12.741 -4.8260002 1.219
12.758 -4.8200002 1.2
12.761 -4.8200002 1.183
12.755 -4.822 1.166
12.778 -4.8150001 1.147
12.763 -4.8200002 1.131
13.039 -4.7309999 1.089
13.069 -4.7210002 1.0700001
13.092 -4.7140002 1.052
13.119 -4.7059999 1.033
13.142 -4.6989999 1.015
13.159 -4.6929998 0.99699998
13.178 -4.6869998 0.97899997
13.197 -4.6820002 0.96100003
13.214 -4.6760001 0.94400001
13.232 -4.671 0.926
13.244 -4.6669998 0.90899998
13.264 -4.6609998 0.89200002
13.269 -4.6599998 0.875
13.295 -4.652 0.85799998
13.302 -4.6490002 0.84100002
13.331 -4.6399999 0.82300001
13.339 -4.638 0.80699998
13.356 -4.6329999 0.79000002
13.363 -4.631 0.77399999
13.394 -4.6209998 0.75599998
13.409 -4.6170001 0.73900002
13.422 -4.612 0.72299999
13.434 -4.6090002 0.70700002
13.439 -4.6079998 0.69099998
13.438 -4.6079998 0.67500001
13.444 -4.6069999 0.65899998
13.473 -4.598 0.64200002
13.482 -4.5949998 0.62599999
13.492 -4.592 0.61000001
13.501 -4.5890002 0.59399998
13.491 -4.5929999 0.579
13.504 -4.5890002 0.56300002
13.486 -4.5949998 0.54799998
13.52 -4.5840001 0.53100002
13.494 -4.5929999 0.51599997
13.497 -4.592 0.5
13.489 -4.5949998 0.48500001
13.48 -4.599 0.47
13.467 -4.6030002 0.454
13.452 -4.6079998 0.43900001
12.73 -4.8429999 0.435
12.732 -4.8429999 0.41800001
12.735 -4.842 0.40099999
12.74 -4.8410001 0.384
12.744 -4.8400002 0.36700001
12.73 -4.8449998 0.34999999
12.727 -4.8460002 0.333
12.725 -4.8470001 0.31600001
12.735 -4.8439999 0.29899999
12.735 -4.8439999 0.28200001
12.73 -4.8460002 0.26499999
12.721 -4.849 0.248
12.749 -4.8400002 0.23100001
12.726 -4.848 0.214
12.74 -4.8439999 0.197
12.736 -4.8460002 0.18000001
12.719 -4.8509998 0.163
12.739 -4.8449998 0.146
12.723 -4.8499999 0.12899999
12.712 -4.8540001 0.112
12.718 -4.8530002 0.094999999
12.733 -4.848 0.078000002
12.733 -4.848 0.061000001
12.748 -4.8439999 0.045000002
12.734 -4.849 0.027000001
12.739 -4.8470001 0.0099999998
12.609 -4.8559999 2.9809999
12.609 -4.8559999 2.9630001
12.598 -4.8600001 2.948
12.6 -4.8600001 2.928
12.611 -4.8569999 2.9070001
12.599 -4.8610001 2.892
12.616 -4.8559999 2.869
12.623 -4.8540001 2.848
12.598 -4.862 2.8369999
12.608 -4.8590002 2.816
12.612 -4.8579998 2.7969999
12.604 -4.8610001 2.78
12.73 -4.8260002 2.4419999
12.727 -4.8270001 2.425
12.722 -4.829 2.408
12.736 -4.8249998 2.3870001
12.727 -4.8280001 2.3710001
12.734 -4.8260002 2.352
12.741 -4.8239999 2.3329999
12.726 -4.8299999 2.3180001
12.718 -4.8330002 2.302
12.719 -4.8319998 2.2839999
12.747 -4.8239999 2.2609999
12.732 -4.829 2.2460001
12.737 -4.8280001 2.2279999
12.746 -4.8249998 2.2079999
12.74 -4.8270001 2.1919999
12.743 -4.8270001 2.1730001
12.738 -4.8280001 2.1570001
12.737 -4.829 2.1389999
12.729 -4.8319998 2.1240001
12.723 -4.8340001 2.1070001
12.746 -4.8270001 2.085
12.722 -4.835 2.072
12.728 -4.8340001 2.053
12.739 -4.8299999 2.0339999
12.736 -4.8309999 2.017
12.734 -4.8330002 2
12.74 -4.8309999 1.9809999
12.742 -4.8309999 1.9630001
12.735 -4.8330002 1.947
12.746 -4.8299999 1.928
12.748 -4.829 1.91
12.746 -4.8309999 1.893
12.734 -4.835 1.877
12.731 -4.836 1.86
12.747 -4.8309999 1.84
12.74 -4.8340001 1.824
12.724 -4.8390002 1.809
12.74 -4.8340001 1.789
12.737 -4.835 1.772
12.744 -4.8330002 1.7539999
12.723 -4.8410001 1.74
12.735 -4.8369999 1.721
12.756 -4.8299999 1.7
12.74 -4.836 1.6849999
12.733 -4.8390002 1.669
12.735 -4.8379998 1.651
12.743 -4.836 1.633
12.736 -4.8390002 1.617
12.743 -4.836 1.598
12.746 -4.836 1.581
12.739 -4.8379998 1.564
12.746 -4.836 1.546
12.735 -4.8400002 1.53
12.738 -4.8400002 1.513
12.74 -4.8390002 1.495
12.744 -4.8379998 1.477
12.751 -4.836 1.459
12.735 -4.842 1.444
12.739 -4.8410001 1.426
12.755 -4.836 1.4069999
12.748 -4.8390002 1.391
12.742 -4.8410001 1.374
12.74 -4.842 1.357
12.752 -4.8379998 1.339
12.765 -4.835 1.3200001
12.73 -4.8460002 1.307
12.738 -4.8439999 1.289
12.751 -4.8400002 1.27
12.754 -4.8390002 1.253
12.724 -4.849 1.239
12.741 -4.8439999 1.22
12.745 -4.8429999 1.202
12.743 -4.8439999 1.1849999
12.746 -4.8429999 1.168
12.745 -4.8439999 1.151
12.763 -4.8379998 1.132
12.738 -4.8470001 1.118
12.755 -4.8410001 1.099
13.033 -4.7509999 1.058
13.09 -4.7329998 1.036
13.107 -4.7280002 1.018
13.152 -4.7129998 0.99800003
13.178 -4.7049999 0.98000002
13.182 -4.704 0.963
13.229 -4.6890001 0.94300002
13.226 -4.6900001 0.92799997
13.235 -4.6880002 0.91100001
13.255 -4.6810002 0.89300001
13.283 -4.6729999 0.875
13.303 -4.6659999 0.85799998
13.315 -4.6630001 0.84100002
13.32 -4.6609998 0.82499999
13.34 -4.6550002 0.80699998
13.361 -4.6479998 0.79000002
13.371 -4.6459999 0.77399999
13.376 -4.6440001 0.75800002
13.402 -4.6360002 0.74000001
13.418 -4.631 0.72399998
13.46 -4.6170001 0.70599997
13.444 -4.6230001 0.69099998
13.459 -4.618 0.67400002
13.477 -4.6129999 0.65799999
13.489 -4.6090002 0.64200002
13.495 -4.6069999 0.62599999
13.523 -4.598 0.60900003
13.513 -4.6020002 0.59399998
13.53 -4.5970001 0.57800001
13.555 -4.5890002 0.56099999
13.558 -4.5879998 0.546
13.567 -4.585 0.52999997
13.566 -4.586 0.514
13.55 -4.5910001 0.49900001
13.555 -4.5900002 0.484
13.55 -4.592 0.46799999
13.555 -4.5900002 0.45300001
13.554 -4.5910001 0.43700001
13.514 -4.6040001 0.42199999
13.523 -4.6020002 0.40700001
12.74 -4.8579998 0.40200001
12.75 -4.855 0.38499999
12.769 -4.8499999 0.36700001
12.74 -4.8600001 0.35100001
12.764 -4.8520002 0.33399999
12.754 -4.855 0.317
12.764 -4.8530002 0.30000001
12.754 -4.8559999 0.28299999
12.764 -4.8530002 0.266
12.764 -4.8530002 0.249
12.759 -4.855 0.23199999
12.745 -4.8600001 0.215
12.748 -4.8590002 0.198
12.741 -4.862 0.18099999
12.762 -4.855 0.164
12.761 -4.8559999 0.147
12.761 -4.8559999 0.13
12.761 -4.8569999 0.113
12.766 -4.855 0.096000001
12.767 -4.855 0.079000004
12.772 -4.8540001 0.061999999
12.753 -4.8600001 0.045000002
12.763 -4.8569999 0.028000001
12.754 -4.8610001 0.011
12.604 -4.8759999 2.984
12.58 -4.8839998 2.973
12.609 -4.875 2.9460001
12.61 -4.875 2.927
12.616 -4.8730001 2.9070001
12.617 -4.8730001 2.8889999
12.591 -4.882 2.8770001
12.613 -4.875 2.8529999
12.602 -4.8790002 2.8380001
12.61 -4.8769999 2.8169999
12.741 -4.848 2
12.73 -4.8520002 1.984
12.744 -4.848 1.964
12.736 -4.8509998 1.948
12.734 -4.8520002 1.931
12.736 -4.8520002 1.913
12.735 -4.8520002 1.896
12.736 -4.8520002 1.878
12.73 -4.8540001 1.862
12.734 -4.8530002 1.844
12.741 -4.8509998 1.825
12.735 -4.8540001 1.809
12.725 -4.8569999 1.793
12.733 -4.855 1.774
12.719 -4.8600001 1.7589999
12.725 -4.8579998 1.7410001
12.718 -4.8610001 1.724
12.716 -4.862 1.707
12.722 -4.8600001 1.689
12.728 -4.8579998 1.671
12.73 -4.8579998 1.653
12.726 -4.8590002 1.636
12.731 -4.8579998 1.618
12.721 -4.862 1.602
12.731 -4.8590002 1.584
12.726 -4.8610001 1.567
12.728 -4.8600001 1.549
12.723 -4.862 1.533
12.736 -4.8579998 1.5140001
12.741 -4.8569999 1.4960001
12.73 -4.8610001 1.48
12.738 -4.8590002 1.462
12.746 -4.8569999 1.444
12.748 -4.8559999 1.426
12.723 -4.8649998 1.4119999
12.758 -4.8530002 1.39
12.761 -4.8530002 1.373
12.745 -4.8579998 1.358
12.735 -4.862 1.342
12.751 -4.8569999 1.323
12.736 -4.862 1.307
12.748 -4.8590002 1.289
12.737 -4.862 1.273
12.74 -4.862 1.255
12.739 -4.8629999 1.238
12.751 -4.8590002 1.22
12.764 -4.855 1.201
12.734 -4.8649998 1.187
12.747 -4.8610001 1.169
12.741 -4.8629999 1.152
12.735 -4.8660002 1.136
12.748 -4.862 1.117
12.737 -4.8649998 1.101
12.75 -4.8610001 1.0829999
12.758 -4.8590002 1.0650001
12.743 -4.8639998 1.049
13.078 -4.7550001 1.005
13.138 -4.7350001 0.98400003
13.179 -4.7220001 0.96399999
13.2 -4.7150002 0.94599998
13.225 -4.7080002 0.92799997
13.235 -4.704 0.91100001
13.257 -4.698 0.89399999
13.271 -4.6929998 0.87699997
13.296 -4.6849999 0.85900003
13.308 -4.6820002 0.84200001
13.331 -4.6739998 0.824
13.344 -4.6700001 0.80800003
13.366 -4.664 0.79000002
13.367 -4.6630001 0.77499998
13.383 -4.658 0.75800002
13.402 -4.652 0.741
13.425 -4.645 0.72399998
13.439 -4.6409998 0.70700002
13.443 -4.6399999 0.69099998
13.478 -4.6290002 0.67400002
13.485 -4.6269999 0.65799999
13.491 -4.625 0.64200002
13.511 -4.618 0.62599999
13.518 -4.6160002 0.61000001
13.53 -4.6129999 0.59399998
13.552 -4.6059999 0.57700002
13.55 -4.6069999 0.56199998
13.578 -4.598 0.54500002
13.582 -4.5970001 0.52999997
13.598 -4.592 0.514
13.582 -4.5970001 0.49900001
13.609 -4.5890002 0.48300001
13.592 -4.5949998 0.46799999
13.602 -4.5910001 0.45199999
13.604 -4.5910001 0.43700001
13.602 -4.592 0.421
13.603 -4.592 0.40599999
13.581 -4.5999999 0.391
13.578 -4.6009998 0.375
13.571 -4.6040001 0.36000001
13.552 -4.6100001 0.345
13.576 -4.6030002 0.329
12.745 -4.8759999 0.317
12.755 -4.8730001 0.30000001
12.745 -4.8769999 0.28299999
12.783 -4.8649998 0.266
12.75 -4.8759999 0.249
12.769 -4.8699999 0.23199999
12.77 -4.8699999 0.215
12.741 -4.8800001 0.198
12.761 -4.8740001 0.18099999
12.751 -4.8769999 0.164
12.771 -4.8709998 0.147
12.766 -4.8730001 0.13
12.762 -4.8740001 0.113
12.757 -4.8759999 0.096000001
12.758 -4.8759999 0.079000004
12.749 -4.8800001 0.061999999
12.759 -4.8769999 0.045000002
12.764 -4.875 0.028000001
12.759 -4.8769999 0.011
12.586 -4.9000001 2.9920001
12.596 -4.8969998 2.97
12.594 -4.8979998 2.9519999
12.605 -4.895 2.931
12.597 -4.8979998 2.914
12.601 -4.8969998 2.895
12.597 -4.8990002 2.878
12.601 -4.8979998 2.858
12.58 -4.9050002 2.845
12.762 -4.868 1.477
12.743 -4.875 1.462
12.742 -4.875 1.4450001
12.74 -4.8769999 1.428
12.739 -4.8769999 1.411
12.743 -4.8759999 1.393
12.742 -4.8769999 1.376
12.736 -4.8790002 1.36
12.739 -4.8779998 1.342
12.742 -4.8769999 1.325
12.747 -4.8759999 1.307
12.745 -4.8769999 1.29
12.753 -4.875 1.272
12.741 -4.8790002 1.256
12.739 -4.8800001 1.239
12.738 -4.881 1.222
12.741 -4.8800001 1.204
12.739 -4.881 1.187
12.733 -4.8829999 1.171
12.76 -4.8740001 1.151
12.749 -4.8779998 1.135
12.748 -4.8790002 1.118
12.742 -4.881 1.102
12.75 -4.8790002 1.084
12.74 -4.8829999 1.068
12.757 -4.8769999 1.049
12.756 -4.8779998 1.0319999
12.741 -4.8839998 1.016
13.116 -4.7600002 0.97000003
13.188 -4.737 0.94800001
13.213 -4.7290001 0.93000001
13.24 -4.7199998 0.912
13.263 -4.7129998 0.89399999
13.267 -4.7119999 0.87699997
13.277 -4.7090001 0.861
13.31 -4.698 0.84200001
13.326 -4.6929998 0.82499999
13.336 -4.6900001 0.80900002
13.359 -4.6820002 0.79100001
13.379 -4.6760001 0.77399999
13.385 -4.6739998 0.75800002
13.399 -4.6700001 0.74199998
13.425 -4.6620002 0.72399998
13.426 -4.6620002 0.70899999
13.45 -4.6539998 0.69199997
13.453 -4.6529999 0.676
13.486 -4.6430001 0.65899998
13.496 -4.6399999 0.64200002
13.495 -4.6399999 0.62699997
13.53 -4.6290002 0.61000001
13.544 -4.6240001 0.59399998
13.573 -4.6149998 0.57700002
13.574 -4.6149998 0.56199998
13.571 -4.6170001 0.546
13.598 -4.6079998 0.52999997
13.618 -4.6009998 0.514
13.605 -4.6059999 0.49900001
13.616 -4.6030002 0.48300001
13.638 -4.5949998 0.46700001
13.64 -4.5949998 0.45199999
13.658 -4.5890002 0.43599999
13.65 -4.592 0.421
13.655 -4.5910001 0.405
13.65 -4.5929999 0.38999999
13.654 -4.592 0.375
13.631 -4.5999999 0.36000001
13.627 -4.6009998 0.34400001
13.611 -4.6069999 0.329
13.614 -4.6059999 0.31400001
13.608 -4.6079998 0.29800001
13.585 -4.6160002 0.28299999
12.76 -4.8899999 0.266
12.77 -4.8870001 0.249
12.751 -4.8930001 0.23199999
12.761 -4.8899999 0.215
12.751 -4.8940001 0.198
12.759 -4.8920002 0.18099999
12.757 -4.8920002 0.164
12.762 -4.8909998 0.147
12.762 -4.8909998 0.13
12.743 -4.8979998 0.113
12.753 -4.895 0.096000001
12.763 -4.8920002 0.079000004
12.763 -4.8930001 0.063000001
12.759 -4.8940001 0.045000002
12.764 -4.8930001 0.028999999
12.765 -4.8930001 0.012
12.589 -4.9169998 2.993
12.604 -4.9130001 2.97
12.594 -4.9159999 2.954
12.599 -4.915 2.934
12.603 -4.914 2.915
12.6 -4.915 2.8970001
12.58 -4.9219999 2.8840001
13.231 -4.7389998 0.91299999
13.243 -4.7360001 0.89600003
13.261 -4.73 0.87900001
13.306 -4.7150002 0.85900003
13.318 -4.7119999 0.84299999
13.33 -4.7080002 0.82599998
13.339 -4.7049999 0.80900002
13.37 -4.6950002 0.79100001
13.38 -4.6919999 0.77499998
13.382 -4.6919999 0.759
13.395 -4.6880002 0.74199998
13.42 -4.6799998 0.72500002
13.434 -4.6750002 0.70899999
13.448 -4.671 0.69199997
13.467 -4.665 0.676
13.473 -4.6630001 0.66000003
13.498 -4.6550002 0.64300001
13.528 -4.645 0.62599999
13.53 -4.645 0.61000001
13.545 -4.6399999 0.59399998
13.553 -4.638 0.57800001
13.563 -4.6350002 0.56199998
13.564 -4.6350002 0.54699999
13.608 -4.6199999 0.52999997
13.621 -4.6160002 0.514
13.629 -4.6139998 0.49900001
13.633 -4.6129999 0.48300001
13.659 -4.6040001 0.46700001
13.662 -4.6040001 0.45199999
13.678 -4.599 0.43599999
13.678 -4.599 0.421
13.69 -4.5949998 0.405
13.694 -4.5939999 0.38999999
13.698 -4.5929999 0.375
13.688 -4.5970001 0.359
13.682 -4.599 0.34400001
13.69 -4.5960002 0.329
13.687 -4.5970001 0.31400001
13.668 -4.6040001 0.29800001
13.658 -4.6079998 0.28299999
13.649 -4.6110001 0.26800001
13.652 -4.6100001 0.252
13.637 -4.6160002 0.237
12.756 -4.9089999 0.21600001
12.761 -4.908 0.199
12.779 -4.902 0.182
12.755 -4.9109998 0.16500001
12.757 -4.9109998 0.148
12.762 -4.9089999 0.131
12.753 -4.9130001 0.114
12.758 -4.9109998 0.097000003
12.763 -4.9099998 0.079999998
12.764 -4.9099998 0.063000001
12.774 -4.9070001 0.046
12.76 -4.9120002 0.028999999
12.77 -4.9089999 0.012
12.606 -4.9299998 2.99
12.594 -4.934 2.9749999
12.597 -4.934 2.9549999
12.603 -4.9320002 2.9349999
12.592 -4.9359999 2.9200001
13.275 -4.7420001 0.86199999
13.292 -4.737 0.84500003
13.311 -4.7309999 0.82800001
13.327 -4.7259998 0.81099999
13.354 -4.717 0.79299998
13.372 -4.7119999 0.77600002
13.39 -4.7059999 0.759
13.41 -4.6999998 0.74199998
13.418 -4.697 0.72600001
13.448 -4.6869998 0.708
13.457 -4.6849999 0.69199997
13.472 -4.6799998 0.676
13.495 -4.6719999 0.65899998
13.507 -4.6680002 0.64300001
13.516 -4.6659999 0.62699997
13.526 -4.6630001 0.611
13.523 -4.664 0.59500003
13.554 -4.6539998 0.579
13.591 -4.6420002 0.56199998
13.586 -4.6440001 0.54699999
13.592 -4.6420002 0.53100002
13.62 -4.6329999 0.51499999
13.622 -4.632 0.49900001
13.652 -4.6230001 0.48300001
13.652 -4.6230001 0.46799999
13.653 -4.6230001 0.45199999
13.671 -4.6170001 0.43700001
13.69 -4.6110001 0.421
13.714 -4.6030002 0.405
13.704 -4.6069999 0.38999999
13.718 -4.6020002 0.375
13.73 -4.598 0.359
13.737 -4.5970001 0.34400001
13.742 -4.5949998 0.329
13.746 -4.5939999 0.31400001
13.749 -4.5929999 0.29800001
13.736 -4.598 0.28299999
13.728 -4.6009998 0.26800001
13.719 -4.6040001 0.25299999
13.719 -4.6040001 0.23800001
13.715 -4.6059999 0.222
13.699 -4.612 0.207
13.69 -4.6149998 0.192
13.672 -4.6209998 0.176
13.714 -4.6069999 0.161
12.697 -4.9489999 0.13
12.687 -4.9520001 0.113
12.707 -4.9460001 0.096000001
12.721 -4.941 0.079000004
12.708 -4.9460001 0.061999999
12.708 -4.9460001 0.044
12.705 -4.948 0.027000001
12.714 -4.9450002 0.0099999998
12.615 -4.9460001 2.9890001
12.607 -4.948 2.973
12.589 -4.9549999 2.9590001
12.598 -4.9520001 2.938
13.312 -4.7480001 0.81199998
13.337 -4.7399998 0.79500002
13.358 -4.7329998 0.77700001
13.386 -4.724 0.75999999
13.414 -4.7150002 0.74199998
13.426 -4.711 0.72600001
13.441 -4.7059999 0.70899999
13.457 -4.7010002 0.69300002
13.466 -4.698 0.67699999
13.483 -4.6929998 0.66000003
13.512 -4.6830001 0.64300001
13.507 -4.6849999 0.62800002
13.531 -4.678 0.611
13.563 -4.6669998 0.59399998
13.575 -4.6630001 0.57800001
13.576 -4.6630001 0.56300002
13.588 -4.6589999 0.54699999
13.613 -4.651 0.53100002
13.631 -4.645 0.51499999
13.637 -4.6440001 0.49900001
13.653 -4.6389999 0.48300001
13.661 -4.6360002 0.46799999
13.68 -4.6300001 0.45199999
13.69 -4.6269999 0.43700001
13.692 -4.6259999 0.421
13.714 -4.619 0.40599999
13.728 -4.6149998 0.38999999
13.737 -4.612 0.375
13.747 -4.6090002 0.359
13.751 -4.6079998 0.34400001
13.767 -4.6030002 0.329
13.771 -4.6020002 0.31400001
13.774 -4.6009998 0.29899999
13.786 -4.5970001 0.28299999
13.783 -4.598 0.26800001
13.79 -4.5960002 0.25299999
13.781 -4.5999999 0.23800001
13.778 -4.6009998 0.223
13.764 -4.6059999 0.208
13.769 -4.6040001 0.193
13.76 -4.6079998 0.177
13.761 -4.6079998 0.162
13.751 -4.612 0.147
13.734 -4.6170001 0.131
13.706 -4.6269999 0.116
12.67 -4.9770002 0.078000002
12.681 -4.974 0.061000001
12.668 -4.9780002 0.044
12.666 -4.9790001 0.026000001
12.645 -4.987 0.0089999996
12.6 -4.9689999 2.9949999
12.586 -4.974 2.9809999
13.369 -4.7459998 0.76099998
13.401 -4.7360001 0.74400002
13.415 -4.7309999 0.727
13.445 -4.7220001 0.70999998
13.461 -4.7160001 0.69300002
13.477 -4.711 0.67699999
13.49 -4.7069998 0.66000003
13.518 -4.698 0.64300001
13.52 -4.698 0.62800002
13.531 -4.6939998 0.61199999
13.56 -4.684 0.59500003
13.563 -4.684 0.579
13.577 -4.6789999 0.56300002
13.607 -4.6690001 0.54699999
13.611 -4.6680002 0.53100002
13.635 -4.6599998 0.51499999
13.636 -4.6599998 0.5
13.645 -4.658 0.484
13.657 -4.6539998 0.46799999
13.692 -4.6420002 0.45199999
13.694 -4.6420002 0.43700001
13.709 -4.6370001 0.421
13.713 -4.6360002 0.40599999
13.718 -4.6339998 0.391
13.749 -4.6240001 0.375
13.763 -4.6199999 0.36000001
13.772 -4.6170001 0.34400001
13.774 -4.6160002 0.329
13.788 -4.612 0.31400001
13.802 -4.6069999 0.29899999
13.802 -4.6069999 0.28400001
13.805 -4.6069999 0.26899999
13.828 -4.599 0.25400001
13.822 -4.6020002 0.23899999
13.827 -4.5999999 0.223
13.834 -4.598 0.20900001
13.821 -4.6030002 0.193
13.805 -4.6079998 0.178
13.815 -4.605 0.163
13.806 -4.6090002 0.148
13.8 -4.6110001 0.133
13.796 -4.612 0.117
13.779 -4.618 0.102
13.799 -4.612 0.086999997
12.678 -4.993 0.044
12.668 -4.9959998 0.027000001
12.663 -4.9980001 0.0089999996
13.416 -4.7480001 0.71200001
13.451 -4.7360001 0.69400001
13.454 -4.7360001 0.67799997
13.496 -4.7220001 0.66100001
13.517 -4.7150002 0.64399999
13.518 -4.7150002 0.62800002
13.538 -4.7080002 0.61199999
13.542 -4.7069998 0.59600002
13.566 -4.6989999 0.57999998
13.575 -4.6960001 0.56400001
13.588 -4.6919999 0.54799998
13.603 -4.6880002 0.53200001
13.622 -4.6810002 0.51599997
13.643 -4.6739998 0.5
13.657 -4.6700001 0.484
13.665 -4.6669998 0.46799999
13.681 -4.6620002 0.45300001
13.695 -4.6570001 0.43700001
13.703 -4.6550002 0.42199999
13.714 -4.652 0.40599999
13.733 -4.645 0.391
13.755 -4.638 0.375
13.766 -4.6350002 0.36000001
13.774 -4.632 0.345
13.796 -4.625 0.329
13.805 -4.6220002 0.31400001
13.805 -4.6220002 0.29899999
13.822 -4.6170001 0.28400001
13.817 -4.619 0.26899999
13.836 -4.6129999 0.25400001
13.84 -4.6110001 0.23899999
13.852 -4.6069999 0.22400001
13.861 -4.605 0.20900001
13.877 -4.599 0.19400001
13.868 -4.6030002 0.17900001
13.885 -4.5970001 0.164
13.875 -4.6009998 0.149
13.875 -4.6009998 0.134
13.856 -4.6079998 0.119
13.848 -4.6110001 0.104
13.852 -4.6100001 0.089000002
13.835 -4.6160002 0.072999999
13.843 -4.6129999 0.057999998
13.84 -4.6149998 0.043000001
13.462 -4.75 0.66299999
13.497 -4.7379999 0.64499998
13.526 -4.7280002 0.62800002
13.532 -4.7259998 0.61299998
13.557 -4.7179999 0.59600002
13.561 -4.717 0.57999998
13.57 -4.7150002 0.56400001
13.601 -4.704 0.54799998
13.622 -4.697 0.53200001
13.638 -4.6919999 0.51599997
13.634 -4.6939998 0.5
13.65 -4.6880002 0.48500001
13.675 -4.6799998 0.46900001
13.682 -4.678 0.45300001
13.705 -4.6700001 0.43700001
13.709 -4.6690001 0.42199999
13.714 -4.6680002 0.40700001
13.749 -4.6560001 0.391
13.755 -4.6539998 0.37599999
13.756 -4.6539998 0.36000001
13.777 -4.6469998 0.345
13.806 -4.638 0.33000001
13.793 -4.6420002 0.315
13.812 -4.6360002 0.29899999
13.848 -4.6240001 0.28400001
13.847 -4.6240001 0.26899999
13.841 -4.6269999 0.25400001
13.864 -4.619 0.23899999
13.873 -4.6160002 0.22400001
13.88 -4.6139998 0.20900001
13.89 -4.6110001 0.19400001
13.893 -4.6100001 0.18000001
13.902 -4.6069999 0.16500001
13.909 -4.605 0.15000001
13.907 -4.6059999 0.13500001
13.923 -4.6009998 0.12
13.918 -4.6030002 0.105
13.895 -4.6110001 0.090000004
13.909 -4.6059999 0.075000003
13.897 -4.6110001 0.059999999
13.887 -4.6139998 0.045000002
13.871 -4.6199999 0.028999999
13.878 -4.618 0.014
13.522 -4.7459998 0.61299998
13.527 -4.7449999 0.59799999
13.551 -4.737 0.58099997
13.581 -4.7270002 0.56400001
13.605 -4.7189999 0.54799998
13.623 -4.7129998 0.53200001
13.641 -4.7069998 0.51599997
13.651 -4.704 0.5
13.662 -4.6999998 0.48500001
13.674 -4.6960001 0.46900001
13.696 -4.6890001 0.45300001
13.699 -4.6880002 0.43799999
13.71 -4.6849999 0.42199999
13.733 -4.677 0.40700001
13.745 -4.6729999 0.391
13.754 -4.6700001 0.37599999
13.775 -4.6630001 0.36000001
13.8 -4.6550002 0.345
13.786 -4.6599998 0.33000001
13.81 -4.652 0.315
13.822 -4.6479998 0.30000001
13.833 -4.6440001 0.285
13.85 -4.6389999 0.26899999
13.857 -4.6370001 0.25400001
13.865 -4.6339998 0.23899999
13.875 -4.631 0.22499999
13.889 -4.6259999 0.20999999
13.899 -4.6230001 0.19499999
13.918 -4.6170001 0.18000001
13.923 -4.6149998 0.16500001
13.926 -4.6149998 0.15000001
13.932 -4.6129999 0.13600001
13.958 -4.6040001 0.121
13.954 -4.6059999 0.106
13.961 -4.6040001 0.092
13.955 -4.6059999 0.077
13.964 -4.6030002 0.061999999
13.964 -4.6040001 0.046999998
13.955 -4.6069999 0.032000002
13.944 -4.6110001 0.017000001
13.582 -4.743 0.54900002
13.591 -4.7399998 0.53299999
13.618 -4.7309999 0.51700002
13.639 -4.724 0.50099999
13.653 -4.7199998 0.48500001
13.672 -4.7129998 0.46900001
13.689 -4.7080002 0.454
13.718 -4.698 0.43799999
13.727 -4.6950002 0.42199999
13.732 -4.6939998 0.40700001
13.721 -4.698 0.39199999
13.764 -4.6830001 0.37599999
13.762 -4.684 0.361
13.771 -4.6810002 0.34599999
13.784 -4.677 0.33000001
13.808 -4.6690001 0.315
13.825 -4.6630001 0.30000001
13.851 -4.6539998 0.285
13.849 -4.6550002 0.27000001
13.857 -4.6529999 0.255
13.87 -4.6479998 0.23999999
13.896 -4.6399999 0.22499999
13.899 -4.6389999 0.20999999
13.916 -4.6329999 0.19499999
13.92 -4.632 0.18000001
13.936 -4.6269999 0.16599999
13.948 -4.6230001 0.15099999
13.946 -4.6240001 0.13600001
13.961 -4.619 0.121
13.98 -4.612 0.107
13.985 -4.6110001 0.092
14.004 -4.6040001 0.078000002
13.993 -4.6090002 0.063000001
13.998 -4.6069999 0.048
14.015 -4.6020002 0.034000002
14.012 -4.6030002 0.018999999
13.613 -4.75 0.50199997
13.64 -4.7410002 0.486
13.675 -4.7290001 0.47
13.693 -4.723 0.454
13.706 -4.7189999 0.43799999
13.719 -4.7140002 0.42300001
13.737 -4.7080002 0.40700001
13.746 -4.7049999 0.39199999
13.759 -4.7010002 0.37599999
13.778 -4.6950002 0.361
13.776 -4.6960001 0.34599999
13.799 -4.6880002 0.331
13.813 -4.6830001 0.315
13.844 -4.6729999 0.30000001
13.829 -4.678 0.285
13.846 -4.6729999 0.27000001
13.855 -4.6690001 0.255
13.891 -4.6570001 0.23999999
13.897 -4.6550002 0.22499999
13.908 -4.652 0.20999999
13.921 -4.6479998 0.19499999
13.925 -4.6459999 0.18099999
13.941 -4.6409998 0.16599999
13.951 -4.638 0.15099999
13.963 -4.6339998 0.13600001
13.974 -4.6300001 0.122
13.988 -4.6259999 0.107
14.005 -4.6199999 0.093000002
14 -4.6220002 0.078000002
14.015 -4.6170001 0.064000003
14.018 -4.6160002 0.048999999
14.025 -4.6139998 0.034000002
14.04 -4.6090002 0.02
13.674 -4.7459998 0.43900001
13.688 -4.7410002 0.42399999
13.716 -4.7319999 0.40799999
13.751 -4.7199998 0.39199999
13.76 -4.717 0.377
13.781 -4.71 0.361
13.79 -4.7069998 0.34599999
13.802 -4.7030001 0.331
13.823 -4.6960001 0.31600001
13.82 -4.697 0.30000001
13.841 -4.6900001 0.285
13.851 -4.6869998 0.27000001
13.867 -4.6810002 0.255
13.875 -4.6789999 0.23999999
13.895 -4.6719999 0.22499999
13.9 -4.671 0.20999999
13.919 -4.664 0.19599999
13.928 -4.6609998 0.18099999
13.949 -4.6539998 0.16599999
13.961 -4.6500001 0.15099999
13.954 -4.6529999 0.13600001
13.986 -4.6420002 0.122
13.995 -4.6389999 0.108
13.997 -4.638 0.093000002
14.014 -4.6329999 0.078000002
14.029 -4.6279998 0.064000003
14.025 -4.6290002 0.048999999
14.048 -4.6220002 0.035
14.06 -4.6170001 0.021
13.712 -4.75 0.39300001
13.719 -4.7480001 0.37799999
13.759 -4.7340002 0.36199999
13.785 -4.7249999 0.34599999
13.812 -4.7150002 0.331
13.811 -4.7160001 0.31600001
13.841 -4.7059999 0.301
13.856 -4.7010002 0.28600001
13.867 -4.697 0.271
13.879 -4.6929998 0.25600001
13.895 -4.6880002 0.241
13.898 -4.6869998 0.226
13.905 -4.6849999 0.211
13.922 -4.6789999 0.19599999
13.941 -4.6729999 0.18099999
13.941 -4.6729999 0.16599999
13.958 -4.6669998 0.152
13.968 -4.664 0.13699999
13.979 -4.6599998 0.122
14 -4.6529999 0.108
13.993 -4.6550002 0.093000002
14.012 -4.6490002 0.078000002
14.024 -4.645 0.064000003
14.044 -4.638 0.050000001
14.038 -4.6399999 0.035
14.061 -4.6329999 0.021
13.75 -4.7529998 0.36199999
13.743 -4.756 0.347
13.78 -4.743 0.33199999
13.795 -4.7379999 0.31600001
13.82 -4.7290001 0.301
13.839 -4.7220001 0.28600001
13.861 -4.7150002 0.271
13.873 -4.711 0.25600001
13.884 -4.7069998 0.241
13.915 -4.6960001 0.226
13.914 -4.697 0.211
13.919 -4.6950002 0.19599999
13.945 -4.6869998 0.18099999
13.956 -4.6830001 0.167
13.956 -4.6830001 0.152
13.974 -4.677 0.13699999
13.981 -4.6750002 0.122
14.003 -4.6669998 0.108
14 -4.6680002 0.093000002
14.021 -4.6609998 0.079000004
14.034 -4.6570001 0.064000003
14.041 -4.6550002 0.050000001
14.051 -4.651 0.035
14.059 -4.6490002 0.021
13.787 -4.756 0.317
13.797 -4.7529998 0.301
13.814 -4.7470002 0.28600001
13.842 -4.737 0.271
13.861 -4.7309999 0.25600001
13.888 -4.7210002 0.241
13.907 -4.7150002 0.226
13.919 -4.711 0.211
13.927 -4.7080002 0.19599999
13.953 -4.6989999 0.182
13.948 -4.7010002 0.167
13.963 -4.6960001 0.152
13.966 -4.6950002 0.13699999
13.971 -4.6929998 0.122
13.989 -4.6880002 0.108
14.019 -4.677 0.093999997
14.024 -4.6750002 0.079000004
14.041 -4.6700001 0.064999998
14.039 -4.6700001 0.050000001
14.054 -4.665 0.035999998
14.063 -4.6620002 0.021
13.836 -4.7550001 0.271
13.859 -4.7480001 0.25600001
13.877 -4.7410002 0.241
13.884 -4.7389998 0.226
13.913 -4.7290001 0.211
13.923 -4.7249999 0.19599999
13.939 -4.7199998 0.182
13.95 -4.7160001 0.167
13.966 -4.711 0.152
13.981 -4.7059999 0.138
13.984 -4.7049999 0.123
14.011 -4.6950002 0.108
14.015 -4.6939998 0.093999997
14.024 -4.691 0.079000004
14.029 -4.6890001 0.064999998
14.049 -4.6830001 0.050000001
14.059 -4.6789999 0.035999998
14.078 -4.6729999 0.022
13.876 -4.7579999 0.226
13.892 -4.7519999 0.211
13.899 -4.75 0.19599999
13.931 -4.7389998 0.182
13.947 -4.7329998 0.167
13.969 -4.7249999 0.152
13.984 -4.7199998 0.138
13.998 -4.7150002 0.123
14.016 -4.7090001 0.109
14.029 -4.7049999 0.093999997
14.039 -4.7010002 0.079999998
14.039 -4.7020001 0.064999998
14.056 -4.6960001 0.050999999
14.068 -4.6919999 0.035999998
14.081 -4.6869998 0.022
13.913 -4.7610002 0.182
13.93 -4.7550001 0.167
13.965 -4.743 0.153
13.972 -4.7399998 0.138
13.988 -4.7350001 0.123
14.007 -4.7280002 0.109
14.032 -4.7189999 0.093999997
14.034 -4.7189999 0.079999998
14.049 -4.7140002 0.064999998
14.059 -4.71 0.050999999
14.078 -4.704 0.037
14.085 -4.7010002 0.022
13.954 -4.763 0.138
13.982 -4.7529998 0.123
14.011 -4.743 0.109
14.022 -4.7389998 0.093999997
14.033 -4.7350001 0.079999998
14.046 -4.73 0.064999998
14.068 -4.723 0.050999999
14.094 -4.7129998 0.037
14.069 -4.723 0.022
14.004 -4.7600002 0.109
14.003 -4.7610002 0.093999997
14.036 -4.7490001 0.079999998
14.052 -4.744 0.066
14.075 -4.7350001 0.050999999
14.08 -4.7340002 0.037
14.102 -4.7259998 0.023
14.032 -4.7670002 0.064999998
14.052 -4.7600002 0.050999999
14.087 -4.7470002 0.037
14.085 -4.7480001 0.022
14.042 -4.7800002 0.021
11.329 -4.7649999 0.027000001
11.372 -4.7600002 0.092
11.357 -4.7529998 0.07
11.34 -4.7459998 0.048999999
11.293 -4.7270002 0.027000001
11.42 -4.756 0.15700001
11.415 -4.7540002 0.13500001
11.365 -4.7329998 0.113
11.352 -4.7280002 0.092
11.334 -4.7210002 0.07
11.306 -4.7090001 0.048999999
11.285 -4.6999998 0.027000001
11.474 -4.7550001 0.20100001
11.429 -4.7360001 0.178
11.402 -4.7249999 0.15700001
11.375 -4.7140002 0.13500001
11.354 -4.7059999 0.113
11.34 -4.6999998 0.092
11.314 -4.6890001 0.07
11.288 -4.678 0.048999999
11.286 -4.678 0.027000001
11.468 -4.7290001 0.222
11.356 -4.6820002 0.134
12.477 -4.6630001 2.7609999
12.482 -4.665 2.7379999
12.477 -4.6630001 2.7119999
12.49 -4.6680002 2.691
12.494 -4.6700001 2.668
12.48 -4.664 2.641
12.476 -4.6630001 2.615
12.482 -4.665 2.5929999
12.473 -4.6620002 2.5669999
12.465 -4.6589999 2.5409999
12.478 -4.664 2.52
12.478 -4.664 2.4960001
12.5 -4.6719999 2.4760001
12.495 -4.6700001 2.451
12.487 -4.6669998 2.425
12.503 -4.6729999 2.404
12.502 -4.6729999 2.3800001
12.502 -4.6729999 2.3559999
12.51 -4.6760001 2.3340001
12.505 -4.6739998 2.309
12.51 -4.6760001 2.286
12.498 -4.6719999 2.26
12.488 -4.6680002 2.234
12.497 -4.671 2.2119999
12.476 -4.638 2.7590001
12.485 -4.6409998 2.7360001
12.48 -4.6389999 2.711
12.471 -4.6350002 2.6849999
12.489 -4.6420002 2.665
12.489 -4.6430001 2.641
12.475 -4.6370001 2.6140001
12.493 -4.6440001 2.5929999
12.483 -4.6399999 2.5669999
12.476 -4.638 2.5420001
12.487 -4.6420002 2.52
12.486 -4.6409998 2.4960001
12.481 -4.6399999 2.471
12.499 -4.6459999 2.45
12.498 -4.6459999 2.4260001
12.488 -4.6420002 2.4000001
12.502 -4.6469998 2.3789999
12.494 -4.645 2.3529999
12.506 -4.6490002 2.3310001
12.492 -4.6440001 2.3050001
12.496 -4.645 2.2820001
12.486 -4.6420002 2.256
12.508 -4.6500001 2.2360001
12.498 -4.6459999 2.21
12.494 -4.645 2.1860001
12.493 -4.645 2.1619999
12.5 -4.6469998 2.1389999
12.514 -4.6529999 2.118
12.499 -4.6469998 2.0910001
12.503 -4.6479998 2.0680001
12.501 -4.6479998 2.0439999
12.509 -4.651 2.0220001
12.499 -4.6469998 1.9960001
12.493 -4.645 1.972
12.5 -4.6479998 1.949
12.508 -4.651 1.926
12.511 -4.652 1.903
12.5 -4.6479998 1.878
12.503 -4.6490002 1.855
12.502 -4.6490002 1.831
12.514 -4.6529999 1.809
12.512 -4.6529999 1.785
12.509 -4.651 1.761
12.514 -4.6529999 1.738
12.507 -4.651 1.7130001
12.495 -4.6459999 1.688
12.517 -4.6550002 1.6670001
12.507 -4.651 1.642
12.51 -4.652 1.619
12.507 -4.651 1.595
12.507 -4.651 1.572
12.517 -4.6550002 1.549
12.502 -4.6490002 1.524
12.502 -4.6490002 1.5
12.515 -4.6539998 1.478
12.473 -4.6389999 1.45
12.453 -4.631 1.424
12.444 -4.6279998 1.4
12.414 -4.6170001 1.373
12.395 -4.6100001 1.348
12.392 -4.6079998 1.324
12.356 -4.5949998 1.2970001
12.357 -4.5949998 1.274
12.328 -4.5840001 1.248
12.316 -4.5799999 1.223
12.296 -4.573 1.198
12.274 -4.5650001 1.173
12.254 -4.5570002 1.148
12.247 -4.5549998 1.125
12.241 -4.553 1.101
12.209 -4.5409999 1.076
12.236 -4.5510001 1.0549999
12.252 -4.5570002 1.033
12.283 -4.5679998 1.013
12.329 -4.585 0.99400002
12.517 -4.6269999 2.766
12.489 -4.6170001 2.7360001
12.489 -4.6170001 2.711
12.479 -4.6139998 2.6849999
12.497 -4.6199999 2.665
12.5 -4.6209998 2.641
12.501 -4.6220002 2.6170001
12.485 -4.6160002 2.5899999
12.48 -4.6139998 2.5650001
12.495 -4.6199999 2.5439999
12.495 -4.6199999 2.52
12.49 -4.618 2.4949999
12.46 -4.6069999 2.4649999
12.484 -4.6160002 2.4460001
12.497 -4.6209998 2.424
12.483 -4.6149998 2.3970001
12.489 -4.618 2.375
12.498 -4.6209998 2.352
12.513 -4.6269999 2.3310001
12.503 -4.6230001 2.3050001
12.498 -4.6209998 2.2809999
12.506 -4.6240001 2.2579999
12.495 -4.6199999 2.2320001
12.513 -4.6269999 2.2119999
12.489 -4.618 2.184
12.497 -4.6209998 2.161
12.498 -4.6209998 2.1370001
12.504 -4.6240001 2.115
12.484 -4.6170001 2.0880001
12.506 -4.625 2.0669999
12.503 -4.6240001 2.043
12.503 -4.6240001 2.0190001
12.507 -4.625 1.9960001
12.51 -4.6259999 1.973
