ply
format ascii 1.0
comment PCL generated
element vertex 1698
property float x
property float y
property float z
element camera 0
property float view_px
property float view_py
property float view_pz
property float x_axisx
property float x_axisy
property float x_axisz
property float y_axisx
property float y_axisy
property float y_axisz
property float z_axisx
property float z_axisy
property float z_axisz
property float focal
property float scalex
property float scaley
property float centerx
property float centery
property int viewportx
property int viewporty
property float k1
property float k2
end_header
-7.3579998 -3.438 2.066
-7.362 -3.4430001 2.0420001
-7.3590002 -3.441 2.017
-7.3600001 -3.441 1.992
-7.3530002 -3.434 1.966
-7.3600001 -3.4430001 1.942
-7.3639998 -3.448 1.918
-7.3610001 -3.4449999 1.893
-7.369 -3.4560001 1.87
-7.362 -3.447 1.8430001
-7.362 -3.447 1.819
-7.355 -3.4389999 1.7920001
-7.3610001 -3.447 1.7690001
-7.3800001 -3.471 1.748
-7.3499999 -3.4349999 1.717
-7.3520002 -3.438 1.693
-7.3499999 -3.4360001 1.668
-7.3439999 -3.431 1.5930001
-7.3520002 -3.441 1.5700001
-7.3629999 -3.4549999 1.5470001
-7.3569999 -3.448 1.521
-7.349 -3.438 1.495
-7.3470001 -3.4360001 1.47
-7.3460002 -3.4349999 1.446
-7.3520002 -3.444 1.4220001
-7.349 -3.4400001 1.397
-7.3470001 -3.4389999 1.372
-7.3540001 -3.448 1.349
-7.3530002 -3.4460001 1.324
-7.3470001 -3.4400001 1.299
-7.348 -3.441 1.274
-7.342 -3.4349999 1.249
-7.3509998 -3.4460001 1.226
-7.3070002 -3.3929999 1.1950001
-7.276 -3.3559999 1.166
-7.256 -3.3329999 1.1390001
-7.2579999 -3.3340001 1.115
-7.2550001 -3.332 1.091
-7.256 -3.3340001 1.066
-7.2600002 -3.3399999 1.043
-7.2519999 -3.3299999 1.018
-7.2509999 -3.329 0.99299997
-7.263 -3.345 0.97000003
-7.2639999 -3.346 0.94599998
-7.2839999 -3.3710001 0.92400002
-7.335 -3.4330001 0.90499997
-7.342 -3.4430001 0.88200003
-7.348 -3.45 0.85799998
-7.3429999 -3.4449999 0.833
-7.3439999 -3.447 0.80900002
-7.3470001 -3.45 0.78500003
-7.3520002 -3.457 0.76099998
-7.3369999 -3.4389999 0.73500001
-7.3379998 -3.441 0.71100003
-7.3410001 -3.4449999 0.68599999
-7.3379998 -3.4430001 0.662
-7.348 -3.4549999 0.63800001
-7.3390002 -3.4449999 0.61299998
-7.349 -3.4579999 0.58899999
-7.335 -3.441 0.56400001
-7.3379998 -3.444 0.54000002
-7.3429999 -3.451 0.51599997
-7.3319998 -3.438 0.491
-7.342 -3.451 0.46700001
-7.3390002 -3.448 0.442
-7.336 -3.4449999 0.41800001
-7.3460002 -3.457 0.39399999
-7.3400002 -3.45 0.36899999
-7.3429999 -3.4549999 0.345
-7.3439999 -3.4560001 0.32100001
-7.3410001 -3.4519999 0.296
-7.3309999 -3.4419999 0.27200001
-7.3280001 -3.438 0.24699999
-7.3249998 -3.4349999 0.223
-7.3410001 -3.4549999 0.199
-7.3379998 -3.4519999 0.17399999
-7.3369999 -3.45 0.15000001
-7.3299999 -3.4430001 0.126
-7.322 -3.434 0.101
-7.3340001 -3.4489999 0.077
-7.3280001 -3.4419999 0.052999999
-7.3309999 -3.4460001 0.028000001
-7.3390002 -3.457 0.0040000002
-7.368 -3.4920001 1.849
-7.3439999 -3.464 1.819
-7.3720002 -3.5 1.751
-7.3649998 -3.4920001 1.725
-7.3540001 -3.4790001 1.698
-7.3530002 -3.4790001 1.673
-7.3600001 -3.487 1.649
-7.362 -3.4909999 1.6
-7.3540001 -3.4809999 1.574
-7.4980001 -3.6570001 1.575
-7.4120002 -3.552 1.535
-7.349 -3.4760001 1.499
-7.3530002 -3.4820001 1.475
-7.3499999 -3.4779999 1.45
-7.355 -3.4849999 1.426
-7.3460002 -3.4749999 1.4
-7.348 -3.4779999 1.376
-7.3499999 -3.48 1.351
-7.3559999 -3.4890001 1.3279999
-7.3509998 -3.483 1.302
-7.355 -3.4879999 1.278
-7.355 -3.4890001 1.2539999
-7.3540001 -3.4890001 1.229
-7.3400002 -3.4719999 1.2029999
-7.2789998 -3.398 1.17
-7.2480001 -3.3599999 1.141
-7.2379999 -3.348 1.115
-7.2399998 -3.3510001 1.091
-7.2280002 -3.3380001 1.066
-7.2319999 -3.3429999 1.0420001
-7.2210002 -3.329 1.016
-7.2220001 -3.3310001 0.99199998
-7.2350001 -3.348 0.97000003
-7.23 -3.342 0.94499999
-7.2150002 -3.3239999 0.91900003
-7.2220001 -3.3329999 0.89600003
-7.3439999 -3.4820001 0.884
-7.349 -3.4890001 0.86000001
-7.3530002 -3.4949999 0.83600003
-7.3499999 -3.4920001 0.81099999
-7.3559999 -3.4990001 0.787
-7.3499999 -3.4920001 0.76200002
-7.3429999 -3.4849999 0.73699999
-7.3439999 -3.4849999 0.713
-7.3449998 -3.4890001 0.68900001
-7.3460002 -3.4909999 0.66399997
-7.3439999 -3.4879999 0.63999999
-7.3400002 -3.484 0.61500001
-7.3460002 -3.4920001 0.59100002
-7.3390002 -3.484 0.56599998
-7.342 -3.4879999 0.542
-7.3400002 -3.4860001 0.51700002
-7.3400002 -3.487 0.493
-7.3379998 -3.484 0.46799999
-7.3379998 -3.4849999 0.44400001
-7.3460002 -3.4949999 0.41999999
-7.3429999 -3.4920001 0.39500001
-7.342 -3.4909999 0.37099999
-7.3400002 -3.49 0.34599999
-7.3369999 -3.487 0.322
-7.3379998 -3.487 0.29699999
-7.3410001 -3.4920001 0.273
-7.3470001 -3.5 0.249
-7.335 -3.4849999 0.22400001
-7.3460002 -3.5 0.2
-7.3390002 -3.4920001 0.175
-7.3369999 -3.4890001 0.15099999
-7.3340001 -3.4860001 0.126
-7.3379998 -3.4920001 0.102
-7.3470001 -3.5039999 0.078000002
-7.3330002 -3.487 0.052999999
-7.3390002 -3.4949999 0.028999999
-7.3319998 -3.487 0.0040000002
-7.3639998 -3.529 1.728
-7.3540001 -3.5179999 1.702
-7.3499999 -3.513 1.676
-7.3530002 -3.516 1.652
-7.3590002 -3.5250001 1.579
-7.4949999 -3.6930001 1.5779999
-7.2849998 -3.4430001 1.173
-7.2680001 -3.4230001 1.147
-7.2290001 -3.3759999 1.117
-7.2059999 -3.348 1.09
-7.2030001 -3.345 1.0650001
-7.204 -3.3469999 1.041
-7.2049999 -3.349 1.017
-7.1999998 -3.342 0.99199998
-7.2069998 -3.352 0.96899998
-7.204 -3.3499999 0.94499999
-7.1989999 -3.3440001 0.92000002
-7.2030001 -3.349 0.89600003
-7.204 -3.3499999 0.87199998
-7.1950002 -3.3399999 0.847
-7.3460002 -3.5350001 0.37200001
-7.3410001 -3.529 0.32300001
-7.3309999 -3.5179999 0.29800001
-7.3410001 -3.5309999 0.27399999
-7.3379998 -3.527 0.25
-7.3520002 -3.5450001 0.22499999
-7.349 -3.5420001 0.20100001
-7.3340001 -3.5239999 0.176
-7.3410001 -3.5320001 0.152
-7.3400002 -3.533 0.127
-7.342 -3.536 0.103
-7.3509998 -3.5469999 0.079000004
-7.3649998 -3.5639999 0.054000001
-7.3460002 -3.5420001 0.028999999
-7.349 -3.546 0.0049999999
-7.3759999 -3.5829999 1.735
-7.3670001 -3.5710001 1.7079999
-7.3629999 -3.5669999 1.683
-7.3699999 -3.5769999 1.659
-7.3699999 -3.579 1.585
-7.25 -3.441 1.123
-7.2150002 -3.3989999 1.094
-7.1849999 -3.362 1.066
-7.1760001 -3.3510001 1.04
-7.177 -3.3529999 1.016
-7.171 -3.346 0.991
-7.1690001 -3.3440001 0.96700001
-7.1830001 -3.3610001 0.94400001
-7.177 -3.355 0.92000002
-7.1810002 -3.3599999 0.89600003
-7.177 -3.3559999 0.87199998
-7.1700001 -3.348 0.847
-7.1700001 -3.348 0.82300001
-7.4330001 -3.687 0.030999999
-7.4289999 -3.6830001 0.0060000001
-7.3800001 -3.6259999 1.74
-7.3769999 -3.6229999 1.714
-7.3699999 -3.615 1.688
-7.3730001 -3.619 1.664
-7.3730001 -3.6199999 1.6390001
-7.3709998 -3.619 1.589
-7.2199998 -3.4419999 1.097
-7.1880002 -3.404 1.069
-7.164 -3.375 1.0420001
-7.1529999 -3.362 1.016
-7.1459999 -3.3540001 0.991
-7.1500001 -3.359 0.96700001
-7.151 -3.3610001 0.94300002
-7.1550002 -3.3659999 0.92000002
-7.1560001 -3.368 0.89600003
-7.1599998 -3.3729999 0.87199998
-7.1479998 -3.359 0.847
-7.1490002 -3.3599999 0.82300001
-7.158 -3.372 0.79900002
-7.401 -3.691 1.748
-7.3699999 -3.654 1.717
-7.3740001 -3.6600001 1.693
-7.3790002 -3.6659999 1.669
-7.375 -3.661 1.643
-7.2030001 -3.46 1.073
-7.1690001 -3.418 1.045
-7.1389999 -3.382 1.017
-7.131 -3.372 0.99199998
-7.1290002 -3.3710001 0.96700001
-7.1170001 -3.3570001 0.94199997
-7.1269999 -3.3699999 0.91900003
-7.131 -3.375 0.89499998
-7.1259999 -3.369 0.87099999
-7.1329999 -3.378 0.847
-7.1240001 -3.368 0.82200003
-7.1220002 -3.365 0.79799998
-7.1240001 -3.368 0.77399999
-7.1129999 -3.355 0.74900001
-7.3769999 -3.7030001 1.673
-7.1750002 -3.4649999 1.048
-7.151 -3.4349999 1.021
-7.1160002 -3.3929999 0.99299997
-7.0929999 -3.365 0.96600002
-7.1079998 -3.3829999 0.94300002
-7.0960002 -3.369 0.91799998
-7.0910001 -3.3629999 0.89300001
-7.1009998 -3.3759999 0.87
-7.1100001 -3.388 0.847
-7.099 -3.375 0.82200003
-7.0970001 -3.3729999 0.79799998
-7.0910001 -3.3659999 0.773
-7.092 -3.3670001 0.74900001
-7.092 -3.369 0.72500002
-7.1550002 -3.4790001 1.024
-7.1409998 -3.4619999 0.99800003
-7.1040001 -3.4170001 0.97000003
-7.0739999 -3.3800001 0.94199997
-7.0770001 -3.3840001 0.91799998
-7.073 -3.3800001 0.89399999
-7.0819998 -3.391 0.87099999
-7.0700002 -3.3770001 0.84500003
-7.0679998 -3.375 0.82099998
-7.0749998 -3.3840001 0.79799998
-7.0689998 -3.3770001 0.773
-7.0700002 -3.3789999 0.74900001
-7.0770001 -3.388 0.72600001
-7.0760002 -3.388 0.70200002
-7.1160002 -3.471 0.97399998
-7.066 -3.4089999 0.94400001
-7.052 -3.392 0.91799998
-7.046 -3.3859999 0.89300001
-7.053 -3.395 0.87
-7.0450001 -3.385 0.84500003
-7.0489998 -3.3900001 0.82200003
-7.0489998 -3.391 0.79799998
-7.0440001 -3.3859999 0.773
-7.0510001 -3.3940001 0.75
-7.0479999 -3.391 0.72500002
-7.0489998 -3.392 0.70099998
-7.0380001 -3.3789999 0.67699999
-7.0960002 -3.4860001 0.94999999
-7.0650001 -3.447 0.92199999
-7.0310001 -3.405 0.89399999
-7.02 -3.391 0.86900002
-7.0289998 -3.4030001 0.84600002
-7.0209999 -3.3940001 0.82099998
-7.0219998 -3.395 0.79699999
-7.0100002 -3.381 0.77200001
-7.0139999 -3.3859999 0.74800003
-7.0110002 -3.3840001 0.72399998
-7.0149999 -3.3889999 0.70099998
-7.0250001 -3.402 0.67699999
-7.026 -3.4030001 0.653
-7.02 -3.3959999 0.62900001
-7.0630002 -3.483 0.92400002
-7.033 -3.4460001 0.89700001
-6.994 -3.3970001 0.86799997
-6.9990001 -3.4030001 0.84500003
-6.9990001 -3.405 0.82099998
-6.9910002 -3.395 0.796
-6.9980001 -3.404 0.773
-7.0079999 -3.4170001 0.75
-6.993 -3.398 0.72500002
-7.0029998 -3.411 0.70099998
-6.9910002 -3.3970001 0.676
-6.994 -3.402 0.653
-7.0009999 -3.411 0.62900001
-6.993 -3.401 0.60500002
-7.0510001 -3.507 0.90100002
-7.0229998 -3.4719999 0.87400001
-6.9879999 -3.428 0.84600002
-6.974 -3.4119999 0.82099998
-6.9629998 -3.398 0.796
-6.9699998 -3.4070001 0.77200001
-6.973 -3.4119999 0.74900001
-6.9679999 -3.405 0.72399998
-6.967 -3.405 0.69999999
-6.9720001 -3.4119999 0.67699999
-6.9660001 -3.405 0.65200001
-6.9640002 -3.402 0.62800002
-6.974 -3.415 0.60500002
-6.967 -3.408 0.58099997
-7.0170002 -3.503 0.87599999
-6.9980001 -3.48 0.85000002
-6.9699998 -3.4449999 0.82300001
-6.9530001 -3.424 0.79699999
-6.9450002 -3.414 0.77200001
-6.9330001 -3.3989999 0.74699998
-6.9460001 -3.4159999 0.72399998
-6.9429998 -3.414 0.69999999
-6.941 -3.411 0.676
-6.948 -3.4200001 0.653
-6.9330001 -3.401 0.62800002
-6.9390001 -3.4100001 0.60399997
-6.9400001 -3.411 0.57999998
-6.947 -3.421 0.55699998
-6.974 -3.4890001 0.82499999
-6.9390001 -3.4449999 0.79799998
-6.9169998 -3.4170001 0.77200001
-6.9169998 -3.418 0.74800003
-6.9120002 -3.411 0.72299999
-6.9219999 -3.424 0.69999999
-6.915 -3.4159999 0.676
-6.9200001 -3.4230001 0.65200001
-6.9169998 -3.4200001 0.62800002
-6.9239998 -3.4289999 0.60500002
-6.921 -3.4260001 0.58099997
-6.9239998 -3.431 0.55699998
-6.921 -3.427 0.53299999
-6.9239998 -3.4319999 0.509
-6.954 -3.503 0.801
-6.9169998 -3.457 0.77399999
-6.8920002 -3.424 0.74699998
-6.8990002 -3.434 0.72399998
-6.8969998 -3.431 0.69999999
-6.8969998 -3.4330001 0.676
-6.895 -3.4300001 0.65200001
-6.8889999 -3.4230001 0.62800002
-6.8860002 -3.4200001 0.60399997
-6.8870001 -3.421 0.57999998
-6.8870001 -3.4219999 0.55599999
-6.8940001 -3.431 0.53299999
-6.9000001 -3.4400001 0.509
-6.8829999 -3.4189999 0.484
-6.9419999 -3.527 0.778
-6.9200001 -3.4990001 0.75199997
-6.8779998 -3.4460001 0.72399998
-6.8649998 -3.4300001 0.699
-6.8629999 -3.427 0.67500001
-6.8730001 -3.4400001 0.65200001
-6.8699999 -3.438 0.62800002
-6.8639998 -3.431 0.60399997
-6.8649998 -3.4319999 0.57999998
-6.862 -3.4289999 0.55599999
-6.8600001 -3.4260001 0.53200001
-6.8629999 -3.431 0.50800002
-6.8660002 -3.4360001 0.48500001
-6.8740001 -3.4460001 0.461
-6.9050002 -3.5190001 0.75300002
-6.8850002 -3.494 0.727
-6.8499999 -3.45 0.69999999
-6.8410001 -3.438 0.67500001
-6.848 -3.447 0.65200001
-6.8390002 -3.437 0.62800002
-6.8429999 -3.4419999 0.60399997
-6.8449998 -3.4449999 0.57999998
-6.8530002 -3.4560001 0.55699998
-6.8439999 -3.4449999 0.53299999
-6.8319998 -3.4300001 0.50800002
-6.842 -3.4430001 0.48500001
-6.836 -3.4360001 0.461
-6.8379998 -3.4389999 0.43700001
-6.8850002 -3.5320001 0.72899997
-6.869 -3.513 0.704
-6.8340001 -3.4679999 0.67699999
-6.8260002 -3.4579999 0.65200001
-6.8049998 -3.431 0.62699997
-6.8179998 -3.448 0.60399997
-6.8179998 -3.4489999 0.57999998
-6.8119998 -3.4419999 0.55599999
-6.8130002 -3.444 0.53200001
-6.8130002 -3.444 0.50800002
-6.8070002 -3.438 0.484
-6.8080001 -3.438 0.46000001
-6.8260002 -3.4630001 0.43799999
-6.8169999 -3.4519999 0.41299999
-6.849 -3.526 0.68000001
-6.8140001 -3.4809999 0.653
-6.7930002 -3.4549999 0.62800002
-6.796 -3.4590001 0.60399997
-6.7839999 -3.444 0.579
-6.7870002 -3.4489999 0.55599999
-6.79 -3.454 0.53200001
-6.7880001 -3.451 0.50800002
-6.7909999 -3.4560001 0.48500001
-6.776 -3.437 0.46000001
-6.7859998 -3.45 0.43700001
-6.7859998 -3.451 0.41299999
-6.7919998 -3.46 0.38999999
-6.777 -3.441 0.36500001
-6.8249998 -3.536 0.65600002
-6.7940001 -3.4960001 0.63
-6.763 -3.4560001 0.60299999
-6.7589998 -3.451 0.579
-6.7649999 -3.46 0.55599999
-6.756 -3.4489999 0.53200001
-6.763 -3.4579999 0.50800002
-6.7659998 -3.4630001 0.48500001
-6.763 -3.46 0.461
-6.7670002 -3.4649999 0.43700001
-6.77 -3.47 0.414
-6.7610002 -3.4579999 0.389
-6.7649999 -3.4630001 0.366
-6.7480001 -3.4419999 0.34099999
-6.8070002 -3.553 0.63300002
-6.77 -3.506 0.60600001
-6.7449999 -3.473 0.57999998
-6.7459998 -3.4749999 0.55599999
-6.7309999 -3.4560001 0.53200001
-6.737 -3.4649999 0.50800002
-6.7290001 -3.454 0.484
-6.744 -3.4749999 0.461
-6.7379999 -3.4679999 0.43700001
-6.7329998 -3.461 0.41299999
-6.7449999 -3.477 0.38999999
-6.7329998 -3.4619999 0.366
-6.7360001 -3.467 0.34200001
-6.7329998 -3.464 0.31799999
-6.7789998 -3.556 0.60799998
-6.7550001 -3.5250001 0.583
-6.7350001 -3.4990001 0.55699998
-6.7189999 -3.4779999 0.53200001
-6.7189999 -3.4790001 0.509
-6.71 -3.4679999 0.484
-6.7199998 -3.4809999 0.461
-6.71 -3.47 0.43700001
-6.711 -3.471 0.41299999
-6.7049999 -3.4649999 0.389
-6.711 -3.473 0.366
-6.711 -3.473 0.34200001
-6.7210002 -3.4860001 0.31900001
-6.7049999 -3.4660001 0.294
-6.744 -3.549 0.583
-6.7280002 -3.529 0.55800003
-6.711 -3.507 0.53299999
-6.691 -3.4809999 0.50800002
-6.6799998 -3.467 0.484
-6.6859999 -3.4760001 0.461
-6.684 -3.473 0.43700001
-6.6950002 -3.4890001 0.414
-6.6900001 -3.483 0.38999999
-6.6989999 -3.4949999 0.366
-6.6869998 -3.48 0.34200001
-6.6929998 -3.4879999 0.31900001
-6.6939998 -3.49 0.29499999
-6.6869998 -3.4809999 0.271
-6.7160001 -3.5539999 0.53500003
-6.6890001 -3.5179999 0.50999999
-6.6659999 -3.4890001 0.48500001
-6.658 -3.4779999 0.46000001
-6.665 -3.487 0.43700001
-6.6620002 -3.484 0.41299999
-6.671 -3.497 0.38999999
-6.6680002 -3.494 0.366
-6.6599998 -3.483 0.34200001
-6.6630001 -3.487 0.31900001
-6.6659999 -3.4920001 0.29499999
-6.6630001 -3.4890001 0.271
-6.665 -3.4920001 0.248
-6.697 -3.5680001 0.51200002
-6.6729999 -3.5369999 0.48699999
-6.6500001 -3.507 0.461
-6.6430001 -3.4979999 0.43700001
-6.6399999 -3.494 0.41299999
-6.6430001 -3.4990001 0.38999999
-6.6339998 -3.4879999 0.366
-6.6290002 -3.4809999 0.34200001
-6.6440001 -3.5020001 0.31900001
-6.6350002 -3.49 0.29499999
-6.638 -3.4949999 0.271
-6.6350002 -3.4920001 0.248
-6.6469998 -3.5079999 0.22400001
-6.6339998 -3.4909999 0.2
-6.6729999 -3.576 0.48800001
-6.6609998 -3.5610001 0.46399999
-6.631 -3.5209999 0.43799999
-6.6209998 -3.5090001 0.414
-6.6030002 -3.4860001 0.389
-6.6149998 -3.5020001 0.366
-6.6220002 -3.5109999 0.34299999
-6.6160002 -3.5039999 0.31900001
-6.6100001 -3.4960001 0.29499999
-6.6129999 -3.5009999 0.271
-6.6160002 -3.506 0.248
-6.6069999 -3.494 0.22400001
-6.6160002 -3.507 0.20100001
-6.6160002 -3.507 0.177
-6.652 -3.589 0.465
-6.6209998 -3.5480001 0.43900001
-6.6100001 -3.5339999 0.41499999
-6.5910001 -3.5090001 0.38999999
-6.5819998 -3.4960001 0.366
-6.573 -3.4849999 0.34200001
-6.5879998 -3.506 0.31900001
-6.586 -3.5039999 0.29499999
-6.5819998 -3.4990001 0.271
-6.5760002 -3.4920001 0.248
-6.585 -3.5050001 0.22400001
-6.5780001 -3.4949999 0.2
-6.5970001 -3.5220001 0.177
-6.5999999 -3.526 0.154
-6.6149998 -3.5780001 0.41600001
-6.592 -3.549 0.391
-6.5640001 -3.5120001 0.366
-6.5599999 -3.507 0.34200001
-6.5630002 -3.5120001 0.31900001
-6.5500002 -3.4949999 0.29499999
-6.5479999 -3.493 0.271
-6.5619998 -3.5120001 0.248
-6.566 -3.5190001 0.22499999
-6.5560002 -3.5050001 0.20100001
-6.5630002 -3.516 0.177
-6.5689998 -3.5239999 0.154
-6.5599999 -3.513 0.13
-6.5570002 -3.5090001 0.106
-6.5949998 -3.5929999 0.39300001
-6.5640001 -3.552 0.36700001
-6.54 -3.5209999 0.34299999
-6.5380001 -3.5179999 0.31900001
-6.5440001 -3.527 0.296
-6.5469999 -3.5320001 0.27200001
-6.5440001 -3.5280001 0.248
-6.5349998 -3.517 0.22499999
-6.5349998 -3.517 0.20100001
-6.5349998 -3.5179999 0.177
-6.5380001 -3.5220001 0.154
-6.5349998 -3.5190001 0.13
-6.5469999 -3.5350001 0.107
-6.5430002 -3.53 0.082999997
-6.5770001 -3.6099999 0.36899999
-6.552 -3.5769999 0.345
-6.5089998 -3.5190001 0.31900001
-6.5040002 -3.513 0.29499999
-6.513 -3.526 0.27200001
-6.5159998 -3.53 0.248
-6.5159998 -3.5309999 0.22499999
-6.526 -3.5439999 0.20200001
-6.5079999 -3.52 0.177
-6.5170002 -3.5320001 0.154
-6.5050001 -3.517 0.13
-6.5159998 -3.533 0.107
-6.513 -3.53 0.082999997
-6.5029998 -3.516 0.059999999
-6.5479999 -3.6110001 0.34599999
-6.5339999 -3.592 0.32100001
-6.5079999 -3.5569999 0.296
-6.4910002 -3.536 0.27200001
-6.4889998 -3.5320001 0.248
-6.4920001 -3.5369999 0.22499999
-6.4920001 -3.5369999 0.20100001
-6.4860001 -3.53 0.178
-6.4829998 -3.526 0.154
-6.4970002 -3.5469999 0.131
-6.48 -3.523 0.107
-6.4819999 -3.5280001 0.083999999
-6.4970002 -3.5480001 0.059999999
-6.4889998 -3.5369999 0.035999998
-6.4980001 -3.585 0.29699999
-6.4819999 -3.5639999 0.273
-6.4629998 -3.5380001 0.249
-6.4510002 -3.523 0.22499999
-6.4720001 -3.552 0.20200001
-6.4710002 -3.5510001 0.178
-6.4580002 -3.5339999 0.154
-6.4720001 -3.553 0.131
-6.4660001 -3.5450001 0.107
-6.4569998 -3.5339999 0.083999999
-6.4629998 -3.5420001 0.059999999
-6.46 -3.5380001 0.037
-6.4629998 -3.543 0.013
-6.4949999 -3.622 0.27500001
-6.4640002 -3.579 0.25
-6.4439998 -3.552 0.22499999
-6.4380002 -3.5450001 0.20200001
-6.4320002 -3.5380001 0.178
-6.441 -3.55 0.155
-6.441 -3.5510001 0.131
-6.4499998 -3.563 0.108
-6.4530001 -3.5680001 0.083999999
-6.4380002 -3.5480001 0.061000001
-6.4439998 -3.556 0.037
-6.4320002 -3.5409999 0.014
-6.4629998 -3.619 0.25099999
-6.4510002 -3.602 0.227
-6.4180002 -3.5569999 0.20200001
-6.408 -3.5439999 0.178
-6.4099998 -3.5480001 0.155
-6.4099998 -3.549 0.131
-6.4070001 -3.5450001 0.108
-6.3979998 -3.533 0.083999999
-6.4070001 -3.546 0.061000001
-6.4159999 -3.5580001 0.037
-6.4099998 -3.55 0.014
-6.448 -3.6389999 0.228
-6.4219999 -3.6029999 0.20299999
-6.395 -3.566 0.17900001
-6.3839998 -3.552 0.155
-6.388 -3.5580001 0.132
-6.3829999 -3.5510001 0.108
-6.3850002 -3.5550001 0.085000001
-6.3909998 -3.5639999 0.061000001
-6.388 -3.5599999 0.037999999
-6.3850002 -3.556 0.014
-6.4180002 -3.6370001 0.204
-6.401 -3.615 0.18000001
-6.3709998 -3.5739999 0.156
-6.3649998 -3.566 0.132
-6.355 -3.552 0.108
-6.368 -3.5710001 0.085000001
-6.3629999 -3.5650001 0.061000001
-6.3720002 -3.5780001 0.037999999
-6.3520002 -3.5510001 0.014
-6.3899999 -3.6400001 0.15700001
-6.3610001 -3.6010001 0.133
-6.342 -3.5739999 0.109
-6.323 -3.549 0.085000001
-6.335 -3.5669999 0.061999999
-6.3340001 -3.566 0.037999999
-6.335 -3.5680001 0.015
-6.3649998 -3.6459999 0.133
-6.3340001 -3.6029999 0.109
-6.3049998 -3.5639999 0.085000001
-6.3140001 -3.5769999 0.061999999
-6.3109999 -3.5739999 0.039000001
-6.3080001 -3.5699999 0.015
-6.349 -3.6659999 0.11
-6.3249998 -3.6329999 0.086000003
-6.2930002 -3.5880001 0.061999999
-6.2859998 -3.579 0.039000001
-6.303 -3.6029999 0.016000001
-6.3270001 -3.675 0.086999997
-6.3039999 -3.6440001 0.063000001
-6.2750001 -3.6040001 0.039000001
-6.3039999 -3.684 0.064000003
-7.4260001 -2.7839999 2.888
-7.395 -2.7750001 2.8299999
-7.4660001 -2.8570001 2.839
-7.3959999 -2.8340001 2.776
-7.4120002 -2.8410001 2.7219999
-7.4260001 -2.846 2.6670001
-7.4520001 -2.8559999 2.6140001
-7.4860001 -2.868 2.5610001
-7.6020002 -2.908 2.5139999
-7.4050002 -2.8970001 2.724
-7.4439998 -2.911 2.671
-7.4349999 -2.9089999 2.615
-7.461 -2.918 2.5610001
-7.4679999 -2.9219999 2.506
-7.4330001 -2.967 2.6730001
-7.421 -2.964 2.6159999
-7.4499998 -2.9749999 2.563
-7.4660001 -2.9809999 2.5079999
-7.4660001 -2.9820001 2.4519999
-7.6209998 -3.036 2.408
-7.447 -3.0320001 2.6210001
-7.4299998 -3.027 2.563
-7.447 -3.0339999 2.5090001
-7.4749999 -3.0439999 2.4549999
-7.487 -3.049 2.4000001
-7.6149998 -3.0940001 2.3529999
-7.507 -3.1140001 2.572
-7.4629998 -3.098 2.5120001
-7.4439998 -3.0940001 2.4549999
-7.4650002 -3.102 2.401
-7.4980001 -3.1140001 2.3469999
-7.5809999 -3.1440001 2.2969999
-7.552 -3.188 2.5220001
-7.4460001 -3.152 2.457
-7.4580002 -3.158 2.402
-7.4640002 -3.1600001 2.3469999
-7.4840002 -3.168 2.2920001
-7.5289998 -3.1849999 2.2390001
-7.494 -3.22 2.9690001
-7.4980001 -3.223 2.9130001
-7.5159998 -3.23 2.859
-7.507 -3.227 2.802
-7.5339999 -3.2379999 2.7479999
-7.5240002 -3.2349999 2.691
-7.5139999 -3.2320001 2.6340001
-7.5079999 -3.2309999 2.5769999
-7.5120001 -3.234 2.5209999
-7.5570002 -3.25 2.4679999
-7.5180001 -3.237 2.4089999
-7.4899998 -3.2279999 2.3510001
-7.5240002 -3.2409999 2.2980001
-7.5609999 -3.2550001 2.244
-7.572 -3.26 2.1889999
-7.5430002 -3.2509999 2.1300001
-7.553 -3.2550001 2.075
-7.5419998 -3.2520001 2.0179999
-7.5630002 -3.26 1.9630001
-7.5500002 -3.256 1.9069999
-7.5430002 -3.2550001 1.85
-7.5570002 -3.2609999 1.795
-7.5640001 -3.2639999 1.739
-7.5539999 -3.2609999 1.682
-7.5380001 -3.257 1.626
-7.5469999 -3.26 1.5700001
-7.552 -3.263 1.5140001
-7.5419998 -3.2609999 1.4579999
-7.5679998 -3.27 1.403
-7.5599999 -3.2690001 1.346
-7.5599999 -3.2690001 1.29
-7.3829999 -3.2390001 2.961
-7.4060001 -3.2479999 2.9070001
-7.401 -3.247 2.8510001
-7.4229999 -3.256 2.7969999
-7.4039998 -3.25 2.7390001
-7.4130001 -3.2539999 2.684
-7.4169998 -3.256 2.628
-7.4299998 -3.2620001 2.573
-7.4099998 -3.256 2.5150001
-7.428 -3.263 2.461
-7.4169998 -3.26 2.404
-7.4400001 -3.2690001 2.3499999
-7.4380002 -3.2690001 2.2939999
-7.4419999 -3.2709999 2.2379999
-7.4439998 -3.2739999 2.1819999
-7.4330001 -3.2709999 2.125
-7.4510002 -3.277 2.0710001
-7.4299998 -3.2720001 2.013
-7.4369998 -3.2750001 1.9579999
-7.4450002 -3.279 1.902
-7.4330001 -3.276 1.846
-7.4359999 -3.2780001 1.79
-7.4289999 -3.276 1.734
-7.4359999 -3.279 1.678
-7.4660001 -3.2909999 1.624
-7.4450002 -3.2839999 1.567
-7.461 -3.2909999 1.512
-7.4439998 -3.286 1.455
-7.4460001 -3.2869999 1.399
-7.4250002 -3.2809999 1.3430001
-7.4359999 -3.2850001 1.2869999
-7.4180002 -3.28 1.2309999
-7.4250002 -3.283 1.175
-7.4499998 -3.293 1.12
-7.3670001 -3.293 2.9619999
-7.3670001 -3.2939999 2.9059999
-7.349 -3.2880001 2.849
-7.3610001 -3.293 2.7939999
-7.342 -3.2880001 2.7360001
-7.3509998 -3.2920001 2.681
-7.3499999 -3.2920001 2.625
-7.349 -3.2920001 2.569
-7.375 -3.303 2.5150001
-7.3379998 -3.29 2.4560001
-7.3649998 -3.3010001 2.402
-7.3540001 -3.2980001 2.346
-7.335 -3.2920001 2.2880001
-7.3579998 -3.3010001 2.234
-7.3540001 -3.3 2.178
-7.362 -3.3039999 2.1229999
-7.342 -3.2980001 2.066
-7.3460002 -3.3 2.01
-7.3649998 -3.3080001 1.955
-7.355 -3.3050001 1.899
-7.368 -3.3110001 1.844
-7.349 -3.3050001 1.7869999
-7.349 -3.3050001 1.7309999
-7.3530002 -3.3080001 1.676
-7.348 -3.3069999 1.62
-7.3499999 -3.3080001 1.564
-7.3439999 -3.309 1.508
-7.3400002 -3.3080001 1.452
-7.3460002 -3.3110001 1.397
-7.3579998 -3.316 1.342
-7.3460002 -3.313 1.285
-7.3390002 -3.3110001 1.23
-7.3590002 -3.319 1.175
-7.3379998 -3.313 1.118
-7.3429999 -3.3150001 1.063
-7.349 -3.3180001 1.007
-7.3449998 -3.3180001 0.95099998
-7.3670001 -3.352 2.9649999
-7.3629999 -3.3510001 2.9089999
-7.362 -3.352 2.852
-7.3520002 -3.349 2.796
-7.3699999 -3.3570001 2.7409999
-7.3649998 -3.3559999 2.6849999
-7.3600001 -3.355 2.628
-7.3540001 -3.3540001 2.572
-7.362 -3.3570001 2.516
-7.342 -3.3510001 2.4590001
-7.3520002 -3.355 2.404
-7.3600001 -3.359 2.348
-7.3540001 -3.358 2.2920001
-7.3569999 -3.3599999 2.2360001
-7.3610001 -3.362 2.181
-7.3629999 -3.3640001 2.125
-7.3429999 -3.3570001 2.0680001
-7.3720002 -3.369 2.0139999
-7.3379998 -3.3570001 1.956
-7.3740001 -3.3710001 1.902
-7.3429999 -3.3629999 1.845
-7.3540001 -3.3670001 1.789
-7.3449998 -3.365 1.733
-7.355 -3.369 1.678
-7.3610001 -3.372 1.622
-7.3400002 -3.3659999 1.566
-7.342 -3.3670001 1.51
-7.3499999 -3.3710001 1.455
-7.3520002 -3.372 1.399
-7.3439999 -3.3699999 1.3430001
-7.3540001 -3.375 1.2869999
-7.3340001 -3.369 1.2309999
-7.29 -3.3540001 1.174
-7.2579999 -3.3429999 1.117
-7.2449999 -3.3399999 1.061
-7.237 -3.3380001 1.005
-7.2329998 -3.3369999 0.94999999
-7.2750001 -3.3529999 0.89499998
-7.3449998 -3.378 0.84200001
-7.3720002 -3.3889999 0.78600001
-7.348 -3.381 0.73000002
-7.3769999 -3.415 2.9690001
-7.3709998 -3.4130001 2.9119999
-7.3850002 -3.4189999 2.8570001
-7.3979998 -3.425 2.802
-7.369 -3.415 2.744
-7.382 -3.421 2.6889999
-7.3860002 -3.4230001 2.6329999
-7.3860002 -3.424 2.5769999
-7.3720002 -3.4200001 2.52
-7.3800001 -3.424 2.464
-7.369 -3.421 2.4070001
-7.3720002 -3.4219999 2.352
-7.3629999 -3.4200001 2.2950001
-7.3740001 -3.425 2.24
-7.3720002 -3.425 2.184
-7.375 -3.427 2.128
-7.388 -3.4330001 2.073
-7.3720002 -3.428 2.016
-7.3660002 -3.4260001 1.96
-7.3909998 -3.4360001 1.905
-7.3579998 -3.425 1.847
-7.362 -3.428 1.7920001
-7.402 -3.4430001 1.738
-7.348 -3.424 1.679
-7.3590002 -3.4289999 1.624
-7.3569999 -3.4289999 1.568
-7.3579998 -3.4300001 1.512
-7.3639998 -3.4330001 1.457
-7.3839998 -3.4419999 1.402
-7.3670001 -3.4360001 1.345
-7.3499999 -3.431 1.289
-7.3540001 -3.4330001 1.233
-7.3080001 -3.418 1.176
-7.2680001 -3.405 1.119
-7.1849999 -3.3759999 1.061
-7.1490002 -3.3640001 1.0039999
-7.132 -3.358 0.94800001
-7.1279998 -3.358 0.89300001
-7.1430001 -3.3640001 0.838
-7.1739998 -3.3759999 0.78299999
-7.3579998 -3.4419999 0.73199999
-7.3569999 -3.4430001 0.676
-7.3439999 -3.441 0.62
-7.336 -3.4389999 0.56400001
-7.507 -3.5220001 2.927
-7.3740001 -3.4909999 1.794
-7.388 -3.497 1.739
-7.362 -3.4890001 1.682
-7.3590002 -3.4890001 1.626
-7.3800001 -3.497 1.571
-7.3759999 -3.4960001 1.515
-7.3790002 -3.4979999 1.459
-7.3579998 -3.4920001 1.403
-7.3790002 -3.5 1.348
-7.369 -3.497 1.291
-7.3759999 -3.5009999 1.2359999
-7.3779998 -3.5020001 1.1799999
-7.322 -3.483 1.122
-7.2129998 -3.4449999 1.063
-7.1440001 -3.421 1.006
-7.085 -3.4000001 0.949
-7.039 -3.385 0.89200002
-7.0300002 -3.3829999 0.83700001
-7.0359998 -3.3859999 0.78200001
-7.0599999 -3.395 0.727
-7.0450001 -3.3900001 0.671
-7.3559999 -3.5039999 0.62099999
-7.3610001 -3.507 0.56599998
-7.3520002 -3.5039999 0.50999999
-7.3520002 -3.506 0.398
-7.3829999 -3.5550001 1.7410001
-7.3660002 -3.55 1.684
-7.3829999 -3.556 1.6289999
-7.401 -3.5639999 1.574
-7.1659999 -3.4879999 1.008
-7.0890002 -3.461 0.94999999
-7.0339999 -3.4419999 0.89300001
-6.9970002 -3.4300001 0.83700001
-6.9380002 -3.4089999 0.78100002
-6.948 -3.415 0.72600001
-6.9489999 -3.4159999 0.671
-6.9489999 -3.4170001 0.616
-6.9400001 -3.415 0.56099999
-7.4000001 -3.6199999 1.744
-7.3790002 -3.6140001 1.687
-7.368 -3.6110001 1.63
-7.4260001 -3.632 1.577
-7.0609999 -3.5109999 0.89499998
-6.9980001 -3.4879999 0.83899999
-6.9429998 -3.4690001 0.78200001
-6.8920002 -3.4519999 0.72600001
-6.8410001 -3.434 0.67000002
-6.8600001 -3.4419999 0.616
-6.8699999 -3.4460001 0.56099999
-6.8379998 -3.4349999 0.50599998
-7.4520001 -3.6659999 0.064999998
-7.4239998 -3.688 1.747
-7.3839998 -3.675 1.689
-7.4000001 -3.6819999 1.6339999
-7.4439998 -3.6989999 1.58
-6.9910002 -3.5469999 0.78500003
-6.9200001 -3.5220001 0.72799999
-6.8499999 -3.497 0.67199999
-6.7989998 -3.4790001 0.616
-6.7670002 -3.4690001 0.56099999
-6.7529998 -3.464 0.50599998
-6.7540002 -3.467 0.396
-6.75 -3.4660001 0.34099999
-6.8709998 -3.563 0.67299998
-6.7940001 -3.536 0.61699998
-6.7579999 -3.5239999 0.56199998
-6.7119999 -3.5079999 0.50599998
-6.665 -3.4920001 0.396
-6.6420002 -3.484 0.34200001
-6.651 -3.4890001 0.287
-6.6589999 -3.4920001 0.23199999
-6.7880001 -3.5929999 0.56300002
-6.711 -3.566 0.50700003
-6.6090002 -3.53 0.39700001
-6.5770001 -3.5190001 0.34200001
-6.5539999 -3.5109999 0.28799999
-6.5679998 -3.517 0.233
-6.5630002 -3.516 0.17900001
-6.586 -3.5250001 0.124
-6.6129999 -3.5899999 0.398
-6.5679998 -3.573 0.34299999
-6.5110002 -3.553 0.28799999
-6.4499998 -3.5320001 0.234
-6.4499998 -3.5320001 0.17900001
-6.473 -3.5420001 0.125
-6.4780002 -3.5439999 0.071000002
-6.473 -3.543 0.016000001
-6.5890002 -3.6389999 0.34400001
-6.5110002 -3.6110001 0.289
-6.4640002 -3.595 0.235
-6.4180002 -3.5780001 0.18000001
-6.3759999 -3.563 0.126
-6.3759999 -3.5639999 0.071999997
-6.3709998 -3.563 0.017999999
-6.4910002 -3.661 0.236
-6.4359999 -3.642 0.18099999
-6.3569999 -3.6129999 0.127
-6.3150001 -3.598 0.072999999
-6.2719998 -3.5829999 0.018999999
-6.4239998 -3.6960001 0.12800001
-6.329 -3.661 0.072999999
-6.2909999 -3.6470001 0.018999999
-6.289 -3.704 0.02
-7.3969998 -2.474 2.961
-7.402 -2.527 2.9630001
-7.4260001 -2.529 2.914
-7.395 -2.5769999 2.964
-7.4159999 -2.579 2.914
-7.4250002 -2.5799999 2.8629999
-7.3930001 -2.628 2.9660001
-7.401 -2.6300001 2.915
-7.434 -2.632 2.8659999
-7.46 -2.6340001 2.816
-7.4530001 -2.6359999 2.7639999
-7.3940001 -2.6789999 2.967
-7.3889999 -2.681 2.915
-7.3870001 -2.6819999 2.8629999
-7.4219999 -2.6849999 2.8150001
-7.4310002 -2.6860001 2.7639999
-7.5190001 -2.6900001 2.7190001
-7.4169998 -2.733 2.9200001
-7.4039998 -2.734 2.8670001
-7.4159999 -2.7360001 2.816
-7.4380002 -2.7379999 2.766
-7.4679999 -2.7409999 2.717
-7.5760002 -2.7449999 2.674
-7.4250002 -2.786 2.8699999
-7.3779998 -2.786 2.8139999
-7.4120002 -2.79 2.766
-7.4200001 -2.7920001 2.7149999
-7.4510002 -2.7939999 2.665
-7.4749999 -2.7969999 2.6159999
-7.4369998 -2.8410001 2.8210001
-7.4050002 -2.8410001 2.767
-7.4530001 -2.845 2.7190001
-7.447 -2.846 2.6670001
-7.4489999 -2.8469999 2.615
-7.494 -2.8499999 2.5669999
-7.4590001 -2.895 2.773
-7.401 -2.8940001 2.717
-7.4369998 -2.8970001 2.668
-7.4549999 -2.8989999 2.6170001
-7.4980001 -2.902 2.569
-7.54 -2.905 2.52
-7.4819999 -2.9489999 2.7249999
-7.4060001 -2.947 2.6670001
-7.427 -2.95 2.6170001
-7.4439998 -2.9519999 2.5669999
-7.4510002 -2.954 2.5150001
-7.4689999 -2.9560001 2.4649999
-7.4889998 -3.0039999 2.675
-7.4219999 -3.0020001 2.618
-7.4320002 -3.0039999 2.5669999
-7.4650002 -3.007 2.5179999
-7.4710002 -3.0090001 2.467
-7.4910002 -3.0109999 2.4170001
-8.4870005 -3.119 0.090000004
-8.5200005 -3.1210001 0.035999998
-7.5050001 -3.0569999 2.6270001
-7.428 -3.056 2.569
-7.4549999 -3.0580001 2.5190001
-7.4559999 -3.0599999 2.4679999
-7.4679999 -3.062 2.4170001
-7.4829998 -3.0639999 2.3659999
-8.2180004 -3.152 0.41
-8.2589998 -3.155 0.35699999
-8.2799997 -3.1570001 0.30399999
-8.276 -3.1589999 0.25099999
-8.3100004 -3.161 0.198
-8.3190002 -3.1630001 0.145
-8.3240004 -3.165 0.092
-8.3540001 -3.168 0.039000001
-7.5370002 -3.1129999 2.579
-7.4400001 -3.1099999 2.52
-7.4429998 -3.112 2.4679999
-7.4640002 -3.1140001 2.418
-7.4860001 -3.1170001 2.368
-7.4860001 -3.118 2.316
-7.9400001 -3.1830001 0.72399998
-8.007 -3.188 0.67199999
-8.0080004 -3.1889999 0.62
-8.0240002 -3.191 0.56800002
-8.0340004 -3.1930001 0.51499999
-8.059 -3.1960001 0.463
-8.059 -3.197 0.41100001
-8.0799999 -3.2 0.35800001
-8.1149998 -3.2030001 0.30599999
-8.1470003 -3.2060001 0.25299999
-8.2060003 -3.211 0.2
-8.2370005 -3.214 0.147
-8.2869997 -3.2179999 0.093999997
-8.3109999 -3.22 0.041000001
-7.5279999 -3.165 2.5280001
-7.448 -3.1630001 2.47
-7.4520001 -3.164 2.4189999
-7.4970002 -3.168 2.3699999
-7.4840002 -3.1689999 2.3180001
-7.5139999 -3.171 2.2679999
-7.7329998 -3.2190001 0.98199999
-7.7800002 -3.2219999 0.93099999
-7.7950001 -3.224 0.87900001
-7.8150001 -3.227 0.82800001
-7.816 -3.2279999 0.77600002
-7.8270001 -3.23 0.72399998
-7.8470001 -3.2320001 0.67199999
-7.8730001 -3.2349999 0.62
-7.9070001 -3.2379999 0.56800002
-7.928 -3.2409999 0.51599997
-7.9660001 -3.244 0.46399999
-8.0220003 -3.2479999 0.412
-8.0469999 -3.2509999 0.36000001
-8.1120005 -3.2550001 0.30700001
-8.1260004 -3.257 0.255
-8.2010002 -3.2620001 0.20200001
-8.2609997 -3.267 0.149
-8.2939997 -3.27 0.096000001
-8.3439999 -3.273 0.041999999
-7.5489998 -3.2049999 2.947
-7.5100002 -3.2090001 2.7880001
-7.5510001 -3.2119999 2.7390001
-7.5190001 -3.2119999 2.6849999
-7.5240002 -3.2130001 2.6329999
-7.5430002 -3.2160001 2.5829999
-7.5409999 -3.217 2.5309999
-7.5739999 -3.22 2.4809999
-7.494 -3.2179999 2.424
-7.494 -3.2190001 2.372
-7.5289998 -3.2219999 2.323
-7.507 -3.223 2.2690001
-7.5359998 -3.2249999 2.2190001
-7.5229998 -3.2520001 1.237
-7.5560002 -3.2550001 1.186
-7.4829998 -3.253 1.132
-7.5739999 -3.2590001 1.0829999
-7.5650001 -3.26 1.031
-7.5770001 -3.2620001 0.98000002
-7.5780001 -3.263 0.92799997
-7.619 -3.267 0.87699997
-7.6830001 -3.2709999 0.82700002
-7.7220001 -3.2739999 0.77600002
-7.7659998 -3.2780001 0.72399998
-7.7849998 -3.28 0.67299998
-7.855 -3.2850001 0.62099999
-7.9050002 -3.289 0.56999999
-7.9400001 -3.2920001 0.51800001
-7.9990001 -3.2969999 0.46599999
-8.0439997 -3.3 0.414
-8.085 -3.3039999 0.361
-8.1230001 -3.3069999 0.30899999
-8.198 -3.312 0.25600001
-8.2469997 -3.316 0.20299999
-8.2969999 -3.3199999 0.15000001
-7.4689999 -3.2820001 0.050999999
-7.3899999 -3.2490001 2.9349999
-7.3899999 -3.25 2.8829999
-7.3790002 -3.2509999 2.8299999
-7.3930001 -3.253 2.78
-7.388 -3.2539999 2.7279999
-7.3920002 -3.256 2.6760001
-7.3959999 -3.2579999 2.625
-7.4099998 -3.26 2.5739999
-7.375 -3.26 2.52
-7.3839998 -3.2609999 2.4690001
-7.4060001 -3.2639999 2.4189999
-7.3909998 -3.2650001 2.3659999
-7.4050002 -3.267 2.316
-7.4029999 -3.2679999 2.2639999
-7.4120002 -3.27 2.2130001
-7.4099998 -3.2709999 2.161
-7.408 -3.273 2.1099999
-7.401 -3.2739999 2.0580001
-7.3940001 -3.2750001 2.006
-7.4070001 -3.277 1.955
-7.415 -3.279 1.904
-7.4130001 -3.28 1.852
-7.4099998 -3.2809999 1.801
-7.3930001 -3.2820001 1.748
-7.395 -3.283 1.697
-7.3979998 -3.2850001 1.645
-7.4349999 -3.2880001 1.596
-7.4219999 -3.289 1.544
-7.4089999 -3.29 1.492
-7.4060001 -3.2920001 1.4400001
-7.408 -3.2920001 1.3890001
-7.3899999 -3.293 1.337
-7.3969998 -3.296 1.285
-7.3779998 -3.296 1.233
-7.3649998 -3.2969999 1.182
-7.3499999 -3.2980001 1.13
-7.3730001 -3.3 1.079
-7.3790002 -3.302 1.028
-7.4050002 -3.3050001 0.977
-7.4260001 -3.3069999 0.926
-7.4169998 -3.3080001 0.875
-7.4180002 -3.3099999 0.82300001
-7.4289999 -3.312 0.77200001
-7.4239998 -3.313 0.72100002
-7.421 -3.3139999 0.66900003
-7.421 -3.3150001 0.61799997
-7.4369998 -3.3180001 0.56699997
-7.4349999 -3.319 0.51499999
-7.428 -3.3199999 0.46399999
-7.428 -3.3210001 0.412
-7.4429998 -3.3239999 0.361
-7.4679999 -3.326 0.31
-7.4530001 -3.3269999 0.25799999
-7.4429998 -3.3280001 0.207
-7.4419999 -3.329 0.155
-7.4569998 -3.3310001 0.104
-7.402 -3.3299999 0.052999999
-7.3779998 -3.3 2.9349999
-7.368 -3.3010001 2.8829999
-7.348 -3.3010001 2.829
-7.3730001 -3.3039999 2.78
-7.369 -3.3050001 2.7279999
-7.368 -3.306 2.6760001
-7.349 -3.3069999 2.6229999
-7.355 -3.309 2.572
-7.3870001 -3.312 2.523
-7.3579998 -3.312 2.4690001
-7.3759999 -3.3139999 2.4189999
-7.3730001 -3.3150001 2.3670001
-7.355 -3.316 2.3139999
-7.3639998 -3.3180001 2.263
-7.3600001 -3.319 2.211
-7.3470001 -3.3199999 2.1589999
-7.342 -3.3210001 2.1070001
-7.375 -3.3239999 2.0580001
-7.3569999 -3.3239999 2.0050001
-7.3590002 -3.326 1.954
-7.3610001 -3.3269999 1.903
-7.355 -3.3280001 1.851
-7.3390002 -3.329 1.799
-7.355 -3.3310001 1.748
-7.3319998 -3.3310001 1.6950001
-7.3319998 -3.3329999 1.6440001
-7.3759999 -3.3369999 1.595
-7.3530002 -3.3369999 1.5420001
-7.3769999 -3.3410001 1.492
-7.3579998 -3.3410001 1.4400001
-7.355 -3.342 1.388
-7.335 -3.3429999 1.336
-7.329 -3.3440001 1.285
-7.3530002 -3.346 1.234
-7.303 -3.345 1.181
-7.2449999 -3.3440001 1.128
-7.2119999 -3.3429999 1.076
-7.2030001 -3.3440001 1.025
-7.1890001 -3.345 0.97399998
-7.1950002 -3.3469999 0.92299998
-7.1810002 -3.3469999 0.87199998
-7.1700001 -3.348 0.81999999
-7.3400002 -3.358 0.77200001
-7.3439999 -3.3599999 0.72100002
-7.3439999 -3.3610001 0.67000002
-7.3449998 -3.3629999 0.61900002
-7.342 -3.3640001 0.56699997
-7.3670001 -3.3670001 0.51599997
-7.368 -3.368 0.465
-7.335 -3.368 0.41299999
-7.349 -3.3699999 0.36199999
-7.3390002 -3.3710001 0.31099999
-7.3299999 -3.372 0.25999999
-7.3610001 -3.375 0.208
-7.3299999 -3.375 0.15700001
-7.3499999 -3.3770001 0.106
-7.348 -3.3789999 0.055
-7.3390002 -3.3789999 0.003
-7.382 -3.352 2.937
-7.3709998 -3.352 2.885
-7.3839998 -3.355 2.8340001
-7.3800001 -3.3559999 2.7820001
-7.3860002 -3.358 2.7309999
-7.3839998 -3.359 2.6789999
-7.3779998 -3.3599999 2.6270001
-7.3639998 -3.3610001 2.5739999
-7.368 -3.362 2.523
-7.3610001 -3.3629999 2.471
-7.382 -3.3659999 2.421
-7.3600001 -3.3659999 2.368
-7.3600001 -3.3670001 2.316
-7.3920002 -3.3710001 2.267
-7.3610001 -3.3699999 2.2130001
-7.3590002 -3.372 2.161
-7.3629999 -3.3729999 2.1099999
-7.3860002 -3.3759999 2.0599999
-7.3590002 -3.3759999 2.007
-7.3639998 -3.378 1.956
-7.3569999 -3.3789999 1.904
-7.3709998 -3.381 1.853
-7.3559999 -3.381 1.801
-7.3629999 -3.3829999 1.75
-7.3439999 -3.3840001 1.698
-7.3520002 -3.385 1.647
-7.3649998 -3.3870001 1.596
-7.362 -3.3889999 1.544
-7.368 -3.3900001 1.493
-7.3600001 -3.391 1.442
-7.3759999 -3.3940001 1.391
-7.3569999 -3.3940001 1.339
-7.3629999 -3.3959999 1.288
-7.3670001 -3.3970001 1.2359999
-7.3010001 -3.395 1.183
-7.2519999 -3.3940001 1.13
-7.2090001 -3.3929999 1.0779999
-7.1459999 -3.391 1.025
-7.118 -3.391 0.97399998
-7.0539999 -3.3889999 0.921
-7.0300002 -3.3889999 0.87
-7.0310001 -3.3900001 0.81900001
-7.0219998 -3.391 0.76800001
-7.0120001 -3.392 0.71799999
-7.0120001 -3.3940001 0.667
-6.9959998 -3.3940001 0.616
-7.3509998 -3.415 0.56900001
-7.3340001 -3.415 0.51700002
-7.3590002 -3.418 0.46599999
-7.3499999 -3.4189999 0.41499999
-7.3460002 -3.4200001 0.36399999
-7.3610001 -3.4219999 0.31200001
-7.3530002 -3.4230001 0.26100001
-7.3610001 -3.425 0.20999999
-7.3410001 -3.425 0.15899999
-7.3439999 -3.427 0.107
-7.3460002 -3.428 0.056000002
-7.3390002 -3.431 0.0049999999
-7.381 -3.4030001 2.9389999
-7.395 -3.405 2.8889999
-7.3940001 -3.4070001 2.8369999
-7.4159999 -3.4089999 2.7869999
-7.3899999 -3.4089999 2.733
-7.3930001 -3.411 2.681
-7.395 -3.4119999 2.6300001
-7.3800001 -3.4130001 2.5769999
-7.3920002 -3.415 2.526
-7.3740001 -3.415 2.473
-7.3829999 -3.4170001 2.4230001
-7.3779998 -3.4189999 2.3710001
-7.401 -3.421 2.3210001
-7.388 -3.4219999 2.2679999
-7.3769999 -3.4230001 2.2160001
-7.3930001 -3.425 2.165
-7.388 -3.4260001 2.1129999
-7.3649998 -3.4260001 2.0599999
-7.3709998 -3.428 2.0090001
-7.3730001 -3.4289999 1.9579999
-7.3759999 -3.431 1.9069999
-7.3759999 -3.4330001 1.855
-7.362 -3.4330001 1.803
-7.3790002 -3.4349999 1.752
-7.355 -3.4360001 1.7
-7.369 -3.438 1.649
-7.3740001 -3.4389999 1.598
-7.3779998 -3.441 1.5470001
-7.4250002 -3.4449999 1.497
-7.3800001 -3.444 1.444
-7.3639998 -3.444 1.392
-7.362 -3.4460001 1.34
-7.3670001 -3.4489999 1.289
-7.3800001 -3.45 1.238
-7.3390002 -3.45 1.186
-7.2989998 -3.4489999 1.133
-7.2360001 -3.447 1.08
-7.1719999 -3.4449999 1.028
-7.1350002 -3.444 0.97600001
-7.0760002 -3.4419999 0.92299998
-7.0170002 -3.4400001 0.87099999
-6.9840002 -3.4400001 0.81999999
-6.9200001 -3.438 0.76800001
-6.8759999 -3.437 0.71700001
-6.8369999 -3.4360001 0.66600001
-6.8520002 -3.438 0.616
-6.8330002 -3.438 0.565
-6.8140001 -3.4389999 0.51499999
-6.848 -3.4419999 0.465
-6.777 -3.4389999 0.414
-6.8140001 -3.4430001 0.36399999
-7.3629999 -3.4749999 0.31400001
-7.3629999 -3.4760001 0.26300001
-7.3449998 -3.477 0.211
-7.3429999 -3.4779999 0.16
-7.3379998 -3.4790001 0.109
-7.3569999 -3.4820001 0.057
-7.3579998 -3.483 0.0060000001
-7.48 -3.46 2.95
-7.4959998 -3.4619999 2.8989999
-7.4970002 -3.464 2.848
-7.3740001 -3.4679999 2.424
-7.368 -3.4690001 2.372
-7.3769999 -3.471 2.3210001
-7.3720002 -3.473 2.2690001
-7.3829999 -3.4760001 2.2179999
-7.3850002 -3.4760001 2.1659999
-7.3889999 -3.4779999 2.115
-7.3930001 -3.4809999 2.0639999
-7.4060001 -3.483 2.013
-7.3930001 -3.483 1.961
-7.4029999 -3.4849999 1.91
-7.368 -3.4849999 1.857
-7.3790002 -3.487 1.806
-7.4120002 -3.49 1.756
-7.3870001 -3.49 1.7029999
-7.3649998 -3.49 1.651
-7.4029999 -3.494 1.601
-7.3930001 -3.4949999 1.549
-7.3649998 -3.494 1.4960001
-7.369 -3.4960001 1.4450001
-7.3779998 -3.4979999 1.3940001
-7.3720002 -3.4990001 1.342
-7.3579998 -3.5 1.291
-7.3649998 -3.5009999 1.239
-7.3709998 -3.503 1.188
-7.3839998 -3.5050001 1.137
-7.3709998 -3.506 1.086
-7.355 -3.506 1.034
-7.132 -3.4949999 0.977
-7.0780001 -3.493 0.92500001
-7.0440001 -3.493 0.87300003
-6.9910002 -3.4909999 0.82200003
-6.927 -3.4890001 0.76999998
-6.8930001 -3.4879999 0.71899998
-6.8439999 -3.487 0.66799998
-6.8000002 -3.4860001 0.61699998
-6.7309999 -3.483 0.56599998
-6.711 -3.483 0.51499999
-6.6729999 -3.4820001 0.465
-6.6680002 -3.483 0.41499999
-6.658 -3.484 0.36500001
-6.6630001 -3.4860001 0.315
-6.612 -3.484 0.26499999
-6.6430001 -3.487 0.214
-7.369 -3.5309999 0.162
-7.3800001 -3.533 0.11
-7.368 -3.5339999 0.059
-7.3769999 -3.536 0.0080000004
-7.4899998 -3.513 2.9530001
-7.427 -3.5409999 1.758
-7.3660002 -3.539 1.704
-7.3850002 -3.5420001 1.653
-7.3779998 -3.543 1.601
-7.0040002 -3.543 0.82300001
-6.9590001 -3.5409999 0.77200001
-6.8800001 -3.5380001 0.72000003
-6.8509998 -3.5380001 0.66900003
-6.8119998 -3.5369999 0.61799997
-6.7329998 -3.533 0.56699997
-6.6929998 -3.5320001 0.51700002
-6.665 -3.5320001 0.46599999
-6.6100001 -3.53 0.41600001
-6.5549998 -3.5280001 0.366
-6.5159998 -3.527 0.31600001
-6.4910002 -3.527 0.266
-6.4910002 -3.5280001 0.21600001
-6.4809999 -3.529 0.167
-6.4959998 -3.5309999 0.117
-6.4980001 -3.533 0.067000002
-6.5050001 -3.5350001 0.017000001
-7.4060001 -3.5929999 1.707
-7.3699999 -3.5940001 1.654
-7.402 -3.5969999 1.604
-6.7979999 -3.5880001 0.56900001
-6.7350001 -3.585 0.51899999
-6.691 -3.5840001 0.46799999
-6.6570001 -3.5829999 0.41800001
-6.5669999 -3.579 0.36700001
-6.552 -3.579 0.317
-6.4829998 -3.576 0.26800001
-6.4679999 -3.5769999 0.21799999
-6.3930001 -3.5739999 0.168
-6.3390002 -3.572 0.119
-6.3189998 -3.572 0.07
-6.2979999 -3.572 0.02
-7.4130001 -3.645 1.761
-7.402 -3.6459999 1.709
-7.4039998 -3.6470001 1.6569999
-7.3920002 -3.648 1.605
-7.4780002 -3.655 1.558
-6.6240001 -3.6329999 0.36899999
-6.5689998 -3.6300001 0.31900001
-6.5100002 -3.628 0.26899999
-6.4349999 -3.625 0.219
-6.395 -3.6229999 0.17
-6.3559999 -3.622 0.12
-6.316 -3.6210001 0.071000002
-7.401 -3.6960001 1.762
-7.381 -3.6960001 1.709
-7.3920002 -3.698 1.658
-7.4050002 -3.7 1.608
-6.4569998 -3.678 0.171
-6.3920002 -3.6760001 0.122
-6.3119998 -3.6719999 0.072999999
-6.2719998 -3.6700001 0.023
-7.5409999 -2.474 2.9649999
-7.4850001 -2.47 2.96
-7.5029998 -2.4760001 2.9519999
-7.5430002 -2.4890001 2.9519999
-7.5549998 -2.493 2.941
-7.4349999 -2.4679999 2.9579999
-7.454 -2.474 2.95
-7.4850001 -2.4849999 2.947
-7.5079999 -2.4920001 2.9400001
-7.5300002 -2.4990001 2.9330001
-7.3930001 -2.4679999 2.9579999
-7.3940001 -2.4679999 2.9430001
-7.427 -2.48 2.941
-7.4559999 -2.4890001 2.937
-7.4759998 -2.4960001 2.9289999
-7.5 -2.5039999 2.9230001
-7.553 -2.5220001 2.928
-7.566 -2.526 2.9170001
-7.3769999 -2.477 2.9690001
-7.3850002 -2.48 2.957
-7.395 -2.483 2.9449999
-7.381 -2.4779999 2.924
-7.415 -2.49 2.9219999
-7.4460001 -2.5 2.9189999
-7.4770002 -2.51 2.915
-7.5050001 -2.52 2.9100001
-7.5380001 -2.5309999 2.908
-7.5650001 -2.54 2.902
-7.3850002 -2.494 2.9590001
-7.382 -2.493 2.9419999
-7.3920002 -2.4960001 2.9300001
-7.4159999 -2.5050001 2.924
-7.4190001 -2.506 2.9100001
-7.4460001 -2.5150001 2.905
-7.48 -2.526 2.9030001
-7.5139999 -2.5380001 2.9000001
-7.5349998 -2.5450001 2.8929999
-7.5689998 -2.556 2.8900001
-7.5770001 -2.559 2.8610001
-7.592 -2.5639999 2.852
-7.369 -2.503 2.9690001
-7.3779998 -2.506 2.957
-7.369 -2.503 2.9389999
-7.3790002 -2.506 2.927
-7.3860002 -2.5090001 2.914
-7.3909998 -2.51 2.901
-7.4289999 -2.523 2.9000001
-7.4419999 -2.5280001 2.8900001
-7.473 -2.5380001 2.8859999
-7.5100002 -2.5510001 2.885
-7.5469999 -2.5639999 2.8829999
-7.5580001 -2.5669999 2.872
-7.6040001 -2.5829999 2.8740001
-7.5910001 -2.5780001 2.8529999
-7.5419998 -2.562 2.819
-7.5830002 -2.575 2.8180001
-7.553 -2.5650001 2.7920001
-7.5560002 -2.566 2.777
-7.5380001 -2.5599999 2.7550001
-7.54 -2.5610001 2.74
-7.5300002 -2.5580001 2.721
-7.5300002 -2.5580001 2.7060001
-7.368 -2.517 2.9549999
-7.3769999 -2.52 2.944
-7.395 -2.526 2.9349999
-7.3790002 -2.5209999 2.9130001
-7.3889999 -2.5239999 2.902
-7.395 -2.526 2.8889999
-7.4200001 -2.5350001 2.8829999
-7.441 -2.5420001 2.875
-7.4559999 -2.5469999 2.8659999
-7.5009999 -2.562 2.8670001
-7.54 -2.576 2.8670001
-7.5450001 -2.5769999 2.8529999
-7.3649998 -2.53 2.9560001
-7.3699999 -2.5320001 2.9419999
-7.3699999 -2.5320001 2.927
-7.3790002 -2.5350001 2.915
-7.3839998 -2.5369999 2.901
-7.4039998 -2.5439999 2.8940001
-7.401 -2.543 2.8770001
-7.4029999 -2.543 2.862
-7.4559999 -2.562 2.868
-7.4759998 -2.5680001 2.8599999
-7.4970002 -2.576 2.852
-7.5190001 -2.5829999 2.845
-7.5570002 -2.596 2.8429999
-7.3509998 -2.54 2.967
-7.3470001 -2.539 2.95
-7.3649998 -2.5450001 2.9419999
-7.3740001 -2.5480001 2.9300001
-7.3829999 -2.5510001 2.918
-7.388 -2.552 2.905
-7.388 -2.553 2.8889999
-7.401 -2.5569999 2.8789999
-7.4109998 -2.5599999 2.8670001
-7.4070001 -2.559 2.8499999
-7.4429998 -2.572 2.849
-7.4689999 -2.5810001 2.8429999
-7.5100002 -2.595 2.8429999
-7.533 -2.6029999 2.836
-7.5469999 -2.608 2.826
-7.3600001 -2.5580001 2.957
-7.3740001 -2.562 2.947
-7.368 -2.5599999 2.9300001
-7.3769999 -2.563 2.918
-7.395 -2.569 2.9089999
-7.3660002 -2.559 2.882
-7.3839998 -2.566 2.8740001
-7.375 -2.563 2.855
-7.4050002 -2.573 2.8510001
-7.401 -2.572 2.8340001
-7.4330001 -2.5829999 2.8310001
-7.4679999 -2.595 2.829
-7.5019999 -2.6059999 2.826
-7.5289998 -2.6159999 2.8210001
-7.5489998 -2.6229999 2.813
-7.3720002 -2.576 2.964
-7.3759999 -2.5769999 2.95
-7.3699999 -2.575 2.9319999
-7.395 -2.5840001 2.927
-7.3790002 -2.5780001 2.905
-7.388 -2.5810001 2.8929999
-7.3860002 -2.5810001 2.8770001
-7.3959999 -2.5840001 2.865
-7.3969998 -2.585 2.8499999
-7.402 -2.586 2.836
-7.4070001 -2.5880001 2.823
-7.448 -2.602 2.823
-7.474 -2.6110001 2.8169999
-7.506 -2.6229999 2.8139999
-7.5310001 -2.632 2.8080001
-7.5489998 -2.638 2.799
-7.5500002 -2.638 2.783
-7.3790002 -2.5929999 2.9690001
-7.368 -2.589 2.9489999
-7.3720002 -2.5910001 2.9349999
-7.368 -2.589 2.918
-7.3829999 -2.5940001 2.908
-7.3870001 -2.596 2.8940001
-7.3969998 -2.599 2.8829999
-7.4109998 -2.6040001 2.872
-7.3920002 -2.5969999 2.8499999
-7.3979998 -2.599 2.836
-7.4130001 -2.605 2.8269999
-7.4250002 -2.609 2.816
-7.4439998 -2.615 2.8080001
-7.4619999 -2.622 2.799
-7.4970002 -2.635 2.7969999
-7.533 -2.6470001 2.7939999
-7.5370002 -2.648 2.78
-7.559 -2.6559999 2.773
-7.3660002 -2.6029999 2.9649999
-7.3800001 -2.608 2.9549999
-7.3699999 -2.605 2.9360001
-7.3569999 -2.5999999 2.915
-7.3769999 -2.6070001 2.908
-7.3730001 -2.6059999 2.891
-7.3899999 -2.612 2.882
-7.3779998 -2.6070001 2.8610001
-7.4039998 -2.6170001 2.8559999
-7.3979998 -2.6140001 2.8380001
-7.3920002 -2.612 2.8210001
-7.4099998 -2.618 2.812
-7.415 -2.6199999 2.7980001
-7.421 -2.6229999 2.7850001
-7.4569998 -2.635 2.783
-7.4970002 -2.6489999 2.783
-7.5240002 -2.6589999 2.777
-7.539 -2.664 2.767
-7.5510001 -2.668 2.756
-7.355 -2.6140001 2.9630001
-7.3449998 -2.6099999 2.9430001
-7.3629999 -2.6159999 2.9349999
-7.3889999 -2.6259999 2.9300001
-7.382 -2.6229999 2.911
-7.3649998 -2.6170001 2.8889999
-7.375 -2.6199999 2.8770001
-7.3909998 -2.6259999 2.868
-7.4060001 -2.631 2.859
-7.3889999 -2.625 2.836
-7.3889999 -2.625 2.8210001
-7.4060001 -2.631 2.812
-7.3979998 -2.628 2.7939999
-7.414 -2.6340001 2.7839999
-7.4260001 -2.638 2.773
-7.4569998 -2.6489999 2.77
-7.4879999 -2.6600001 2.7650001
-7.5240002 -2.6730001 2.763
-7.553 -2.6830001 2.7579999
-7.5489998 -2.6819999 2.7409999
-7.369 -2.632 2.97
-7.3559999 -2.628 2.9489999
-7.3470001 -2.625 2.9300001
-7.3720002 -2.6340001 2.925
-7.368 -2.6329999 2.908
-7.382 -2.6370001 2.898
-7.3660002 -2.632 2.8759999
-7.3709998 -2.6329999 2.862
-7.3670001 -2.632 2.845
-7.3889999 -2.6400001 2.8380001
-7.3940001 -2.642 2.825
-7.408 -2.6459999 2.8150001
-7.3940001 -2.641 2.7939999
-7.395 -2.642 2.779
