ply
format ascii 1.0
comment PCL generated
element vertex 1594
property float x
property float y
property float z
element camera 0
property float view_px
property float view_py
property float view_pz
property float x_axisx
property float x_axisy
property float x_axisz
property float y_axisx
property float y_axisy
property float y_axisz
property float z_axisx
property float z_axisy
property float z_axisz
property float focal
property float scalex
property float scaley
property float centerx
property float centery
property int viewportx
property int viewporty
property float k1
property float k2
end_header
-0.78899997 -3.822 2.536
-0.78399998 -3.835 2.5190001
-0.78399998 -3.835 2.51
-0.79100001 -3.8199999 2.51
-0.79100001 -3.819 2.5009999
-0.78799999 -3.826 2.4879999
-0.67900002 -4.1259999 1.24
-0.685 -4.1100001 1.237
-0.68000001 -4.1220002 1.227
-0.66600001 -4.158 1.21
-0.66299999 -4.165 1.202
-0.65899998 -4.177 1.192
-0.64999998 -4.197 1.1799999
-0.653 -4.1919999 1.174
-0.64300001 -4.2160001 1.161
-0.64700001 -4.2059999 1.1569999
-0.64399999 -4.2140002 1.148
-0.64499998 -4.2119999 1.142
-0.63999999 -4.2249999 1.132
-0.63999999 -4.223 1.125
-0.639 -4.2259998 1.118
-0.63599998 -4.2340002 1.109
-0.63499999 -4.237 1.102
-0.63599998 -4.2360001 1.096
-0.63200003 -4.244 1.087
-0.63499999 -4.2379999 1.082
-0.639 -4.2290001 1.077
-0.63599998 -4.2350001 1.069
-0.63700002 -4.2340002 1.063
-0.639 -4.2280002 1.057
-0.63599998 -4.2360001 1.049
-0.63300002 -4.244 1.04
-0.63700002 -4.2340002 1.036
-0.63200003 -4.2459998 1.027
-0.64200002 -4.2220001 1.025
-0.639 -4.23 1.017
-0.63499999 -4.2379999 1.0089999
-0.63999999 -4.2280002 1.0039999
-0.63999999 -4.2270002 0.99800003
-0.63700002 -4.2350001 0.98900002
-0.634 -4.243 0.98100001
-0.63800001 -4.2319999 0.977
-0.63800001 -4.2309999 0.97000003
-0.64099997 -4.2259998 0.96499997
-0.64300001 -4.2210002 0.95899999
-0.64499998 -4.2150002 0.954
-0.64399999 -4.2179999 0.94700003
-0.648 -4.2080002 0.94199997
-0.65200001 -4.198 0.93699998
-0.65899998 -4.1799998 0.93400002
-0.69700003 -4.105 0.153
-0.69 -4.1220002 0.147
-0.70899999 -4.0739999 0.139
-0.70700002 -4.0809999 0.132
-0.73199999 -4.0180001 0.123
-0.73799998 -4.0019999 0.115
-0.72399998 -4.039 0.11
-0.72899997 -4.0250001 0.103
-0.727 -4.0300002 0.096000001
-0.72899997 -4.026 0.089000002
-0.727 -4.0310001 0.082999997
-0.71899998 -4.0500002 0.077
-0.727 -4.0310001 0.068999998
-0.72299999 -4.0409999 0.063000001
-0.73199999 -4.0180001 0.055
-0.72799999 -4.0279999 0.048
-0.72799999 -4.0279999 0.041999999
-0.72100002 -4.0469999 0.035999998
-0.73400003 -4.0149999 0.027000001
-0.72799999 -4.0300002 0.021
-0.72600001 -4.0349998 0.015
-0.73000002 -4.026 0.0070000002
-0.88099998 -3.6040001 2.9920001
-0.88 -3.6070001 2.9790001
-0.86799997 -3.6370001 2.948
-0.852 -3.6760001 2.9119999
-0.84500003 -3.6949999 2.8889999
-0.82800001 -3.7379999 2.8510001
-0.81999999 -3.757 2.8280001
-0.80599999 -3.793 2.7950001
-0.79699999 -3.8169999 2.77
-0.792 -3.8280001 2.7520001
-0.78299999 -3.852 2.7279999
-0.77999997 -3.8599999 2.7130001
-0.77700001 -3.8659999 2.6989999
-0.77600002 -3.8699999 2.687
-0.78200001 -3.8559999 2.6860001
-0.77899998 -3.8629999 2.6719999
-0.78100002 -3.8570001 2.6670001
-0.77899998 -3.8629999 2.654
-0.78100002 -3.858 2.6470001
-0.77899998 -3.862 2.635
-0.77700001 -3.868 2.622
-0.78200001 -3.8570001 2.619
-0.77899998 -3.8629999 2.6059999
-0.778 -3.8659999 2.595
-0.78299999 -3.8540001 2.5929999
-0.78899997 -3.8410001 2.592
-0.78500003 -3.8499999 2.5769999
-0.77899998 -3.8670001 2.5580001
-0.77899998 -3.8659999 2.549
-0.78200001 -3.858 2.5439999
-0.77999997 -3.865 2.5309999
-0.79000002 -3.839 2.5369999
-0.78799999 -3.845 2.5239999
-0.78899997 -3.842 2.517
-0.78799999 -3.845 2.506
-0.78899997 -3.8429999 2.4979999
-0.79000002 -3.8410001 2.49
-0.79400003 -3.8299999 2.487
-0.78899997 -3.8440001 2.47
-0.68699998 -4.1209998 1.249
-0.69199997 -4.1100001 1.245
-0.68300003 -4.1329999 1.232
-0.67699999 -4.1469998 1.221
-0.676 -4.1500001 1.2130001
-0.662 -4.1849999 1.197
-0.65600002 -4.2010002 1.186
-0.65799999 -4.1960001 1.181
-0.653 -4.2069998 1.171
-0.65200001 -4.21 1.163
-0.65100002 -4.2129998 1.156
-0.65200001 -4.2119999 1.149
-0.64700001 -4.224 1.1390001
-0.653 -4.2090001 1.136
-0.64600003 -4.2259998 1.126
-0.64099997 -4.2379999 1.1160001
-0.64600003 -4.2270002 1.112
-0.64399999 -4.2309999 1.104
-0.64700001 -4.2249999 1.099
-0.63800001 -4.2459998 1.087
-0.639 -4.2449999 1.081
-0.64300001 -4.2340002 1.076
-0.64200002 -4.2379999 1.069
-0.648 -4.223 1.066
-0.64300001 -4.2350001 1.056
-0.64700001 -4.2249999 1.052
-0.64399999 -4.2329998 1.044
-0.64300001 -4.2360001 1.036
-0.64099997 -4.2389998 1.029
-0.64399999 -4.2340002 1.023
-0.64399999 -4.2329998 1.017
-0.64099997 -4.2410002 1.0089999
-0.64600003 -4.23 1.0039999
-0.64399999 -4.2340002 0.99699998
-0.64099997 -4.2420001 0.98900002
-0.64499998 -4.2309999 0.98400003
-0.63999999 -4.244 0.97500002
-0.64600003 -4.2309999 0.97100002
-0.64999998 -4.2199998 0.96700001
-0.653 -4.211 0.96200001
-0.65700001 -4.2020001 0.95700002
-0.65100002 -4.2179999 0.94700003
-0.65399998 -4.21 0.94199997
-0.671 -4.1690001 0.94300002
-0.704 -4.0900002 0.79500002
-0.69300002 -4.1290002 0.24600001
-0.69700003 -4.119 0.233
-0.69199997 -4.132 0.227
-0.70300001 -4.1059999 0.22
-0.69 -4.1360002 0.214
-0.69499999 -4.125 0.193
-0.68699998 -4.1459999 0.18700001
-0.69800001 -4.119 0.18000001
-0.69199997 -4.1329999 0.17399999
-0.70599997 -4.0999999 0.16599999
-0.69499999 -4.1279998 0.161
-0.70300001 -4.1069999 0.153
-0.713 -4.0819998 0.146
-0.73900002 -4.0180001 0.13600001
-0.741 -4.0149999 0.12899999
-0.73199999 -4.0359998 0.123
-0.73400003 -4.0320001 0.116
-0.73199999 -4.0370002 0.11
-0.72799999 -4.046 0.104
-0.73199999 -4.0370002 0.096000001
-0.72799999 -4.0469999 0.090000004
-0.72600001 -4.052 0.083999999
-0.72399998 -4.0570002 0.077
-0.73699999 -4.0250001 0.068999998
-0.73299998 -4.0339999 0.061999999
-0.72899997 -4.0440001 0.056000002
-0.73100001 -4.04 0.048999999
-0.727 -4.0489998 0.043000001
-0.73299998 -4.0359998 0.035
-0.73299998 -4.0359998 0.028999999
-0.73100001 -4.0409999 0.022
-0.73000002 -4.0419998 0.015
-0.73199999 -4.0380001 0.0080000004
-0.89499998 -3.5899999 2.993
-0.875 -3.6400001 2.9489999
-0.85900003 -3.6789999 2.9119999
-0.84899998 -3.7060001 2.8840001
-0.84100002 -3.7249999 2.8610001
-0.82999998 -3.7520001 2.8340001
-0.81900001 -3.78 2.806
-0.80299997 -3.819 2.77
-0.79400003 -3.8429999 2.7449999
-0.78600001 -3.862 2.723
-0.78200001 -3.8729999 2.7060001
-0.78600001 -3.862 2.7030001
-0.77999997 -3.878 2.6830001
-0.78299999 -3.8729999 2.677
-0.78100002 -3.8759999 2.6659999
-0.78100002 -3.8770001 2.6559999
-0.78100002 -3.878 2.6459999
-0.78500003 -3.8670001 2.6440001
-0.78200001 -3.875 2.6289999
-0.77999997 -3.881 2.615
-0.77899998 -3.8829999 2.605
-0.77999997 -3.8800001 2.5969999
-0.77999997 -3.882 2.5869999
-0.78200001 -3.8770001 2.5810001
-0.78200001 -3.8770001 2.5710001
-0.792 -3.852 2.5780001
-0.78200001 -3.8770001 2.553
-0.78200001 -3.8770001 2.5439999
-0.78600001 -3.868 2.54
-0.78399998 -3.872 2.5280001
-0.78799999 -3.862 2.5250001
-0.78600001 -3.8670001 2.513
-0.787 -3.8670001 2.5039999
-0.78799999 -3.8640001 2.497
-0.792 -3.8529999 2.493
-0.78899997 -3.862 2.4790001
-0.792 -3.855 2.474
-0.79299998 -3.8510001 2.467
-0.79100001 -3.8570001 2.4549999
-0.69199997 -4.1279998 1.262
-0.69400001 -4.1220002 1.257
-0.70200002 -4.1030002 1.255
-0.69199997 -4.1279998 1.2410001
-0.68400002 -4.1479998 1.228
-0.67799997 -4.1630001 1.217
-0.67299998 -4.1750002 1.207
-0.67000002 -4.1830001 1.198
-0.66500002 -4.1960001 1.188
-0.662 -4.2020001 1.1799999
-0.65899998 -4.21 1.171
-0.65799999 -4.2129998 1.163
-0.653 -4.224 1.153
-0.65700001 -4.2150002 1.149
-0.64700001 -4.2399998 1.136
-0.648 -4.2379999 1.13
-0.65200001 -4.2280002 1.126
-0.653 -4.2270002 1.119
-0.64999998 -4.2340002 1.1109999
-0.64999998 -4.2329998 1.104
-0.653 -4.2270002 1.099
-0.65200001 -4.23 1.091
-0.64999998 -4.2340002 1.084
-0.65100002 -4.2319999 1.0779999
-0.64600003 -4.2449999 1.068
-0.65399998 -4.2249999 1.066
-0.64700001 -4.2420001 1.0549999
-0.64999998 -4.2360001 1.05
-0.64999998 -4.2350001 1.044
-0.65100002 -4.2340002 1.0369999
-0.65100002 -4.2329998 1.031
-0.648 -4.2420001 1.022
-0.64999998 -4.2350001 1.017
-0.65499997 -4.2249999 1.013
-0.64999998 -4.237 1.003
-0.65200001 -4.2319999 0.99800003
-0.64300001 -4.2529998 0.98699999
-0.653 -4.2290001 0.98500001
-0.653 -4.23 0.97799999
-0.65700001 -4.2189999 0.97399998
-0.65700001 -4.2199998 0.96700001
-0.662 -4.2080002 0.963
-0.662 -4.2069998 0.95599997
-0.662 -4.2090001 0.949
-0.667 -4.1960001 0.94499999
-0.69300002 -4.131 0.95099998
-0.69400001 -4.1290002 0.92400002
-0.70599997 -4.1009998 0.90899998
-0.72100002 -4.0640001 0.90799999
-0.70999998 -4.0929999 0.86900002
-0.71200001 -4.0879998 0.85000002
-0.70099998 -4.1149998 0.83899999
-0.69800001 -4.1230001 0.83099997
-0.70200002 -4.1129999 0.82599998
-0.708 -4.0970001 0.82099998
-0.699 -4.1199999 0.81099999
-0.70300001 -4.1090002 0.80599999
-0.69300002 -4.1360002 0.79500002
-0.699 -4.1220002 0.79100001
-0.70200002 -4.112 0.78500003
-0.69999999 -4.119 0.778
-0.69800001 -4.125 0.76999998
-0.69999999 -4.119 0.764
-0.69300002 -4.1370001 0.755
-0.699 -4.1209998 0.75
-0.70300001 -4.112 0.745
-0.70700002 -4.1020002 0.74000001
-0.69499999 -4.1329999 0.72899997
-0.70599997 -4.105 0.72600001
-0.70599997 -4.105 0.71899998
-0.70099998 -4.1170001 0.71100003
-0.70999998 -4.0939999 0.70700002
-0.69199997 -4.1389999 0.69499999
-0.70099998 -4.119 0.69
-0.70099998 -4.119 0.68400002
-0.69300002 -4.138 0.67500001
-0.70300001 -4.112 0.671
-0.70599997 -4.1069999 0.66500002
-0.69400001 -4.1350002 0.65499997
-0.69300002 -4.1389999 0.648
-0.69499999 -4.1339998 0.64200002
-0.69999999 -4.1209998 0.63700002
-0.70999998 -4.0960002 0.63300002
-0.69599998 -4.132 0.62199998
-0.70200002 -4.118 0.61699998
-0.69999999 -4.1220002 0.61000001
-0.69400001 -4.1360002 0.602
-0.69800001 -4.1269999 0.59600002
-0.69300002 -4.1399999 0.58899999
-0.69499999 -4.1339998 0.583
-0.69400001 -4.1370001 0.57599998
-0.70700002 -4.105 0.57200003
-0.69 -4.1469998 0.56199998
-0.69800001 -4.1269999 0.55699998
-0.69400001 -4.1370001 0.54900002
-0.69800001 -4.1279998 0.54299998
-0.70499998 -4.112 0.53799999
-0.699 -4.1259999 0.52999997
-0.69400001 -4.1389999 0.523
-0.69199997 -4.1440001 0.51599997
-0.69599998 -4.1339998 0.50999999
-0.70200002 -4.1199999 0.50400001
-0.70599997 -4.1100001 0.498
-0.699 -4.1269999 0.49000001
-0.699 -4.1279998 0.484
-0.69300002 -4.1420002 0.47600001
-0.70899999 -4.1040001 0.465
-0.69199997 -4.145 0.45699999
-0.69400001 -4.1399999 0.44999999
-0.69599998 -4.1360002 0.44400001
-0.68699998 -4.1589999 0.43599999
-0.704 -4.118 0.43099999
-0.69499999 -4.1389999 0.42399999
-0.69499999 -4.1389999 0.417
-0.70200002 -4.1220002 0.41100001
-0.69 -4.152 0.40400001
-0.69999999 -4.1259999 0.398
-0.69199997 -4.1469998 0.391
-0.69099998 -4.1490002 0.384
-0.69 -4.152 0.37799999
-0.69800001 -4.1339998 0.37099999
-0.69400001 -4.1420002 0.36500001
-0.69599998 -4.138 0.35800001
-0.69599998 -4.138 0.352
-0.69199997 -4.1469998 0.345
-0.68900001 -4.1550002 0.338
-0.70499998 -4.1149998 0.33199999
-0.69599998 -4.138 0.32499999
-0.699 -4.132 0.31900001
-0.70200002 -4.1230001 0.31200001
-0.69999999 -4.1279998 0.30599999
-0.69099998 -4.151 0.29899999
-0.69099998 -4.151 0.292
-0.69700003 -4.1360002 0.28600001
-0.69099998 -4.152 0.27900001
-0.699 -4.132 0.273
-0.69400001 -4.145 0.266
-0.699 -4.132 0.25999999
-0.68599999 -4.165 0.25299999
-0.68599999 -4.165 0.24699999
-0.69800001 -4.1360002 0.23999999
-0.69599998 -4.1399999 0.233
-0.69199997 -4.1500001 0.227
-0.69400001 -4.1459999 0.22
-0.69199997 -4.1500001 0.214
-0.69599998 -4.1409998 0.207
-0.69499999 -4.1420002 0.20100001
-0.69199997 -4.1500001 0.19400001
-0.69800001 -4.1360002 0.18700001
-0.69999999 -4.131 0.18000001
-0.69499999 -4.1440001 0.17399999
-0.69099998 -4.1539998 0.168
-0.72600001 -4.0689998 0.15800001
-0.73500001 -4.046 0.15099999
-0.736 -4.0440001 0.14399999
-0.73500001 -4.0469999 0.13699999
-0.73100001 -4.0570002 0.131
-0.73100001 -4.0570002 0.124
-0.73199999 -4.053 0.117
-0.73199999 -4.053 0.111
-0.73199999 -4.053 0.104
-0.73199999 -4.0539999 0.097000003
-0.72500002 -4.073 0.090999998
-0.73000002 -4.059 0.083999999
-0.72799999 -4.0640001 0.078000002
-0.736 -4.046 0.07
-0.73199999 -4.0549998 0.064000003
-0.736 -4.0469999 0.056000002
-0.73199999 -4.0560002 0.050000001
-0.73299998 -4.052 0.043000001
-0.73699999 -4.0430002 0.035999998
-0.73299998 -4.053 0.029999999
-0.73699999 -4.0440001 0.022
-0.73299998 -4.0539999 0.016000001
-0.72899997 -4.0630002 0.0099999998
-0.89999998 -3.598 2.9790001
-0.87400001 -3.6619999 2.925
-0.86000001 -3.697 2.892
-0.84399998 -3.7360001 2.8559999
-0.83499998 -3.7590001 2.8310001
-0.81900001 -3.7980001 2.7950001
-0.815 -3.8099999 2.7780001
-0.80800003 -3.826 2.7579999
-0.796 -3.8570001 2.7279999
-0.78799999 -3.8770001 2.7049999
-0.78299999 -3.8889999 2.688
-0.77999997 -3.8970001 2.6730001
-0.77999997 -3.8970001 2.664
-0.78100002 -3.8959999 2.655
-0.77999997 -3.898 2.645
-0.77600002 -3.9089999 2.628
-0.78200001 -3.8940001 2.628
-0.77600002 -3.908 2.6099999
-0.77899998 -3.901 2.605
-0.77999997 -3.8989999 2.5969999
-0.78299999 -3.8929999 2.5910001
-0.78399998 -3.8900001 2.5840001
-0.778 -3.904 2.566
-0.77899998 -3.902 2.5580001
-0.79100001 -3.872 2.5669999
-0.78899997 -3.878 2.5539999
-0.78299999 -3.8940001 2.5350001
-0.78799999 -3.881 2.5339999
-0.778 -3.9070001 2.5090001
-0.78799999 -3.8829999 2.5139999
-0.78799999 -3.8829999 2.5050001
-0.79000002 -3.8770001 2.4990001
-0.79699999 -3.8599999 2.5009999
-0.79000002 -3.8759999 2.4820001
-0.79500002 -3.865 2.4790001
-0.78899997 -3.881 2.461
-0.79299998 -3.872 2.457
-0.792 -3.875 2.4460001
-0.78799999 -3.8829999 2.4330001
-0.71499997 -4.0890002 1.288
-0.70099998 -4.1230001 1.271
-0.69999999 -4.125 1.263
-0.70700002 -4.1090002 1.261
-0.69999999 -4.1259999 1.249
-0.68800002 -4.1550002 1.234
-0.685 -4.1630001 1.225
-0.67699999 -4.184 1.2130001
-0.67000002 -4.1999998 1.201
-0.67199999 -4.1950002 1.196
-0.66799998 -4.2059999 1.186
-0.66500002 -4.2129998 1.177
-0.66399997 -4.2160001 1.17
-0.662 -4.2189999 1.1619999
-0.66500002 -4.2129998 1.1569999
-0.65799999 -4.23 1.146
-0.65700001 -4.2329998 1.138
-0.66100001 -4.223 1.1339999
-0.66000003 -4.2259998 1.127
-0.65899998 -4.2290001 1.119
-0.66299999 -4.2189999 1.115
-0.65799999 -4.2319999 1.105
-0.653 -4.243 1.096
-0.65799999 -4.2329998 1.091
-0.662 -4.223 1.087
-0.65899998 -4.23 1.079
-0.65899998 -4.2290001 1.072
-0.65200001 -4.2459998 1.062
-0.66000003 -4.2270002 1.0599999
-0.64999998 -4.2519999 1.0470001
-0.66500002 -4.2150002 1.049
-0.65499997 -4.2410002 1.036
-0.65700001 -4.2350001 1.031
-0.66299999 -4.2199998 1.027
-0.65799999 -4.2329998 1.018
-0.65799999 -4.2329998 1.012
-0.65700001 -4.2350001 1.0039999
-0.662 -4.2249999 1
-0.662 -4.224 0.99299997
-0.65899998 -4.2319999 0.98500001
-0.653 -4.2459998 0.97600001
-0.667 -4.2119999 0.97600001
-0.66600001 -4.2160001 0.96899998
-0.66500002 -4.2179999 0.96100003
-0.67299998 -4.1989999 0.95899999
-0.68199998 -4.177 0.95599997
-0.69499999 -4.145 0.95599997
-0.69800001 -4.1360002 0.94999999
-0.69499999 -4.1440001 0.94199997
-0.70499998 -4.1209998 0.94
-0.70700002 -4.1149998 0.93400002
-0.704 -4.1220002 0.926
-0.704 -4.1220002 0.91900003
-0.70700002 -4.1160002 0.91299999
-0.70099998 -4.1300001 0.90399998
-0.69999999 -4.1329999 0.89700001
-0.69700003 -4.1409998 0.889
-0.70499998 -4.1220002 0.88499999
-0.69999999 -4.1339998 0.87599999
-0.69800001 -4.138 0.86900002
-0.699 -4.1360002 0.86299998
-0.70700002 -4.1170001 0.85900003
-0.70599997 -4.1209998 0.852
-0.704 -4.125 0.84399998
-0.70499998 -4.1230001 0.838
-0.70499998 -4.1220002 0.83099997
-0.708 -4.1160002 0.82499999
-0.70599997 -4.119 0.81800002
-0.713 -4.1040001 0.81400001
-0.70499998 -4.1220002 0.80400002
-0.704 -4.125 0.79699999
-0.70499998 -4.1240001 0.79100001
-0.70700002 -4.119 0.78500003
-0.70599997 -4.1220002 0.778
-0.70599997 -4.1209998 0.77100003
-0.70599997 -4.1220002 0.764
-0.708 -4.1160002 0.75800002
-0.71200001 -4.1069999 0.75300002
-0.713 -4.1040001 0.74599999
-0.70700002 -4.1209998 0.73699999
-0.70300001 -4.1290002 0.73000002
-0.70999998 -4.1129999 0.72500002
-0.713 -4.1059999 0.71899998
-0.71399999 -4.1040001 0.713
-0.708 -4.1170001 0.704
-0.71399999 -4.1030002 0.699
-0.70999998 -4.1139998 0.69099998
-0.70999998 -4.1129999 0.685
-0.71499997 -4.1030002 0.67900002
-0.71700001 -4.0960002 0.67299998
-0.70999998 -4.1149998 0.66500002
-0.70899999 -4.1170001 0.65799999
-0.71100003 -4.1110001 0.65200001
-0.71200001 -4.1110001 0.64499998
-0.71100003 -4.1129999 0.63800001
-0.70999998 -4.1139998 0.63099998
-0.71600002 -4.1009998 0.62599999
-0.71399999 -4.105 0.61900002
-0.70999998 -4.1160002 0.611
-0.70999998 -4.1160002 0.60399997
-0.71399999 -4.1059999 0.59899998
-0.708 -4.1209998 0.59100002
-0.708 -4.1209998 0.58399999
-0.70700002 -4.1220002 0.57700002
-0.708 -4.1199999 0.57099998
-0.70999998 -4.1160002 0.56400001
-0.71499997 -4.1030002 0.55900002
-0.70999998 -4.1170001 0.551
-0.70700002 -4.1230001 0.54400003
-0.71100003 -4.1129999 0.53799999
-0.708 -4.1220002 0.53100002
-0.713 -4.1100001 0.52499998
-0.70300001 -4.1339998 0.51700002
-0.71200001 -4.112 0.51200002
-0.71100003 -4.1149998 0.505
-0.70899999 -4.1199999 0.498
-0.70499998 -4.1290002 0.491
-0.71200001 -4.1139998 0.48500001
-0.708 -4.1240001 0.47799999
-0.70999998 -4.119 0.47099999
-0.708 -4.1230001 0.46399999
-0.71399999 -4.1090002 0.45899999
-0.713 -4.1110001 0.45199999
-0.70700002 -4.1269999 0.44400001
-0.71399999 -4.1100001 0.43900001
-0.708 -4.1240001 0.43099999
-0.70899999 -4.1209998 0.42500001
-0.70899999 -4.1209998 0.41800001
-0.71200001 -4.1139998 0.412
-0.70700002 -4.1259999 0.405
-0.70599997 -4.1300001 0.398
-0.71399999 -4.1100001 0.39199999
-0.70599997 -4.1300001 0.38499999
-0.708 -4.125 0.37799999
-0.704 -4.1339998 0.37200001
-0.71100003 -4.1170001 0.36500001
-0.70899999 -4.1230001 0.359
-0.70599997 -4.1300001 0.352
-0.71399999 -4.1110001 0.34599999
-0.71499997 -4.1090002 0.33899999
-0.713 -4.1149998 0.33199999
-0.708 -4.1269999 0.32600001
-0.70899999 -4.1240001 0.31900001
-0.70700002 -4.1279998 0.31200001
-0.708 -4.1279998 0.30599999
-0.70599997 -4.131 0.29899999
-0.70899999 -4.1240001 0.29300001
-0.70599997 -4.131 0.28600001
-0.70999998 -4.1230001 0.27900001
-0.70899999 -4.1240001 0.273
-0.70300001 -4.1389999 0.266
-0.70599997 -4.1329999 0.25999999
-0.708 -4.1269999 0.25299999
-0.708 -4.1290002 0.24600001
-0.70599997 -4.132 0.23999999
-0.71100003 -4.1220002 0.233
-0.713 -4.1170001 0.226
-0.70499998 -4.1360002 0.22
-0.70899999 -4.1259999 0.213
-0.71100003 -4.1220002 0.207
-0.708 -4.1279998 0.2
-0.71100003 -4.1209998 0.193
-0.70899999 -4.1269999 0.18700001
-0.71600002 -4.1110001 0.18000001
-0.70599997 -4.1329999 0.17399999
-0.70999998 -4.1240001 0.167
-0.72399998 -4.0910001 0.15899999
-0.71799999 -4.1059999 0.153
-0.72000003 -4.1020002 0.146
-0.72799999 -4.0799999 0.139
-0.72299999 -4.0929999 0.133
-0.727 -4.0830002 0.125
-0.72100002 -4.098 0.119
-0.72500002 -4.0879998 0.112
-0.72100002 -4.098 0.106
-0.72100002 -4.098 0.098999999
-0.72299999 -4.0939999 0.093000002
-0.72100002 -4.098 0.086000003
-0.72100002 -4.099 0.079999998
-0.72299999 -4.0949998 0.072999999
-0.71700001 -4.1090002 0.067000002
-0.72299999 -4.0949998 0.059
-0.72500002 -4.0910001 0.052000001
-0.72500002 -4.0910001 0.046
-0.72799999 -4.0830002 0.037999999
-0.72799999 -4.0830002 0.032000002
-0.73199999 -4.0739999 0.024
-0.73000002 -4.079 0.017999999
-0.72600001 -4.0890002 0.012
-0.73000002 -4.0799999 0.0049999999
-0.89600003 -3.6259999 2.951
-0.88099998 -3.665 2.915
-0.85299999 -3.7349999 2.859
-0.85000002 -3.7420001 2.8440001
-0.83600003 -3.777 2.8110001
-0.82499999 -3.8050001 2.783
-0.81400001 -3.8329999 2.7550001
-0.80599999 -3.852 2.7320001
-0.79100001 -3.8870001 2.7
-0.787 -3.9000001 2.6830001
-0.77999997 -3.9159999 2.6630001
-0.77899998 -3.9200001 2.651
-0.778 -3.9219999 2.641
-0.77899998 -3.9200001 2.632
-0.78200001 -3.9119999 2.628
-0.78299999 -3.9089999 2.6210001
-0.78100002 -3.915 2.6070001
-0.77899998 -3.921 2.5940001
-0.78399998 -3.908 2.5929999
-0.77999997 -3.918 2.5780001
-0.77899998 -3.921 2.566
-0.78299999 -3.911 2.5639999
-0.78200001 -3.915 2.552
-0.78200001 -3.9130001 2.5439999
-0.79100001 -3.892 2.5480001
-0.787 -3.902 2.5320001
-0.78200001 -3.914 2.5150001
-0.78299999 -3.911 2.5079999
-0.787 -3.904 2.503
-0.78799999 -3.901 2.4960001
-0.78799999 -3.9000001 2.487
-0.78500003 -3.908 2.474
-0.78899997 -3.8989999 2.47
-0.79100001 -3.895 2.4630001
-0.78399998 -3.9119999 2.444
-0.79500002 -3.8840001 2.451
-0.792 -3.8929999 2.437
-0.79699999 -3.8800001 2.4360001
-0.796 -3.8840001 2.425
-0.71799999 -4.086 1.823
-0.72000003 -4.0830002 1.747
-0.70999998 -4.1090002 1.706
-0.70899999 -4.1100001 1.676
-0.727 -4.0669999 1.67
-0.72399998 -4.0760002 1.636
-0.71799999 -4.0910001 1.623
-0.71700001 -4.0929999 1.6
-0.71799999 -4.092 1.586
-0.72000003 -4.086 1.5650001
-0.71399999 -4.1020002 1.552
-0.71899998 -4.0890002 1.549
-0.70899999 -4.1139998 1.533
-0.71499997 -4.0999999 1.531
-0.71799999 -4.0939999 1.526
-0.713 -4.1069999 1.507
-0.708 -4.118 1.495
-0.71499997 -4.1009998 1.487
-0.72500002 -4.0780001 1.487
-0.71899998 -4.092 1.475
-0.713 -4.1059999 1.4630001
-0.71799999 -4.0960002 1.452
-0.72000003 -4.0890002 1.447
-0.72500002 -4.079 1.443
-0.71899998 -4.0939999 1.431
-0.71700001 -4.0970001 1.4220001
-0.72000003 -4.0910001 1.4170001
-0.713 -4.1079998 1.39
-0.71399999 -4.1059999 1.3839999
-0.71100003 -4.1129999 1.36
-0.71799999 -4.0970001 1.35
-0.72100002 -4.0900002 1.345
-0.71600002 -4.1030002 1.334
-0.713 -4.1100001 1.325
-0.71200001 -4.1129999 1.317
-0.70599997 -4.1269999 1.299
-0.713 -4.1110001 1.2970001
-0.72000003 -4.0939999 1.294
-0.71200001 -4.112 1.2819999
-0.704 -4.1329999 1.2690001
-0.72100002 -4.092 1.274
-0.704 -4.1339998 1.255
-0.704 -4.132 1.248
-0.69800001 -4.1490002 1.237
-0.68400002 -4.1830001 1.22
-0.67699999 -4.1999998 1.209
-0.67199999 -4.211 1.199
-0.671 -4.2140002 1.192
-0.67199999 -4.2119999 1.1849999
-0.66799998 -4.2210002 1.176
-0.66900003 -4.2189999 1.17
-0.676 -4.204 1.1670001
-0.66500002 -4.2290001 1.154
-0.667 -4.224 1.148
-0.66299999 -4.2350001 1.138
-0.662 -4.2389998 1.131
-0.662 -4.237 1.125
-0.66799998 -4.223 1.1210001
-0.667 -4.2259998 1.114
-0.66600001 -4.2290001 1.107
-0.65899998 -4.2459998 1.096
-0.667 -4.2259998 1.094
-0.66000003 -4.243 1.0829999
-0.66299999 -4.237 1.0779999
-0.66100001 -4.2399998 1.0700001
-0.662 -4.2389998 1.064
-0.66600001 -4.2290001 1.0599999
-0.66500002 -4.2319999 1.052
-0.66600001 -4.2309999 1.046
-0.66600001 -4.23 1.039
-0.667 -4.2290001 1.033
-0.66399997 -4.2360001 1.025
-0.66600001 -4.2309999 1.0190001
-0.66799998 -4.2249999 1.0140001
-0.66000003 -4.2470002 1.002
-0.671 -4.2179999 1.002
-0.66799998 -4.2259998 0.99400002
-0.66500002 -4.2340002 0.98500001
-0.667 -4.2280002 0.98000002
-0.67299998 -4.2140002 0.97600001
-0.68099999 -4.1939998 0.97299999
-0.68000001 -4.198 0.96600002
-0.69400001 -4.164 0.96600002
-0.70899999 -4.1269999 0.96600002
-0.72000003 -4.1009998 0.96499997
-0.72100002 -4.099 0.958
-0.72000003 -4.0999999 0.95099998
-0.71600002 -4.1110001 0.94199997
-0.72299999 -4.0939999 0.93900001
-0.722 -4.0970001 0.93099999
-0.72000003 -4.1009998 0.92400002
-0.72000003 -4.1020002 0.917
-0.71700001 -4.1079998 0.90899998
-0.71799999 -4.1069999 0.90200001
-0.71700001 -4.1100001 0.89499998
-0.71899998 -4.105 0.889
-0.71600002 -4.112 0.88099998
-0.72100002 -4.0999999 0.87599999
-0.71399999 -4.1170001 0.866
-0.72100002 -4.0999999 0.86199999
-0.71799999 -4.1079998 0.85399997
-0.71499997 -4.1160002 0.84600002
-0.71899998 -4.1059999 0.84100002
-0.71499997 -4.1149998 0.833
-0.72000003 -4.1030002 0.82800001
-0.71899998 -4.1069999 0.82099998
-0.71899998 -4.1059999 0.81400001
-0.71799999 -4.1100001 0.80699998
-0.71600002 -4.1139998 0.79900002
-0.71499997 -4.1170001 0.792
-0.71499997 -4.1170001 0.78500003
-0.71499997 -4.1160002 0.77899998
-0.71399999 -4.1199999 0.77200001
-0.71600002 -4.1139998 0.76599997
-0.71600002 -4.1129999 0.759
-0.72100002 -4.1030002 0.75400001
-0.713 -4.1209998 0.74400002
-0.71600002 -4.1160002 0.73799998
-0.71600002 -4.1149998 0.73199999
-0.713 -4.1240001 0.72399998
-0.71700001 -4.1139998 0.71899998
-0.713 -4.1220002 0.71100003
-0.71399999 -4.1220002 0.704
-0.71200001 -4.125 0.69700003
-0.71600002 -4.1160002 0.69199997
-0.71100003 -4.1279998 0.68300003
-0.71899998 -4.1100001 0.67900002
-0.72100002 -4.105 0.67299998
-0.71399999 -4.1220002 0.66399997
-0.70700002 -4.1389999 0.65600002
-0.713 -4.125 0.64999998
-0.71499997 -4.1209998 0.64399999
-0.713 -4.1240001 0.63700002
-0.70999998 -4.132 0.63
-0.71600002 -4.119 0.62400001
-0.71200001 -4.1269999 0.61699998
-0.70499998 -4.145 0.60900003
-0.713 -4.1259999 0.60399997
-0.713 -4.125 0.597
-0.713 -4.125 0.59100002
-0.71200001 -4.1290002 0.58399999
-0.71200001 -4.1279998 0.57700002
-0.70999998 -4.132 0.56999999
-0.71600002 -4.118 0.565
-0.713 -4.1269999 0.55699998
-0.713 -4.1269999 0.551
-0.71100003 -4.131 0.54400003
-0.70999998 -4.1350002 0.537
-0.71100003 -4.131 0.52999997
-0.708 -4.1389999 0.523
-0.708 -4.138 0.51700002
-0.71799999 -4.1149998 0.51200002
-0.71100003 -4.1329999 0.50400001
-0.71100003 -4.1329999 0.49700001
-0.71899998 -4.1139998 0.49200001
-0.713 -4.1269999 0.484
-0.713 -4.1269999 0.47799999
-0.708 -4.1409998 0.47
-0.71399999 -4.1269999 0.46399999
-0.704 -4.1490002 0.45699999
-0.708 -4.1409998 0.45100001
-0.71200001 -4.1300001 0.44400001
-0.71200001 -4.1300001 0.43799999
-0.70499998 -4.1479998 0.43000001
-0.70899999 -4.1389999 0.42399999
-0.71100003 -4.1339998 0.41800001
-0.71100003 -4.1339998 0.41100001
-0.713 -4.1290002 0.405
-0.71100003 -4.1339998 0.398
-0.70999998 -4.138 0.391
-0.70999998 -4.138 0.38499999
-0.713 -4.1290002 0.37799999
-0.70999998 -4.138 0.37200001
-0.71399999 -4.1279998 0.36500001
-0.70999998 -4.1370001 0.35800001
-0.71200001 -4.1329999 0.352
-0.71600002 -4.1230001 0.34599999
-0.71600002 -4.1230001 0.33899999
-0.70499998 -4.151 0.33199999
-0.70899999 -4.1420002 0.32499999
-0.71499997 -4.1279998 0.31900001
-0.70700002 -4.1459999 0.31200001
-0.713 -4.132 0.30599999
-0.71100003 -4.1370001 0.29899999
-0.713 -4.132 0.29300001
-0.713 -4.132 0.28600001
-0.70899999 -4.1409998 0.27900001
-0.71100003 -4.1370001 0.273
-0.71100003 -4.1370001 0.266
-0.70899999 -4.1409998 0.25999999
-0.708 -4.1459999 0.25299999
-0.70999998 -4.1420002 0.24699999
-0.71100003 -4.1370001 0.23999999
-0.70599997 -4.151 0.234
-0.708 -4.1459999 0.227
-0.708 -4.1469998 0.22
-0.69800001 -4.1700001 0.214
-0.70999998 -4.1420002 0.207
-0.704 -4.1560001 0.20100001
-0.713 -4.1329999 0.19400001
-0.708 -4.1469998 0.18799999
-0.70999998 -4.1430001 0.18099999
-0.708 -4.1479998 0.17399999
-0.70599997 -4.152 0.168
-0.70700002 -4.1490002 0.161
-0.70599997 -4.1529999 0.155
-0.70899999 -4.1440001 0.148
-0.69999999 -4.1669998 0.142
-0.70899999 -4.1440001 0.13500001
-0.70700002 -4.1490002 0.12800001
-0.71100003 -4.1399999 0.121
-0.713 -4.1360002 0.115
-0.71600002 -4.1290002 0.108
-0.71200001 -4.138 0.102
-0.70899999 -4.1459999 0.094999999
-0.70300001 -4.1609998 0.090000004
-0.70599997 -4.1529999 0.082999997
-0.70099998 -4.1659999 0.077
-0.70300001 -4.1609998 0.07
-0.70599997 -4.1529999 0.063000001
-0.70700002 -4.1529999 0.056000002
-0.70499998 -4.158 0.050000001
-0.70999998 -4.1440001 0.041999999
-0.708 -4.1490002 0.035999998
-0.708 -4.1500001 0.029999999
-0.70999998 -4.145 0.023
-0.70499998 -4.1560001 0.017000001
-0.70599997 -4.1550002 0.0099999998
-0.75700003 -3.9809999 2.99
-0.75400001 -3.9909999 2.9630001
-0.74299997 -4.0170002 2.9130001
-0.76099998 -3.9749999 2.9349999
-0.75400001 -3.9920001 2.9119999
-0.75999999 -3.9779999 2.9130001
-0.75099999 -3.9990001 2.8870001
-0.764 -3.9679999 2.9000001
-0.75599998 -3.9879999 2.875
-0.75 -4.0029998 2.855
-0.745 -4.0159998 2.836
-0.74699998 -4.0089998 2.8310001
-0.75099999 -4.0009999 2.8269999
-0.75599998 -3.99 2.816
-0.75099999 -4.0009999 2.7980001
-0.75300002 -3.997 2.7720001
-0.75300002 -3.997 2.763
-0.75199997 -4 2.7509999
-0.74299997 -4.0209999 2.7179999
-0.74599999 -4.0159998 2.7030001
-0.74699998 -4.0139999 2.6949999
-0.74800003 -4.0110002 2.687
-0.75 -4.0079999 2.6800001
-0.74800003 -4.0120001 2.668
-0.84100002 -3.7839999 2.8080001
-0.83499998 -3.8 2.7880001
-0.82200003 -3.8310001 2.7579999
-0.81199998 -3.855 2.733
-0.801 -3.882 2.7049999
-0.79299998 -3.902 2.6830001
-0.787 -3.918 2.6630001
-0.78500003 -3.9219999 2.651
-0.78500003 -3.9230001 2.642
-0.78100002 -3.9319999 2.6259999
-0.78399998 -3.925 2.622
-0.78600001 -3.921 2.615
-0.78200001 -3.931 2.599
-0.78399998 -3.9260001 2.5929999
-0.78100002 -3.9349999 2.5780001
-0.78600001 -3.9230001 2.576
-0.78600001 -3.921 2.5680001
-0.78200001 -3.9319999 2.552
-0.78299999 -3.9300001 2.5439999
-0.77899998 -3.9400001 2.529
-0.78899997 -3.914 2.5350001
-0.79299998 -3.905 2.5320001
-0.78399998 -3.927 2.5090001
-0.78399998 -3.9300001 2.4990001
-0.78899997 -3.9170001 2.497
-0.78600001 -3.924 2.484
-0.78600001 -3.925 2.4749999
-0.787 -3.921 2.4679999
-0.78399998 -3.9300001 2.4530001
-0.792 -3.9100001 2.4560001
-0.79000002 -3.915 2.444
-0.792 -3.911 2.437
-0.79699999 -3.9000001 2.4349999
-0.79500002 -3.904 2.4230001
-0.79400003 -3.9059999 2.4130001
-0.792 -3.911 2.401
-0.73000002 -4.0650001 2.2969999
-0.736 -4.0489998 2.2969999
-0.72100002 -4.086 2.2679999
-0.74699998 -4.0240002 2.2939999
-0.72799999 -4.0700002 2.26
-0.72600001 -4.0739999 2.2490001
-0.72899997 -4.0689998 2.2349999
-0.72600001 -4.0749998 2.2149999
-0.73400003 -4.0560002 2.2090001
-0.72799999 -4.0700002 2.1930001
-0.722 -4.0869999 2.1760001
-0.72799999 -4.0710001 2.1760001
-0.72100002 -4.0890002 2.158
-0.72600001 -4.0780001 2.1559999
-0.72299999 -4.0830002 2.1440001
-0.72600001 -4.0760002 2.1400001
-0.722 -4.0879998 2.125
-0.72399998 -4.0819998 2.1210001
-0.72500002 -4.0809999 2.1129999
-0.72799999 -4.0739999 2.108
-0.727 -4.0749998 2.099
-0.73000002 -4.0679998 2.095
-0.727 -4.0770001 2.082
-0.73100001 -4.066 2.0799999
-0.727 -4.0760002 2.0669999
-0.72600001 -4.079 2.0569999
-0.727 -4.0760002 2.05
-0.72299999 -4.086 2.0369999
-0.71499997 -4.105 2.0190001
-0.727 -4.0780001 2.0250001
-0.72799999 -4.0749998 2.0179999
-0.71899998 -4.0970001 1.999
-0.73100001 -4.0689998 2.0050001
-0.72600001 -4.0809999 1.9910001
-0.722 -4.0910001 1.979
-0.72600001 -4.0809999 1.975
-0.722 -4.0900002 1.9630001
-0.72500002 -4.0830002 1.959
-0.72500002 -4.0840001 1.95
-0.72600001 -4.0809999 1.944
-0.72899997 -4.0739999 1.939
-0.72799999 -4.0760002 1.9299999
-0.73199999 -4.0679998 1.926
-0.72799999 -4.0780001 1.913
-0.73100001 -4.0689998 1.909
-0.73299998 -4.066 1.903
-0.72600001 -4.0840001 1.887
-0.73400003 -4.0630002 1.8890001
-0.73400003 -4.0640001 1.88
-0.73100001 -4.0700002 1.87
-0.73299998 -4.0669999 1.863
-0.73400003 -4.0650001 1.8559999
-0.73400003 -4.0630002 1.849
-0.73299998 -4.0669999 1.84
-0.73000002 -4.0749998 1.8279999
-0.73100001 -4.072 1.822
-0.72899997 -4.0770001 1.812
-0.72899997 -4.0780001 1.804
-0.73000002 -4.0760002 1.7970001
-0.73000002 -4.0739999 1.79
-0.73199999 -4.0710001 1.784
-0.73000002 -4.0760002 1.774
-0.73299998 -4.0679998 1.77
-0.73400003 -4.0669999 1.763
-0.73100001 -4.0749998 1.752
-0.72799999 -4.0819998 1.7410001
-0.72799999 -4.0830002 1.733
-0.73299998 -4.0700002 1.73
-0.72799999 -4.0809999 1.719
-0.73100001 -4.0760002 1.7130001
-0.72899997 -4.0799999 1.704
-0.736 -4.0630002 1.7029999
-0.73000002 -4.0780001 1.689
-0.73000002 -4.0780001 1.682
-0.73000002 -4.079 1.674
-0.73000002 -4.0780001 1.6670001
-0.727 -4.085 1.656
-0.72600001 -4.0890002 1.647
-0.72899997 -4.0809999 1.643
-0.72600001 -4.0879998 1.633
-0.73299998 -4.072 1.631
-0.73000002 -4.0780001 1.6210001
-0.73000002 -4.0799999 1.613
-0.73000002 -4.079 1.6059999
-0.72899997 -4.0830002 1.597
-0.72799999 -4.085 1.589
-0.72899997 -4.0819998 1.5829999
-0.72899997 -4.0819998 1.575
-0.73299998 -4.072 1.571
-0.73000002 -4.0819998 1.561
-0.73500001 -4.0700002 1.557
-0.72799999 -4.086 1.544
-0.72899997 -4.0830002 1.538
-0.73299998 -4.0739999 1.533
-0.73199999 -4.0770001 1.525
-0.73199999 -4.0760002 1.518
-0.73400003 -4.073 1.512
-0.73500001 -4.0689998 1.506
-0.73400003 -4.072 1.497
-0.72600001 -4.0929999 1.483
-0.72600001 -4.0910001 1.476
-0.72899997 -4.086 1.471
-0.72600001 -4.092 1.461
-0.72500002 -4.0960002 1.4529999
-0.727 -4.0890002 1.448
-0.72899997 -4.086 1.441
-0.72899997 -4.085 1.4349999
-0.73100001 -4.0819998 1.428
-0.72500002 -4.0949998 1.4170001
-0.73000002 -4.0830002 1.413
-0.72600001 -4.0939999 1.403
-0.727 -4.092 1.396
-0.72899997 -4.0869999 1.39
-0.73000002 -4.0840001 1.3839999
-0.72100002 -4.1079998 1.37
-0.72799999 -4.0910001 1.368
-0.73100001 -4.0819998 1.363
-0.73000002 -4.086 1.354
-0.72399998 -4.1009998 1.3430001
-0.72600001 -4.0960002 1.337
-0.72299999 -4.1020002 1.3279999
-0.73299998 -4.0799999 1.3279999
-0.73000002 -4.086 1.319
-0.72600001 -4.0949998 1.309
-0.72600001 -4.0960002 1.302
-0.72500002 -4.0999999 1.293
-0.72600001 -4.0970001 1.2869999
-0.72100002 -4.1079998 1.277
-0.71499997 -4.125 1.265
-0.70599997 -4.1459999 1.252
-0.70300001 -4.1529999 1.243
-0.69599998 -4.1690001 1.232
-0.68599999 -4.1950002 1.2180001
-0.685 -4.198 1.21
-0.685 -4.197 1.204
-0.68099999 -4.2080002 1.194
-0.68300003 -4.2020001 1.188
-0.68400002 -4.2010002 1.182
-0.68099999 -4.2080002 1.173
-0.68000001 -4.211 1.166
-0.671 -4.2319999 1.154
-0.67199999 -4.23 1.147
-0.67299998 -4.2290001 1.141
-0.67500001 -4.223 1.136
-0.67000002 -4.2350001 1.126
-0.67299998 -4.2290001 1.12
-0.671 -4.2329998 1.113
-0.67400002 -4.2270002 1.108
-0.66900003 -4.2389998 1.098
-0.66900003 -4.2379999 1.092
-0.66799998 -4.2410002 1.084
-0.667 -4.244 1.077
-0.67299998 -4.2290001 1.073
-0.67299998 -4.2290001 1.067
-0.68199998 -4.2090001 1.0650001
-0.67199999 -4.2309999 1.053
-0.676 -4.223 1.048
-0.676 -4.223 1.041
-0.67299998 -4.2309999 1.033
-0.67299998 -4.23 1.027
-0.66799998 -4.2420001 1.017
-0.67199999 -4.2319999 1.013
-0.67699999 -4.2220001 1.008
-0.66799998 -4.243 0.99699998
-0.67799997 -4.2189999 0.995
-0.68000001 -4.2140002 0.99000001
-0.68400002 -4.204 0.98500001
-0.68900001 -4.1929998 0.98100001
-0.69999999 -4.1659999 0.98000002
-0.70599997 -4.151 0.97600001
-0.72600001 -4.105 0.97799999
-0.72399998 -4.1079998 0.97100002
-0.71899998 -4.1209998 0.96100003
-0.72100002 -4.1149998 0.95599997
-0.71399999 -4.132 0.94599998
-0.72600001 -4.1040001 0.94400001
-0.72100002 -4.1160002 0.935
-0.72000003 -4.1199999 0.92699999
-0.722 -4.1139998 0.92199999
-0.72299999 -4.1129999 0.91500002
-0.72500002 -4.1079998 0.90899998
-0.722 -4.1160002 0.90100002
-0.72000003 -4.1199999 0.89399999
-0.71700001 -4.1279998 0.88499999
-0.72500002 -4.1079998 0.88200003
-0.71799999 -4.1259999 0.87199998
-0.72399998 -4.1110001 0.86799997
-0.71899998 -4.1240001 0.85900003
-0.71899998 -4.1230001 0.852
-0.71600002 -4.131 0.84399998
-0.71600002 -4.1300001 0.838
-0.71499997 -4.1339998 0.82999998
-0.71899998 -4.1240001 0.82499999
-0.71899998 -4.1230001 0.81900001
-0.71799999 -4.1269999 0.81099999
-0.71600002 -4.131 0.80400002
-0.71100003 -4.1430001 0.796
-0.71499997 -4.1339998 0.79000002
-0.71700001 -4.1279998 0.78399998
-0.71600002 -4.132 0.77700001
-0.72000003 -4.1220002 0.77200001
-0.71499997 -4.1350002 0.76300001
-0.708 -4.152 0.75400001
-0.71700001 -4.1290002 0.75099999
-0.72000003 -4.1240001 0.745
-0.71799999 -4.1279998 0.73699999
-0.71499997 -4.1350002 0.73000002
-0.71899998 -4.1259999 0.72399998
-0.71499997 -4.1350002 0.71600002
-0.71799999 -4.1290002 0.70999998
-0.70899999 -4.151 0.70099998
-0.713 -4.1409998 0.69599998
-0.713 -4.1399999 0.68900001
-0.71700001 -4.1300001 0.68400002
-0.71600002 -4.1339998 0.676
-0.71600002 -4.1339998 0.67000002
-0.71600002 -4.1329999 0.66299999
-0.713 -4.1420002 0.65600002
-0.71899998 -4.1269999 0.65100002
-0.71700001 -4.131 0.64300001
-0.71600002 -4.1350002 0.63599998
-0.71200001 -4.1440001 0.62900001
-0.71799999 -4.1300001 0.62400001
-0.71100003 -4.1479998 0.61500001
-0.71700001 -4.1329999 0.61000001
-0.71399999 -4.1420002 0.60299999
-0.71600002 -4.1370001 0.59600002
-0.71399999 -4.1409998 0.58899999
-0.71799999 -4.131 0.58399999
-0.71499997 -4.1399999 0.57599998
-0.71499997 -4.1399999 0.56999999
-0.70599997 -4.1620002 0.56099999
-0.70899999 -4.1539998 0.55500001
-0.71499997 -4.138 0.55000001
-0.71100003 -4.1490002 0.54299998
-0.71399999 -4.1420002 0.53600001
-0.71600002 -4.1370001 0.52999997
-0.713 -4.1459999 0.523
-0.71499997 -4.1409998 0.51700002
-0.71100003 -4.1500001 0.50999999
-0.71700001 -4.1360002 0.50400001
-0.71499997 -4.1399999 0.49700001
-0.70599997 -4.1630001 0.48899999
-0.70999998 -4.1529999 0.48300001
-0.71399999 -4.1440001 0.477
-0.71200001 -4.1479998 0.47
-0.71200001 -4.1479998 0.46399999
-0.71399999 -4.1430001 0.45699999
-0.71100003 -4.152 0.44999999
-0.71100003 -4.151 0.44400001
-0.71100003 -4.152 0.43700001
-0.71100003 -4.151 0.43099999
-0.71399999 -4.1430001 0.42399999
-0.713 -4.1459999 0.41800001
-0.71200001 -4.1500001 0.41100001
-0.71600002 -4.1409998 0.405
-0.71399999 -4.145 0.398
-0.71399999 -4.145 0.391
-0.71399999 -4.145 0.38499999
-0.71200001 -4.1490002 0.37799999
-0.70899999 -4.1589999 0.37099999
-0.713 -4.1490002 0.36500001
-0.70999998 -4.1550002 0.35800001
-0.70999998 -4.1550002 0.352
-0.71600002 -4.1409998 0.345
-0.70899999 -4.158 0.338
-0.70899999 -4.158 0.33199999
-0.70899999 -4.1589999 0.32499999
-0.70700002 -4.1620002 0.31900001
-0.71100003 -4.1529999 0.31200001
-0.713 -4.1490002 0.30599999
-0.713 -4.1490002 0.29899999
-0.71200001 -4.1529999 0.29300001
-0.713 -4.1479998 0.28600001
-0.70999998 -4.158 0.28
-0.71200001 -4.1529999 0.273
-0.71399999 -4.1490002 0.266
-0.708 -4.1620002 0.25999999
-0.71200001 -4.1529999 0.25299999
-0.71399999 -4.1490002 0.24699999
-0.71399999 -4.1490002 0.23999999
-0.708 -4.1630001 0.234
-0.708 -4.1630001 0.227
-0.70999998 -4.158 0.221
-0.70999998 -4.158 0.214
-0.708 -4.1630001 0.208
-0.70899999 -4.1609998 0.20100001
-0.70999998 -4.1589999 0.19400001
-0.70899999 -4.1609998 0.18799999
-0.70899999 -4.1609998 0.18099999
-0.70599997 -4.1690001 0.175
-0.71200001 -4.1550002 0.168
-0.708 -4.164 0.162
-0.704 -4.1739998 0.156
-0.70599997 -4.1690001 0.149
-0.704 -4.1739998 0.14300001
-0.70999998 -4.1609998 0.13500001
-0.70599997 -4.1700001 0.12899999
-0.71399999 -4.152 0.122
-0.71200001 -4.1570001 0.116
-0.70899999 -4.1630001 0.109
-0.71100003 -4.1570001 0.102
-0.70499998 -4.1729999 0.097000003
-0.70599997 -4.1719999 0.090000004
-0.71100003 -4.158 0.082999997
-0.70700002 -4.1690001 0.077
-0.71200001 -4.1560001 0.07
-0.70700002 -4.1700001 0.064000003
-0.70499998 -4.1750002 0.057999998
-0.70499998 -4.1739998 0.050999999
-0.71100003 -4.1609998 0.044
-0.71600002 -4.1469998 0.035999998
-0.70700002 -4.171 0.030999999
-0.70999998 -4.1620002 0.024
-0.70099998 -4.1849999 0.018999999
-0.708 -4.1669998 0.011
-0.73500001 -4.053 2.9679999
-0.73799998 -4.0469999 2.9630001
-0.73900002 -4.0440001 2.9549999
-0.74000001 -4.0409999 2.947
-0.741 -4.04 2.938
-0.73900002 -4.0450001 2.925
-0.73900002 -4.0440001 2.915
-0.73799998 -4.0479999 2.9030001
-0.74299997 -4.0359998 2.902
-0.74000001 -4.0430002 2.8870001
-0.736 -4.052 2.8699999
-0.736 -4.053 2.8599999
-0.74000001 -4.0440001 2.8570001
-0.73799998 -4.0500002 2.8429999
-0.741 -4.0419998 2.839
-0.741 -4.0419998 2.8299999
-0.74199998 -4.039 2.822
-0.74000001 -4.0450001 2.8080001
-0.73900002 -4.0469999 2.7969999
-0.73900002 -4.0489998 2.786
-0.73799998 -4.0510001 2.7750001
-0.74000001 -4.0469999 2.7679999
-0.73299998 -4.0630002 2.7479999
-0.741 -4.0440001 2.7509999
-0.73500001 -4.0580001 2.733
-0.74000001 -4.046 2.7309999
-0.736 -4.0560002 2.7149999
-0.74299997 -4.039 2.717
-0.73699999 -4.0549998 2.697
-0.73900002 -4.0489998 2.6919999
-0.73199999 -4.0669999 2.6700001
-0.74000001 -4.0479999 2.674
-0.74800003 -4.0300002 2.677
-0.74599999 -4.0339999 2.664
-0.74299997 -4.0419998 2.6500001
-0.741 -4.046 2.638
-0.74800003 -4.0300002 2.6389999
-0.74900001 -4.027 2.632
-0.75199997 -4.02 2.6270001
-0.75800002 -4.007 2.6259999
-0.75599998 -4.0110002 2.6140001
-0.76099998 -4 2.6129999
-0.75400001 -4.0159998 2.5929999
-0.75700003 -4.0079999 2.589
-0.76700002 -3.9849999 2.595
-0.76099998 -4.0009999 2.575
-0.76200002 -3.997 2.5680001
-0.75400001 -4.0180001 2.546
-0.759 -4.006 2.5450001
-0.75700003 -4.0100002 2.533
-0.75599998 -4.0149999 2.5209999
-0.759 -4.007 2.517
-0.75599998 -4.0149999 2.503
-0.75400001 -4.0190001 2.4909999
-0.76200002 -4 2.494
-0.755 -4.0159998 2.4749999
-0.75400001 -4.0209999 2.464
-0.755 -4.0170002 2.457
-0.75300002 -4.0219998 2.4449999
-0.75300002 -4.0229998 2.4360001
-0.75300002 -4.0229998 2.427
-0.75300002 -4.0240002 2.4170001
-0.75099999 -4.0279999 2.4059999
-0.75099999 -4.0279999 2.3970001
-0.759 -4.0100002 2.3989999
-0.74900001 -4.0339999 2.3770001
-0.75400001 -4.0219998 2.3740001
-0.755 -4.0190001 2.368
-0.755 -4.02 2.359
-0.75300002 -4.0250001 2.3469999
-0.75400001 -4.0209999 2.3399999
-0.75199997 -4.0279999 2.3280001
-0.741 -4.0560002 2.3039999
-0.741 -4.0549998 2.2950001
-0.736 -4.0679998 2.279
-0.74000001 -4.0570002 2.277
-0.736 -4.0679998 2.263
-0.73900002 -4.0599999 2.2579999
-0.73900002 -4.0609999 2.2490001
-0.74000001 -4.0580001 2.243
-0.741 -4.0560002 2.2349999
-0.741 -4.0560002 2.227
-0.73400003 -4.0739999 2.2090001
-0.73900002 -4.0619998 2.207
-0.73799998 -4.0640001 2.197
-0.73900002 -4.0630002 2.1900001
-0.73699999 -4.066 2.1800001
-0.73799998 -4.0650001 2.1719999
-0.73500001 -4.072 2.1600001
-0.73400003 -4.0760002 2.1500001
-0.73900002 -4.0630002 2.148
-0.736 -4.0700002 2.1359999
-0.73799998 -4.0650001 2.131
-0.74000001 -4.0599999 2.125
-0.73400003 -4.0760002 2.109
-0.73400003 -4.0749998 2.1010001
-0.73699999 -4.0679998 2.096
-0.73299998 -4.0780001 2.0829999
-0.736 -4.0710001 2.0780001
-0.73699999 -4.0710001 2.0699999
-0.73299998 -4.079 2.0580001
-0.74000001 -4.0609999 2.059
-0.74199998 -4.059 2.052
-0.741 -4.0609999 2.043
-0.73100001 -4.0840001 2.023
-0.73500001 -4.0749998 2.0190001
-0.74000001 -4.0640001 2.017
-0.73699999 -4.072 2.0050001
-0.73500001 -4.0770001 1.994
-0.73699999 -4.0710001 1.989
-0.73699999 -4.0710001 1.9809999
-0.736 -4.0739999 1.972
-0.73900002 -4.0669999 1.9680001
-0.73299998 -4.0819998 1.952
-0.73900002 -4.0669999 1.951
-0.73799998 -4.0700002 1.942
-0.73699999 -4.072 1.933
-0.73400003 -4.0799999 1.9220001
-0.73799998 -4.0710001 1.918
-0.73400003 -4.0809999 1.905
-0.73699999 -4.0739999 1.901
-0.73400003 -4.0799999 1.89
-0.73199999 -4.086 1.8789999
-0.73500001 -4.079 1.875
-0.73400003 -4.0809999 1.8660001
-0.73900002 -4.0700002 1.863
-0.73900002 -4.0689998 1.8559999
-0.73900002 -4.0689998 1.848
-0.72799999 -4.0970001 1.8279999
-0.73299998 -4.086 1.825
-0.73000002 -4.092 1.8150001
-0.73500001 -4.0809999 1.812
-0.73199999 -4.0869999 1.801
-0.73699999 -4.0760002 1.798
-0.73299998 -4.086 1.7869999
-0.73900002 -4.0710001 1.785
-0.73500001 -4.0809999 1.773
-0.736 -4.0780001 1.767
-0.73199999 -4.0890002 1.7539999
-0.73100001 -4.0910001 1.7460001
-0.736 -4.0799999 1.743
-0.73000002 -4.0949998 1.729
-0.73299998 -4.0879998 1.724
-0.73500001 -4.0819998 1.719
-0.736 -4.079 1.7130001
-0.73199999 -4.0900002 1.701
-0.73500001 -4.0840001 1.696
-0.73400003 -4.086 1.687
-0.73100001 -4.092 1.677
-0.736 -4.0809999 1.674
-0.73500001 -4.0830002 1.666
-0.73299998 -4.0900002 1.656
-0.73000002 -4.0960002 1.646
-0.73299998 -4.0900002 1.641
-0.72899997 -4.098 1.63
-0.73100001 -4.0939999 1.624
-0.73699999 -4.079 1.622
-0.73500001 -4.086 1.612
-0.73400003 -4.0879998 1.604
-0.73500001 -4.086 1.597
-0.72899997 -4.1009998 1.584
-0.73500001 -4.086 1.582
-0.73400003 -4.0879998 1.574
-0.73100001 -4.0949998 1.564
-0.73100001 -4.0970001 1.556
-0.74000001 -4.073 1.557
-0.73100001 -4.098 1.541
-0.73299998 -4.0910001 1.536
-0.73000002 -4.098 1.526
-0.73299998 -4.092 1.521
-0.73000002 -4.098 1.511
-0.72799999 -4.1040001 1.502
-0.72899997 -4.1020002 1.495
-0.73100001 -4.0970001 1.49
-0.72899997 -4.1030002 1.48
-0.72399998 -4.1139998 1.469
-0.73000002 -4.099 1.467
-0.73100001 -4.0970001 1.46
-0.73400003 -4.0910001 1.455
-0.72299999 -4.118 1.439
-0.73000002 -4.1009998 1.438
-0.72899997 -4.1030002 1.429
-0.73000002 -4.1009998 1.423
-0.72899997 -4.1040001 1.415
-0.73199999 -4.098 1.41
-0.73199999 -4.0960002 1.403
-0.73699999 -4.085 1.399
-0.73400003 -4.092 1.39
-0.73299998 -4.0949998 1.382
-0.73199999 -4.098 1.373
-0.73199999 -4.098 1.3660001
-0.72799999 -4.1069999 1.3559999
-0.72899997 -4.105 1.35
-0.73299998 -4.0949998 1.345
-0.73400003 -4.0939999 1.339
-0.73500001 -4.092 1.332
-0.73000002 -4.1030002 1.322
-0.73100001 -4.1009998 1.3150001
-0.73400003 -4.0949998 1.3099999
-0.72500002 -4.1160002 1.2970001
-0.72299999 -4.1199999 1.288
-0.72500002 -4.1170001 1.2819999
-0.72000003 -4.1290002 1.272
-0.71499997 -4.1409998 1.261
-0.708 -4.1570001 1.25
-0.70300001 -4.1700001 1.239
-0.68900001 -4.2030001 1.223
-0.68599999 -4.2119999 1.214
-0.685 -4.2140002 1.207
-0.68599999 -4.2119999 1.2
-0.68800002 -4.2059999 1.1950001
-0.68900001 -4.2049999 1.189
-0.68300003 -4.2199998 1.178
-0.68099999 -4.223 1.17
-0.68199998 -4.2220001 1.164
-0.68099999 -4.2249999 1.156
-0.67799997 -4.2329998 1.147
-0.68000001 -4.2270002 1.142
-0.67900002 -4.2309999 1.1339999
-0.67799997 -4.2340002 1.127
-0.68400002 -4.2179999 1.124
-0.685 -4.217 1.117
-0.68000001 -4.2290001 1.108
-0.67900002 -4.2319999 1.1
-0.67900002 -4.2309999 1.094
-0.68199998 -4.2249999 1.0880001
-0.67500001 -4.2420001 1.0779999
-0.685 -4.2179999 1.077
-0.68400002 -4.2189999 1.0700001
-0.69400001 -4.1960001 1.068
-0.69199997 -4.2020001 1.0599999
-0.67900002 -4.2329998 1.046
-0.68599999 -4.217 1.043
-0.67900002 -4.2340002 1.033
-0.67400002 -4.2459998 1.024
-0.68400002 -4.2220001 1.022
-0.68599999 -4.2160001 1.017
-0.685 -4.2199998 1.0089999
-0.68300003 -4.223 1.002
-0.69300002 -4.1989999 1
-0.69400001 -4.198 0.99400002
-0.69400001 -4.197 0.98699999
-0.71200001 -4.1529999 0.99000001
-0.71700001 -4.1409998 0.98500001
-0.72000003 -4.1360002 0.97899997
-0.72600001 -4.1209998 0.97600001
-0.72100002 -4.1329999 0.96600002
-0.727 -4.119 0.96200001
-0.722 -4.131 0.95300001
-0.72399998 -4.1259999 0.94700003
-0.72100002 -4.1339998 0.93900001
-0.72000003 -4.1370001 0.93199998
-0.72399998 -4.1269999 0.92699999
-0.72600001 -4.1209998 0.921
-0.72500002 -4.125 0.91299999
-0.71600002 -4.1469998 0.903
-0.722 -4.132 0.89899999
-0.71899998 -4.1399999 0.88999999
-0.71899998 -4.1389999 0.884
-0.71600002 -4.1479998 0.87599999
-0.72000003 -4.1370001 0.87099999
-0.72399998 -4.1269999 0.866
-0.71499997 -4.1490002 0.85500002
-0.71899998 -4.1389999 0.85000002
-0.72000003 -4.138 0.84399998
-0.72000003 -4.1370001 0.83700001
-0.71899998 -4.1409998 0.82999998
-0.71600002 -4.1490002 0.82200003
-0.71200001 -4.1570001 0.81400001
-0.72000003 -4.1389999 0.81
-0.71899998 -4.1420002 0.80299997
-0.71700001 -4.145 0.796
-0.71399999 -4.1539998 0.78799999
-0.722 -4.1350002 0.78399998
-0.71899998 -4.1430001 0.77600002
-0.71899998 -4.1420002 0.76899999
-0.72100002 -4.138 0.76300001
-0.71600002 -4.1500001 0.755
-0.72000003 -4.1399999 0.75
-0.722 -4.1350002 0.74299997
-0.71499997 -4.152 0.73500001
-0.71899998 -4.1420002 0.72899997
-0.71799999 -4.1459999 0.722
-0.722 -4.1360002 0.71700001
-0.71799999 -4.145 0.70899999
-0.72299999 -4.1350002 0.70300001
-0.71700001 -4.1479998 0.69499999
-0.71600002 -4.152 0.68800002
-0.72399998 -4.1329999 0.68400002
-0.72000003 -4.1409998 0.676
-0.722 -4.1360002 0.67000002
-0.713 -4.1589999 0.66100001
-0.71499997 -4.1539998 0.65499997
-0.71799999 -4.1479998 0.64899999
-0.70999998 -4.1659999 0.63999999
-0.72000003 -4.1430001 0.63599998
-0.72000003 -4.1420002 0.62900001
-0.71899998 -4.1459999 0.62199998
-0.71499997 -4.1550002 0.61500001
-0.72500002 -4.131 0.611
-0.71600002 -4.1539998 0.602
-0.71399999 -4.158 0.59500003
-0.71399999 -4.1570001 0.588
-0.70899999 -4.171 0.58099997
-0.72100002 -4.1430001 0.57599998
-0.71499997 -4.1560001 0.56900001
-0.708 -4.1739998 0.56099999
-0.71600002 -4.1550002 0.55599999
-0.71799999 -4.1500001 0.54900002
-0.71799999 -4.1500001 0.54299998
-0.71100003 -4.1680002 0.53500003
-0.71499997 -4.158 0.52899998
-0.72100002 -4.1440001 0.523
-0.70899999 -4.171 0.51499999
-0.71100003 -4.1659999 0.509
-0.71499997 -4.1570001 0.50300002
-0.71200001 -4.165 0.49599999
-0.71600002 -4.1560001 0.49000001
-0.71799999 -4.151 0.48300001
