ply
format ascii 1.0
comment PCL generated
element vertex 1729
property float x
property float y
property float z
element camera 0
property float view_px
property float view_py
property float view_pz
property float x_axisx
property float x_axisy
property float x_axisz
property float y_axisx
property float y_axisy
property float y_axisz
property float z_axisx
property float z_axisy
property float z_axisz
property float focal
property float scalex
property float scaley
property float centerx
property float centery
property int viewportx
property int viewporty
property float k1
property float k2
end_header
-19.605 6.875 2.5829999
-19.617001 6.8569999 2.589
-19.612 6.8629999 2.573
-19.613001 6.8629999 2.563
-19.620001 6.8520002 2.563
-19.622 6.848 2.556
-19.625 6.8439999 2.549
-19.628 6.8390002 2.5439999
-19.632999 6.8309999 2.5409999
-19.636 6.8260002 2.5350001
-19.638 6.822 2.5280001
-19.646 6.8099999 2.5280001
-19.649 6.8039999 2.5239999
-19.653 6.7979999 2.5190001
-19.655001 6.7950001 2.5109999
-19.656 6.7930002 2.503
-19.66 6.7880001 2.497
-19.659 6.789 2.4860001
-19.660999 6.7870002 2.4779999
-19.663 6.783 2.4719999
-19.671 6.77 2.473
-19.676001 6.7620001 2.4690001
-19.676001 6.7620001 2.4590001
-19.683001 6.7509999 2.4579999
-19.687 6.744 2.454
-19.681999 6.7529998 2.437
-19.691999 6.7360001 2.441
-19.691999 6.7360001 2.431
-19.702999 6.7179999 2.4349999
-19.701 6.723 2.4219999
-19.702 6.7210002 2.4130001
-19.712 6.704 2.4170001
-19.707001 6.7119999 2.4000001
-19.712999 6.7030001 2.398
-19.718 6.6939998 2.395
-19.715 6.6999998 2.3800001
-19.719999 6.6919999 2.3770001
-19.719 6.6929998 2.3659999
-19.723 6.6869998 2.3610001
-19.723 6.6880002 2.3510001
-19.725 6.684 2.3440001
-19.729 6.678 2.339
-19.739 6.6609998 2.342
-19.952999 6.3169999 0.792
-19.922001 6.3660002 0.76999998
-19.931999 6.3499999 0.76599997
-19.943001 6.3330002 0.76300001
-19.947001 6.3270001 0.75700003
-19.931 6.3509998 0.74199998
-19.940001 6.3369999 0.73799998
-19.934 6.3470001 0.727
-19.941 6.335 0.72299999
-19.943001 6.3330002 0.71499997
-19.944 6.3309999 0.708
-19.941 6.335 0.699
-19.938 6.3400002 0.69
-19.941999 6.335 0.68300003
-19.931999 6.3499999 0.67199999
-19.944 6.3299999 0.66900003
-19.944 6.3309999 0.66100001
-19.945999 6.3280001 0.65399998
-19.945999 6.3280001 0.64600003
-19.931999 6.3509998 0.63200003
-19.944 6.3299999 0.62900001
-19.945999 6.3270001 0.62199998
-19.950001 6.3210001 0.616
-19.93 6.3540001 0.60000002
-19.937 6.342 0.59500003
-19.945999 6.3270001 0.59100002
-19.945 6.3299999 0.583
-19.948999 6.322 0.57700002
-19.943001 6.3319998 0.56599998
-19.948999 6.323 0.56099999
-19.938 6.3410001 0.54900002
-19.945 6.329 0.54400003
-19.938999 6.3390002 0.53399998
-19.951 6.3189998 0.52999997
-19.945 6.329 0.51999998
-19.948 6.3249998 0.51300001
-19.941 6.335 0.50300002
-19.952 6.3179998 0.49900001
-19.962999 6.3000002 0.495
-19.976 6.2800002 0.491
-19.983 6.2690001 0.486
-20.000999 6.2410002 0.48300001
-19.996 6.2480001 0.47400001
-20.01 6.2249999 0.47099999
-20.013 6.2210002 0.463
-19.535 6.9759998 2.8080001
-19.535999 6.974 2.799
-19.537001 6.973 2.789
-19.535 6.9749999 2.777
-19.532 6.98 2.7609999
-19.535 6.9759998 2.7550001
-19.528999 6.9840002 2.7349999
-19.534 6.9770002 2.7320001
-19.544001 6.961 2.7379999
-19.545 6.9590001 2.7279999
-19.549999 6.9510002 2.7260001
-19.548 6.9549999 2.7119999
-19.548 6.9549999 2.701
-19.552 6.948 2.698
-19.548 6.9549999 2.6800001
-19.552999 6.947 2.678
-19.556 6.9419999 2.671
-19.562 6.9320002 2.671
-19.559 6.9359999 2.6559999
-19.563999 6.9289999 2.6530001
-19.563 6.9310002 2.641
-19.568001 6.9219999 2.6389999
-19.573 6.915 2.6359999
-19.573999 6.9120002 2.6270001
-19.577 6.908 2.6210001
-19.577 6.908 2.6110001
-19.584 6.8959999 2.6110001
-19.589001 6.8889999 2.608
-19.589001 6.888 2.598
-19.594 6.8800001 2.595
-19.597 6.8759999 2.589
-19.594 6.881 2.5739999
-19.601999 6.868 2.576
-19.610001 6.8559999 2.576
-19.614 6.849 2.572
-19.614 6.849 2.562
-19.620001 6.8390002 2.5610001
-19.625 6.8319998 2.5569999
-19.621 6.8369999 2.5420001
-19.628 6.8260002 2.5420001
-19.629999 6.823 2.5339999
-19.625999 6.829 2.5190001
-19.636 6.8130002 2.523
-19.639999 6.8060002 2.5190001
-19.642 6.8039999 2.51
-19.648001 6.7940001 2.5090001
-19.646999 6.7950001 2.4979999
-19.653 6.7859998 2.4960001
-19.657 6.7789998 2.4920001
-19.657 6.7789998 2.4820001
-19.655001 6.7820001 2.4690001
-19.663 6.77 2.4690001
-19.664 6.7690001 2.46
-19.671 6.757 2.461
-19.676001 6.7480001 2.457
-19.677999 6.7470002 2.4489999
-19.681999 6.7399998 2.4449999
-19.686001 6.7340002 2.4400001
-19.681999 6.7389998 2.425
-19.695 6.7189999 2.4319999
-19.700001 6.711 2.4289999
-19.702 6.7069998 2.421
-19.698999 6.7119999 2.408
-19.702 6.7069998 2.402
-19.711 6.6929998 2.4030001
-19.709 6.6960001 2.3900001
-19.702 6.7069998 2.372
-19.716 6.6859999 2.3789999
-19.718 6.6830001 2.372
-19.719999 6.6789999 2.365
-19.726999 6.6669998 2.3640001
-19.724001 6.6719999 2.3510001
-19.729 6.665 2.346
-19.726 6.6690001 2.3329999
-19.735001 6.6550002 2.3340001
-19.739 6.6479998 2.329
-19.74 6.6459999 2.3210001
-19.747 6.6350002 2.3199999
-19.768999 6.5999999 2.3369999
-19.924999 6.3470001 0.78200001
-19.931999 6.336 0.77700001
-19.947001 6.3119998 0.77600002
-19.936001 6.3299999 0.76300001
-19.929001 6.3410001 0.75199997
-19.93 6.3390002 0.74400002
-19.931 6.3379998 0.73699999
-19.933001 6.335 0.73000002
-19.924 6.349 0.71799999
-19.931 6.3379998 0.713
-19.927 6.3439999 0.704
-19.93 6.3390002 0.69700003
-19.938 6.3249998 0.69300002
-19.938 6.3260002 0.685
-19.933001 6.3340001 0.67500001
-19.927 6.3439999 0.66399997
-19.929001 6.3410001 0.65700001
-19.934 6.3330002 0.65100002
-19.938 6.3249998 0.64499998
-19.931999 6.336 0.63499999
-19.934 6.3330002 0.62800002
-19.934 6.3319998 0.62
-19.929001 6.3400002 0.61000001
-19.931 6.3369999 0.60299999
-19.933001 6.3330002 0.59600002
-19.931 6.3379998 0.588
-19.933001 6.3330002 0.58099997
-19.931999 6.336 0.57200003
-19.934999 6.3309999 0.56599998
-19.938 6.3260002 0.55900002
-19.938999 6.3249998 0.551
-19.936001 6.329 0.54299998
-19.934999 6.3299999 0.53500003
-19.940001 6.323 0.52899998
-19.931999 6.336 0.51800001
-19.941999 6.3200002 0.514
-19.948 6.3109999 0.50800002
-19.958 6.2940001 0.50300002
-19.972 6.2719998 0.5
-19.973 6.27 0.49200001
-19.983 6.2529998 0.48800001
-19.996 6.2340002 0.484
-20.004 6.2199998 0.479
-19.996 6.2329998 0.46799999
-19.537001 6.961 2.8199999
-19.535999 6.9629998 2.8069999
-19.535 6.9629998 2.796
-19.532 6.9689999 2.78
-19.535 6.9640002 2.7739999
-19.535999 6.9629998 2.7639999
-19.538 6.9580002 2.7579999
-19.535 6.9640002 2.7420001
-19.538 6.9590001 2.7360001
-19.537001 6.961 2.723
-19.535 6.9640002 2.71
-19.538 6.9590001 2.7049999
-19.544001 6.9499998 2.7030001
-19.548 6.9439998 2.698
-19.545 6.948 2.684
-19.551001 6.9380002 2.6830001
-19.556999 6.928 2.6819999
-19.558001 6.928 2.6719999
-19.551001 6.9380002 2.651
-19.562 6.9200001 2.658
-19.561001 6.921 2.6470001
-19.566999 6.9120002 2.645
-19.57 6.908 2.6389999
-19.579 6.8940001 2.642
-19.570999 6.9050002 2.6199999
-19.57 6.9070001 2.609
-19.577 6.8959999 2.608
-19.575001 6.8990002 2.595
-19.58 6.8920002 2.592
-19.589001 6.8769999 2.595
-19.597 6.8629999 2.598
-19.591999 6.8720002 2.5799999
-19.603001 6.8540001 2.585
-19.597 6.8639998 2.566
-19.598 6.862 2.5580001
-19.603001 6.8540001 2.5550001
-19.603001 6.8540001 2.5439999
-19.612 6.8400002 2.5469999
-19.613001 6.8379998 2.5380001
-19.621 6.8249998 2.54
-19.621 6.8249998 2.53
-19.629 6.8130002 2.53
-19.624001 6.8200002 2.5139999
-19.632 6.8080001 2.5139999
-19.636 6.8010001 2.51
-19.639 6.7969999 2.5039999
-19.642 6.7909999 2.4990001
-19.653 6.7729998 2.5039999
-19.65 6.7789998 2.4890001
-19.653999 6.7729998 2.484
-19.653 6.7740002 2.473
-19.657 6.7670002 2.4690001
-19.662001 6.7589998 2.4660001
-19.666 6.7519999 2.461
-19.664 6.756 2.448
-19.677 6.7350001 2.4560001
-19.667 6.7509999 2.4319999
-19.679001 6.7319999 2.4389999
-19.677 6.7350001 2.4260001
-19.691999 6.7119999 2.4349999
-19.691 6.7129998 2.424
-19.690001 6.7150002 2.4119999
-19.690001 6.7140002 2.4030001
-19.698 6.7020001 2.4030001
-19.705 6.6900001 2.4030001
-19.704 6.6919999 2.391
-19.708 6.6849999 2.3859999
-19.709 6.684 2.3770001
-19.712999 6.678 2.3729999
-19.712 6.6789999 2.362
-19.715 6.6739998 2.3559999
-19.716999 6.671 2.349
-19.722 6.6630001 2.345
-19.726999 6.6550002 2.342
-19.73 6.6490002 2.336
-19.728001 6.6529999 2.323
-19.73 6.6500001 2.3150001
-19.743 6.6290002 2.322
-19.740999 6.6329999 2.309
-19.745001 6.6259999 2.3050001
-19.761999 6.599 2.316
-19.927999 6.3280001 0.80199999
-19.926001 6.3309999 0.79299998
-19.933001 6.3200002 0.78899997
-19.934999 6.3169999 0.78100002
-19.934999 6.316 0.773
-19.919001 6.342 0.75800002
-19.927 6.3299999 0.75400001
-19.924 6.3340001 0.745
-19.921 6.3400002 0.73500001
-19.914 6.3509998 0.72399998
-19.934 6.3179998 0.72500002
-19.917999 6.3449998 0.70999998
-19.924999 6.3330002 0.70599997
-19.926001 6.3309999 0.69800001
-19.923 6.336 0.68900001
-19.931999 6.322 0.685
-19.917 6.3449998 0.671
-19.924999 6.3330002 0.66600001
-19.919001 6.342 0.65600002
-19.919001 6.3429999 0.648
-19.919001 6.3429999 0.63999999
-19.927999 6.3280001 0.63599998
-19.922001 6.3369999 0.62599999
-19.923 6.3369999 0.61799997
-19.923 6.336 0.611
-19.924 6.335 0.60299999
-19.934999 6.3169999 0.59899998
-19.93 6.3249998 0.58999997
-19.926001 6.3309999 0.57999998
-19.933001 6.3210001 0.57499999
-19.92 6.3410001 0.56300002
-19.927 6.3299999 0.55699998
-19.922001 6.3369999 0.54799998
-19.934999 6.3169999 0.54500002
-19.936001 6.3150001 0.537
-19.940001 6.309 0.53100002
-19.937 6.3130002 0.52200001
-19.941 6.3080001 0.51499999
-19.955999 6.283 0.51300001
-19.965 6.2690001 0.50800002
-19.974001 6.2550001 0.50300002
-19.983999 6.2389998 0.498
-19.995001 6.2210002 0.49399999
-19.990999 6.2270002 0.48500001
-20.000999 6.21 0.47999999
-19.546 6.9349999 2.8440001
-19.542999 6.9390001 2.8280001
-19.537001 6.9489999 2.8069999
-19.537001 6.9489999 2.7969999
-19.541 6.9429998 2.7920001
-19.534 6.9530001 2.7709999
-19.539 6.9450002 2.7679999
-19.540001 6.9439998 2.7579999
-19.538 6.947 2.7449999
-19.541 6.9419999 2.7390001
-19.534 6.954 2.717
-19.545 6.9359999 2.724
-19.533001 6.954 2.6949999
-19.538 6.947 2.691
-19.545 6.9349999 2.6930001
-19.545 6.9359999 2.681
-19.551001 6.9260001 2.6800001
-19.552 6.9239998 2.6719999
-19.551001 6.9260001 2.6600001
-19.555 6.9190001 2.6559999
-19.563 6.9070001 2.6570001
-19.562 6.9070001 2.6459999
-19.556999 6.9159999 2.6270001
-19.565001 6.9029999 2.6300001
-19.568001 6.8990002 2.6240001
-19.57 6.8959999 2.6159999
-19.570999 6.8930001 2.608
-19.573999 6.888 2.6029999
-19.575001 6.8870001 2.5929999
-19.577 6.8829999 2.586
-19.580999 6.8759999 2.582
-19.586 6.869 2.579
-19.589001 6.8649998 2.573
-19.596001 6.8540001 2.572
-19.598 6.8499999 2.566
-19.594 6.855 2.55
-19.601 6.8449998 2.55
-19.601999 6.8429999 2.5409999
-19.603001 6.842 2.5320001
-19.607 6.836 2.5280001
-19.617001 6.8179998 2.5320001
-19.621 6.8130002 2.527
-19.618999 6.816 2.5150001
-19.628 6.802 2.516
-19.624001 6.8080001 2.5009999
-19.631001 6.7969999 2.5
-19.639 6.783 2.503
-19.635 6.79 2.487
-19.642 6.7789998 2.4849999
-19.65 6.7659998 2.4860001
-19.649 6.7680001 2.4749999
-19.655001 6.7579999 2.474
-19.656 6.756 2.4649999
-19.655001 6.757 2.454
-19.657 6.7550001 2.4460001
-19.662001 6.7470002 2.4430001
-19.667999 6.737 2.441
-19.672001 6.7309999 2.4360001
-19.676001 6.724 2.4319999
-19.674999 6.7249999 2.421
-19.68 6.7179999 2.4170001
-19.677999 6.7210002 2.404
-19.684 6.71 2.4030001
-19.688999 6.7030001 2.3989999
-19.694 6.6939998 2.3970001
-19.698999 6.6859999 2.3929999
-19.698 6.6890001 2.381
-19.700001 6.6849999 2.3740001
-19.708 6.6719999 2.375
-19.704 6.678 2.3599999
-19.709999 6.6690001 2.3570001
-19.719 6.6539998 2.359
-19.715 6.6599998 2.3440001
-19.721001 6.652 2.3410001
-19.726 6.6420002 2.339
-19.726999 6.6399999 2.3299999
-19.729 6.6370001 2.323
-19.731001 6.6339998 2.3150001
-19.731001 6.6339998 2.306
-19.733 6.632 2.2980001
-19.737 6.625 2.293
-19.739 6.6209998 2.286
-19.745001 6.612 2.283
-19.756001 6.5949998 2.286
-19.907 6.348 0.80299997
-19.910999 6.3410001 0.79699999
-19.919001 6.3280001 0.79299998
-19.921 6.3249998 0.78600001
-19.905001 6.3499999 0.77100003
-19.916 6.3330002 0.76800001
-19.919001 6.3280001 0.76099998
-19.921 6.3260002 0.75400001
-19.913 6.3379998 0.74199998
-19.913 6.3379998 0.73500001
-19.915001 6.335 0.727
-19.92 6.3270001 0.722
-19.913 6.3379998 0.71100003
-19.931 6.309 0.71100003
-19.922001 6.3239999 0.699
-19.912001 6.3390002 0.68699998
-19.92 6.3270001 0.68199998
-19.917 6.3319998 0.67299998
-19.92 6.3270001 0.667
-19.92 6.3270001 0.65899998
-19.908001 6.3449998 0.64600003
-19.933001 6.3049998 0.648
-19.922001 6.323 0.63599998
-19.923 6.3210001 0.62900001
-19.921 6.3239999 0.62
-19.922001 6.323 0.61299998
-19.917999 6.329 0.60299999
-19.919001 6.329 0.59600002
-19.919001 6.3280001 0.588
-19.922001 6.323 0.58099997
-19.914 6.3369999 0.57099998
-19.91 6.3429999 0.56099999
-19.915001 6.335 0.55500001
-19.931999 6.3080001 0.55400002
-19.921 6.3249998 0.542
-19.927999 6.3130002 0.537
-19.93 6.3099999 0.52999997
-19.944 6.2880001 0.52600002
-19.951 6.277 0.52100003
-19.950001 6.277 0.51300001
-19.966 6.2529998 0.50999999
-19.969 6.2480001 0.50300002
-19.98 6.2309999 0.49900001
-19.993 6.2090001 0.495
-19.982 6.2259998 0.484
-19.555 6.9089999 2.8659999
-19.552999 6.9109998 2.8529999
-19.549999 6.9159999 2.8380001
-19.541 6.9299998 2.812
-19.542 6.928 2.803
-19.541 6.9299998 2.79
-19.542 6.9289999 2.7809999
-19.535999 6.9380002 2.7609999
-19.542999 6.927 2.7620001
-19.546 6.9219999 2.7550001
-19.539 6.934 2.733
-19.548 6.9200001 2.7360001
-19.542 6.928 2.717
-19.541 6.9299998 2.7049999
-19.537001 6.9359999 2.6889999
-19.540001 6.9310002 2.6830001
-19.534 6.941 2.6630001
-19.548 6.9190001 2.674
-19.548 6.9180002 2.665
-19.549 6.9159999 2.6559999
-19.555 6.9070001 2.654
-19.551001 6.914 2.6370001
-19.558001 6.902 2.6370001
-19.556999 6.9029999 2.6259999
-19.561001 6.8969998 2.622
-19.566 6.8899999 2.618
-19.563999 6.8920002 2.6059999
-19.570999 6.881 2.6059999
-19.573 6.8769999 2.599
-19.575001 6.875 2.5910001
-19.573 6.8769999 2.579
-19.580999 6.8649998 2.579
-19.584 6.8600001 2.5739999
-19.584 6.8600001 2.563
-19.59 6.849 2.563
-19.589001 6.8520002 2.55
-19.594 6.8439999 2.5469999
-19.599001 6.836 2.5450001
-19.597 6.8400002 2.5309999
-19.599001 6.835 2.5250001
-19.608 6.8200002 2.5280001
-19.606001 6.8239999 2.5150001
-19.611 6.816 2.5120001
-19.615999 6.8070002 2.5090001
-19.621 6.8010001 2.5050001
-19.624001 6.796 2.4990001
-19.625 6.7930002 2.4909999
-19.631001 6.7839999 2.4890001
-19.634001 6.7789998 2.483
-19.641001 6.7680001 2.4820001
-19.641001 6.7680001 2.4719999
-19.645 6.7610002 2.4679999
-19.657 6.7410002 2.4749999
-19.65 6.7519999 2.4549999
-19.656 6.743 2.4530001
-19.653 6.7480001 2.4389999
-19.658001 6.7399998 2.4349999
-19.662001 6.7340002 2.4300001
-19.667 6.7259998 2.427
-19.672001 6.717 2.425
-19.673 6.7150002 2.4159999
-19.681 6.704 2.4159999
-19.68 6.7049999 2.404
-19.677999 6.7080002 2.392
-19.684999 6.6960001 2.392
-19.684999 6.697 2.381
-19.694 6.6820002 2.3829999
-19.691 6.6869998 2.3699999
-19.695 6.6789999 2.3659999
-19.698999 6.6729999 2.3599999
-19.705 6.665 2.358
-19.702999 6.6680002 2.345
-19.712 6.6529999 2.3469999
-19.718 6.6430001 2.345
-19.718 6.6440001 2.335
-19.712999 6.651 2.319
-19.721001 6.638 2.319
-19.726 6.6300001 2.316
-19.729 6.625 2.3099999
-19.729 6.625 2.3
-19.74 6.6079998 2.303
-19.739 6.6090002 2.2920001
-19.735001 6.6160002 2.277
-19.74 6.6059999 2.2750001
-19.753 6.585 2.2809999
-19.743999 6.6009998 2.2590001
-19.896999 6.3499999 0.80900002
-19.907 6.3340001 0.80599999
-19.921 6.3109999 0.80500001
-19.914 6.3210001 0.79400003
-19.910999 6.3270001 0.78399998
-19.912001 6.3249998 0.77700001
-19.906 6.336 0.76599997
-19.907 6.3330002 0.759
-19.910999 6.3280001 0.75199997
-19.905001 6.336 0.74199998
-19.908001 6.3319998 0.73500001
-19.909 6.3299999 0.72799999
-19.91 6.329 0.72000003
-19.908001 6.3319998 0.71200001
-19.908001 6.3319998 0.704
-19.91 6.3280001 0.69700003
-19.912001 6.3249998 0.69
-19.914 6.3210001 0.68300003
-19.91 6.329 0.67299998
-19.903 6.3390002 0.66299999
-19.917 6.3179998 0.66000003
-19.916 6.3189998 0.65200001
-19.91 6.3280001 0.64200002
-19.906 6.335 0.63200003
-19.922001 6.309 0.63099998
-19.905001 6.336 0.616
-19.915001 6.3210001 0.61199999
-19.919001 6.3140001 0.60600001
-19.907 6.3330002 0.59399998
-19.914 6.323 0.588
-19.909 6.3299999 0.579
-19.906 6.3340001 0.56999999
-19.92 6.3109999 0.56800002
-19.913 6.3239999 0.55699998
-19.913 6.323 0.54900002
-19.92 6.3130002 0.54400003
-19.927999 6.2989998 0.53899997
-19.943001 6.2750001 0.53600001
-19.950001 6.2639999 0.53100002
-19.945 6.2709999 0.52100003
-19.966 6.237 0.52100003
-19.969999 6.2309999 0.514
-19.973 6.2259998 0.50700003
-19.975 6.224 0.49900001
-19.552 6.901 2.8710001
-19.552 6.901 2.8599999
-19.551001 6.902 2.8469999
-19.544001 6.914 2.825
-19.546 6.9089999 2.8180001
-19.548 6.9070001 2.8099999
-19.542 6.9159999 2.79
-19.542999 6.915 2.7809999
-19.540001 6.9200001 2.7650001
-19.542 6.9159999 2.7579999
-19.542999 6.915 2.7490001
-19.538 6.9229999 2.73
-19.542999 6.915 2.727
-19.541 6.9169998 2.714
-19.542 6.9159999 2.7049999
-19.535 6.928 2.6830001
-19.541 6.9180002 2.6819999
-19.548 6.9070001 2.6819999
-19.547001 6.908 2.6700001
-19.545 6.9109998 2.6570001
-19.547001 6.908 2.6489999
-19.552999 6.8979998 2.6489999
-19.552 6.9000001 2.6359999
-19.549 6.9050002 2.622
-19.559 6.888 2.6270001
-19.561001 6.8850002 2.6199999
-19.563 6.882 2.612
-19.561001 6.8850002 2.599
-19.561001 6.8839998 2.5899999
-19.562 6.8829999 2.5799999
-19.568001 6.8740001 2.579
-19.577 6.8590002 2.582
-19.58 6.8540001 2.576
-19.583 6.8499999 2.5699999
-19.580999 6.8520002 2.5569999
-19.577999 6.8569999 2.5420001
-19.594999 6.8299999 2.5569999
-19.589001 6.8400002 2.5380001
-19.591 6.836 2.5309999
-19.598 6.8239999 2.5309999
-19.608999 6.8070002 2.5369999
-19.604 6.8140001 2.52
-19.606001 6.8109999 2.5120001
-19.608999 6.8070002 2.506
-19.611 6.8039999 2.4990001
-19.613001 6.8000002 2.4920001
-19.615999 6.796 2.4860001
-19.622999 6.7849998 2.4849999
-19.627001 6.777 2.4809999
-19.634001 6.7670002 2.48
-19.638 6.7600002 2.4760001
-19.638 6.7600002 2.4660001
-19.642 6.7529998 2.461
-19.639999 6.756 2.45
-19.646 6.7459998 2.448
-19.653 6.7350001 2.447
-19.657 6.7280002 2.4419999
-19.652 6.737 2.425
-19.663 6.7189999 2.4300001
-19.666 6.7129998 2.425
-19.667999 6.7119999 2.4159999
-19.672001 6.7049999 2.4119999
-19.671 6.7059999 2.401
-19.669001 6.7090001 2.3889999
-19.687 6.6799998 2.402
-19.684999 6.6830001 2.3900001
-19.686001 6.6820002 2.3800001
-19.690001 6.6760001 2.3759999
-19.686001 6.6810002 2.362
-19.684 6.6849999 2.349
-19.698999 6.6609998 2.358
-19.701 6.6570001 2.3510001
-19.702999 6.6529999 2.3440001
-19.705999 6.6490002 2.3369999
-19.709999 6.6420002 2.3329999
-19.724001 6.6199999 2.3399999
-19.716999 6.631 2.322
-19.719999 6.6269999 2.3150001
-19.721001 6.625 2.3069999
-19.726 6.6160002 2.3039999
-19.719999 6.625 2.2869999
-19.733 6.605 2.2920001
-19.729 6.6110001 2.279
-19.731001 6.6079998 2.2709999
-19.731001 6.6079998 2.2609999
-19.742001 6.5910001 2.2639999
-19.740999 6.5910001 2.2539999
-19.746 6.5840001 2.25
-19.74 6.5929999 2.233
-19.892 6.3439999 0.81800002
-19.9 6.3299999 0.81400001
-19.912001 6.3109999 0.81099999
-19.91 6.3150001 0.80199999
-19.903999 6.3239999 0.792
-19.902 6.3270001 0.78299999
-19.903 6.3260002 0.77499998
-19.900999 6.329 0.76700002
-19.903999 6.3239999 0.75999999
-19.903999 6.3249998 0.75199997
-19.906 6.3210001 0.745
-19.900999 6.329 0.73500001
-19.900999 6.3280001 0.727
-19.899 6.3330002 0.71799999
-19.910999 6.3130002 0.71600002
-19.903 6.3249998 0.70499998
-19.900999 6.3280001 0.69599998
-19.900999 6.329 0.68800002
-19.896999 6.336 0.67799997
-19.905001 6.322 0.67400002
-19.906 6.3210001 0.66600001
-19.91 6.3150001 0.66000003
-19.91 6.3130002 0.65200001
-19.908001 6.3179998 0.64300001
-19.902 6.3270001 0.63300002
-19.902 6.3270001 0.62599999
-19.906 6.3210001 0.61900002
-19.903 6.3260002 0.61000001
-19.903 6.3249998 0.60299999
-19.903999 6.3239999 0.59500003
-19.899 6.3309999 0.58600003
-19.909 6.3150001 0.58099997
-19.910999 6.3130002 0.574
-19.910999 6.3119998 0.56699997
-19.91 6.3150001 0.55800003
-19.907 6.3179998 0.55000001
-19.929001 6.2839999 0.54900002
-19.934 6.2750001 0.54299998
-19.941999 6.2620001 0.53799999
-19.951 6.2470002 0.53299999
-19.948999 6.2509999 0.52499998
-19.968 6.2189999 0.523
-19.975 6.2090001 0.51800001
-19.965 6.224 0.50700003
-19.558001 6.8790002 2.8789999
-19.552999 6.8860002 2.8599999
-19.549999 6.8909998 2.8440001
-19.555 6.8829999 2.8410001
-19.554001 6.8850002 2.8280001
-19.549 6.8940001 2.809
-19.548 6.895 2.7969999
-19.549 6.8940001 2.7869999
-19.542999 6.902 2.7679999
-19.546 6.8979998 2.7620001
-19.542 6.9039998 2.7449999
-19.547001 6.8959999 2.7420001
-19.546 6.8979998 2.73
-19.541 6.9060001 2.711
-19.542999 6.902 2.7049999
-19.542 6.9039998 2.6919999
-19.539 6.9089999 2.677
-19.541 6.9050002 2.6700001
-19.544001 6.901 2.664
-19.538 6.9099998 2.645
-19.542 6.9029999 2.641
-19.547001 6.8959999 2.6370001
-19.554001 6.8850002 2.6370001
-19.559 6.8759999 2.635
-19.556999 6.8800001 2.622
-19.554001 6.8839998 2.6070001
-19.559 6.8759999 2.6040001
-19.562 6.8709998 2.599
-19.570999 6.8569999 2.6010001
-19.569 6.8600001 2.5880001
-19.570999 6.8569999 2.5799999
-19.573999 6.8509998 2.576
-19.566999 6.862 2.5550001
-19.57 6.8579998 2.549
-19.573999 6.8509998 2.5450001
-19.579 6.8429999 2.5420001
-19.584999 6.8330002 2.54
-19.587999 6.829 2.5350001
-19.598 6.8119998 2.539
-19.587 6.8309999 2.513
-19.608999 6.7940001 2.5350001
-19.601 6.8080001 2.5120001
-19.603001 6.8039999 2.506
-19.6 6.809 2.4920001
-19.611 6.7909999 2.497
-19.612 6.789 2.4890001
-19.618 6.7789998 2.487
-19.615 6.7839999 2.473
-19.622 6.7729998 2.4719999
-19.624001 6.77 2.4649999
-19.625 6.7680001 2.4560001
-19.634001 6.7529998 2.4590001
-19.636999 6.7490001 2.4519999
-19.638 6.7470002 2.444
-19.646999 6.7319999 2.447
-19.650999 6.7259998 2.441
-19.658001 6.7140002 2.441
-19.649 6.7290001 2.4189999
-19.653 6.7220001 2.415
-19.657 6.7150002 2.4100001
-19.660999 6.7090001 2.405
-19.666 6.7010002 2.402
-19.67 6.6950002 2.3970001
-19.674 6.6869998 2.3929999
-19.674 6.6880002 2.3829999
-19.681999 6.6739998 2.3840001
-19.684 6.6719999 2.3759999
-19.677999 6.6820002 2.358
-19.684 6.6719999 2.3559999
-19.691 6.6599998 2.355
-19.690001 6.6620002 2.3440001
-19.700001 6.6459999 2.3469999
-19.704 6.6389999 2.3429999
-19.708 6.6329999 2.3369999
-19.709 6.632 2.3280001
-19.714001 6.6240001 2.325
-19.712999 6.625 2.3139999
-19.719999 6.612 2.3139999
-19.718 6.6160002 2.3010001
-19.724001 6.6059999 2.299
-19.724001 6.6069999 2.289
-19.725 6.6040001 2.2809999
-19.736 6.5869999 2.2839999
-19.725 6.605 2.2609999
-19.733 6.592 2.26
-19.732 6.5929999 2.25
-19.733999 6.5900002 2.2420001
-19.747 6.5689998 2.2490001
-19.737 6.5840001 2.227
-19.745001 6.5710001 2.227
-19.885 6.3400002 0.83399999
-19.885 6.3400002 0.82599998
-19.905001 6.3080001 0.82700002
-19.903 6.3119998 0.81800002
-19.893 6.3280001 0.80500001
-19.875999 6.355 0.79000002
-19.898001 6.3200002 0.792
-19.898001 6.3200002 0.78399998
-19.898001 6.3200002 0.77600002
-19.892 6.3299999 0.76499999
-19.896999 6.3210001 0.75999999
-19.9 6.3169999 0.75300002
-19.889999 6.3319998 0.741
-19.889999 6.3330002 0.73299998
-19.893 6.3280001 0.72600001
-19.895 6.3249998 0.71899998
-19.895 6.3249998 0.71100003
-19.889999 6.3330002 0.70200002
-19.882 6.3460002 0.69
-19.892 6.329 0.68699998
-19.891001 6.3299999 0.67900002
-19.893 6.3270001 0.67199999
-19.898001 6.3189998 0.66600001
-19.899 6.3179998 0.65799999
-19.902 6.3119998 0.65200001
-19.9 6.316 0.64300001
-19.898001 6.3179998 0.63499999
-19.893 6.3270001 0.625
-19.9 6.3169999 0.61900002
-19.896 6.323 0.61000001
-19.900999 6.3150001 0.60399997
-19.902 6.3130002 0.597
-19.906 6.3060002 0.58999997
-19.889 6.3340001 0.57599998
-19.903 6.3109999 0.574
-19.908001 6.303 0.56800002
-19.908001 6.303 0.56
-19.921 6.2820001 0.55699998
-19.938999 6.2529998 0.55500001
-19.931999 6.263 0.54500002
-19.944 6.2449999 0.54100001
-19.944 6.243 0.53299999
-19.968 6.204 0.53399998
-19.971001 6.1999998 0.52700001
-19.563 6.8579998 2.8629999
-19.559 6.8639998 2.846
-19.552999 6.8740001 2.825
-19.556 6.869 2.819
-19.552999 6.875 2.803
-19.545 6.8860002 2.78
-19.554001 6.8720002 2.7839999
-19.547001 6.8829999 2.7620001
-19.548 6.882 2.753
-19.546 6.8850002 2.7390001
-19.542999 6.8899999 2.723
-19.540001 6.895 2.7079999
-19.541 6.8940001 2.6989999
-19.537001 6.8990002 2.6830001
-19.544001 6.888 2.6830001
-19.540001 6.8940001 2.6670001
-19.549 6.8800001 2.6700001
-19.548 6.882 2.658
-19.542 6.8909998 2.6389999
-19.545 6.8870001 2.632
-19.549 6.8800001 2.628
-19.551001 6.8769999 2.6210001
-19.551001 6.8769999 2.6099999
-19.556999 6.8670001 2.609
-19.556999 6.8670001 2.599
-19.559999 6.862 2.5929999
-19.563 6.8569999 2.5869999
-19.562 6.8590002 2.575
-19.566999 6.8509998 2.573
-19.565001 6.8540001 2.5599999
-19.577999 6.8319998 2.569
-19.58 6.829 2.562
-19.577999 6.8330002 2.5480001
-19.579 6.8299999 2.5409999
-19.583 6.8239999 2.5350001
-19.583 6.8239999 2.5250001
-19.587 6.8179998 2.5209999
-19.59 6.8130002 2.5150001
-19.593 6.8080001 2.5090001
-19.607 6.7849998 2.5190001
-19.601999 6.7930002 2.5020001
-19.605 6.789 2.4960001
-19.607 6.7849998 2.4890001
-19.607 6.7849998 2.4790001
-19.612 6.777 2.4760001
-19.612 6.777 2.4660001
-19.617001 6.7690001 2.4619999
-19.621 6.7610002 2.4590001
-19.625999 6.7540002 2.4549999
-19.625999 6.7529998 2.4460001
-19.636 6.737 2.4489999
-19.636 6.7360001 2.4400001
-19.636999 6.7360001 2.4300001
-19.639999 6.73 2.425
-19.634001 6.7399998 2.4070001
-19.649 6.7150002 2.4170001
-19.653 6.71 2.4119999
-19.658001 6.7010002 2.4089999
-19.66 6.697 2.402
-19.658001 6.7010002 2.3889999
-19.664 6.691 2.388
-19.667999 6.684 2.3829999
-19.674999 6.6739998 2.381
-19.674999 6.6739998 2.3710001
-19.677 6.6700001 2.365
-19.68 6.665 2.358
-19.684999 6.6570001 2.355
-19.686001 6.6560001 2.346
-19.681999 6.6620002 2.3310001
-19.687 6.6529999 2.329
-19.691999 6.645 2.325
-19.705 6.6240001 2.332
-19.705999 6.6230001 2.323
-19.702 6.6290002 2.3080001
-19.708 6.619 2.306
-19.716 6.605 2.306
-19.715 6.6069999 2.2950001
-19.718 6.6020002 2.289
-19.725 6.592 2.2869999
-19.729 6.585 2.2820001
-19.729 6.5840001 2.273
-19.732 6.5799999 2.267
-19.732 6.579 2.2579999
-19.728001 6.5869999 2.2420001
-19.742001 6.5630002 2.25
-19.735001 6.5749998 2.2320001
-19.739 6.5679998 2.227
-19.740999 6.5650001 2.22
-19.749001 6.5510001 2.22
-19.75 6.5489998 2.211
-19.884001 6.3270001 0.84399998
-19.884001 6.3280001 0.83600003
-19.895 6.309 0.83399999
-19.893 6.3119998 0.82499999
-19.888 6.322 0.81400001
-19.884001 6.3270001 0.80400002
-19.888 6.3210001 0.79799998
-19.893 6.3140001 0.79299998
-19.888 6.3200002 0.78299999
-19.882999 6.329 0.77200001
-19.885 6.3249998 0.76499999
-19.881001 6.3330002 0.755
-19.881001 6.3319998 0.74800003
-19.893 6.3130002 0.745
-19.885 6.3260002 0.73400003
-19.889 6.3200002 0.72799999
-19.875 6.3410001 0.71399999
-19.888 6.322 0.71100003
-19.882 6.3309999 0.70099998
-19.889999 6.3179998 0.69599998
-19.884001 6.3280001 0.68599999
-19.886999 6.322 0.68000001
-19.886 6.3239999 0.671
-19.886999 6.323 0.66399997
-19.882999 6.3280001 0.65499997
-19.889999 6.3179998 0.64899999
-19.895 6.309 0.64399999
-19.891001 6.3150001 0.634
-19.892 6.3140001 0.62699997
-19.891001 6.316 0.61900002
-19.885 6.3260002 0.60799998
-19.886999 6.322 0.602
-19.895 6.309 0.597
-19.893 6.3119998 0.588
-19.893999 6.3099999 0.58099997
-19.893999 6.3119998 0.57300001
-19.906 6.2919998 0.56900001
-19.906 6.2919998 0.56199998
-19.92 6.2690001 0.55900002
-19.931999 6.2490001 0.55500001
-19.933001 6.2480001 0.54799998
-19.938999 6.237 0.542
-19.945999 6.2270002 0.53600001
-19.951 6.2179999 0.52999997
-19.563999 6.8429999 2.852
-19.548 6.8699999 2.8150001
-19.559 6.8520002 2.822
-19.556 6.8569999 2.806
-19.556999 6.8559999 2.7969999
-19.552999 6.862 2.78
-19.551001 6.8660002 2.7650001
-19.555 6.8579998 2.7609999
-19.548 6.8699999 2.74
-19.549 6.869 2.73
-19.547001 6.8709998 2.717
-19.541 6.8800001 2.698
-19.542999 6.8790002 2.6889999
-19.545 6.8740001 2.6830001
-19.546 6.8730001 2.6730001
-19.544001 6.875 2.661
-19.542999 6.8779998 2.648
-19.548 6.8699999 2.645
-19.546 6.8720002 2.632
-19.547001 6.8709998 2.6229999
-19.551001 6.8639998 2.6199999
-19.547001 6.8699999 2.6029999
-19.549999 6.8649998 2.598
-19.551001 6.8639998 2.589
-19.558001 6.8530002 2.5880001
-19.559 6.8509998 2.5799999
-19.566 6.8400002 2.579
-19.566999 6.8379998 2.5710001
-19.572001 6.8299999 2.5680001
-19.558001 6.8520002 2.5380001
-19.573999 6.8260002 2.5510001
-19.576 6.8239999 2.543
-19.579 6.8179998 2.5380001
-19.586 6.8070002 2.5369999
-19.584 6.8109999 2.5239999
-19.582001 6.8130002 2.5120001
-19.587999 6.803 2.5109999
-19.587 6.8049998 2.4990001
-19.596001 6.79 2.5020001
-19.599001 6.7849998 2.4960001
-19.604 6.7779999 2.4920001
-19.601999 6.7810001 2.48
-19.608 6.77 2.4779999
-19.608999 6.7690001 2.47
-19.607 6.7729998 2.457
-19.618999 6.7519999 2.464
-19.618 6.7550001 2.4519999
-19.620001 6.7509999 2.4449999
-19.628 6.7379999 2.4449999
-19.625999 6.7399998 2.434
-19.632 6.73 2.4319999
-19.639 6.7189999 2.4319999
-19.638 6.7199998 2.4200001
-19.639999 6.717 2.4130001
-19.643999 6.711 2.408
-19.646999 6.7069998 2.402
-19.653 6.6960001 2.401
-19.655001 6.6929998 2.3929999
-19.653999 6.6950002 2.381
-19.664 6.678 2.385
-19.663 6.6789999 2.3740001
-19.667 6.6729999 2.369
-19.667 6.6729999 2.3599999
-19.677 6.6560001 2.3629999
-19.68 6.652 2.3570001
-19.681999 6.6479998 2.349
-19.684 6.6459999 2.3410001
-19.677999 6.6560001 2.3239999
-19.693001 6.631 2.3329999
-19.704 6.6129999 2.3369999
-19.695 6.6279998 2.316
-19.705999 6.6090002 2.3210001
-19.705 6.6110001 2.309
-19.697001 6.6230001 2.29
-19.709 6.6040001 2.2950001
-19.709999 6.6020002 2.2869999
-19.707001 6.6079998 2.273
-19.722 6.5830002 2.2809999
-19.721001 6.585 2.27
-19.726 6.5749998 2.267
-19.729 6.5710001 2.2609999
-19.723 6.5809999 2.244
-19.732 6.566 2.2449999
-19.73 6.5689998 2.233
-19.733999 6.5630002 2.2279999
-19.743 6.5479999 2.2290001
-19.738001 6.5560002 2.214
-19.743999 6.546 2.211
-19.743999 6.5469999 2.201
-19.74 6.553 2.187
-19.752001 6.533 2.191
-19.874001 6.329 0.85900003
-19.868999 6.3369999 0.84799999
-19.878 6.323 0.84399998
-19.888 6.3070002 0.84100002
-19.884001 6.3140001 0.83099997
-19.872999 6.3309999 0.81800002
-19.871 6.3340001 0.80900002
-19.884001 6.3140001 0.80699998
-19.881001 6.3179998 0.79799998
-19.871 6.335 0.78500003
-19.882 6.316 0.78299999
-19.867001 6.3410001 0.76800001
-19.872999 6.3319998 0.76300001
-19.872999 6.3309999 0.755
-19.878 6.3239999 0.74900001
-19.875 6.3280001 0.74000001
-19.879999 6.3200002 0.73400003
-19.875 6.3280001 0.72399998
-19.886 6.3099999 0.72100002
-19.885 6.3109999 0.713
-19.872999 6.3309999 0.69999999
-19.878 6.322 0.69400001
-19.885 6.3109999 0.68900001
-19.879 6.322 0.67900002
-19.882999 6.3150001 0.67299998
-19.881001 6.3179998 0.66399997
-19.882 6.316 0.65700001
-19.884001 6.3140001 0.64899999
-19.882 6.316 0.64099997
-19.879999 6.3200002 0.63200003
-19.875999 6.3270001 0.62300003
-19.879999 6.3200002 0.61699998
-19.889 6.3049998 0.61199999
-19.891001 6.3010001 0.60500002
-19.872 6.3330002 0.58999997
-19.885 6.3119998 0.58700001
-19.889999 6.303 0.58200002
-19.895 6.2940001 0.57599998
-19.917999 6.257 0.57599998
-19.917 6.2579999 0.56800002
-19.924999 6.2459998 0.56300002
-19.924999 6.2449999 0.55500001
-19.954 6.198 0.55699998
-19.955 6.197 0.55000001
-19.941999 6.2189999 0.537
-19.575001 6.8140001 2.8559999
-19.554001 6.8470001 2.813
-19.556999 6.8429999 2.806
-19.559999 6.8379998 2.8
-19.555 6.8460002 2.7809999
-19.555 6.8449998 2.7709999
-19.552 6.8509998 2.7539999
-19.552999 6.849 2.7460001
-19.549 6.855 2.73
-19.555 6.8460002 2.727
-19.548 6.8569999 2.707
-19.546 6.8610001 2.6919999
-19.544001 6.8629999 2.6800001
-19.542 6.8660002 2.6659999
-19.545 6.8610001 2.661
-19.552 6.8499999 2.6600001
-19.551001 6.8520002 2.648
-19.552999 6.848 2.641
-19.552 6.8499999 2.6289999
-19.549999 6.8530002 2.6159999
-19.552999 6.848 2.6099999
-19.549 6.8540001 2.5940001
-19.552 6.8499999 2.5880001
-19.558001 6.8400002 2.586
-19.558001 6.8410001 2.576
-19.566 6.8260002 2.5780001
-19.561001 6.8340001 2.5610001
-19.563999 6.8299999 2.5550001
-19.569 6.8210001 2.552
-19.57 6.8200002 2.5439999
-19.579 6.8060002 2.546
-19.573999 6.8140001 2.5280001
-19.573999 6.8130002 2.5190001
-19.575001 6.8119998 2.51
-19.583 6.7979999 2.5120001
-19.584 6.7979999 2.5020001
-19.584 6.7969999 2.493
-19.594 6.7800002 2.497
-19.589001 6.7880001 2.48
-19.597 6.776 2.4809999
-19.598 6.7740002 2.473
-19.598 6.7729998 2.4630001
-19.608 6.7579999 2.4660001
-19.604 6.7639999 2.451
-19.618 6.7399998 2.461
-19.613001 6.7490001 2.4430001
-19.617001 6.743 2.438
-19.618 6.7410002 2.4300001
-19.622 6.7340002 2.4260001
-19.627001 6.7259998 2.4230001
-19.636 6.7119999 2.424
-19.628 6.724 2.405
-19.639999 6.704 2.411
-19.639 6.7069998 2.3989999
-19.641001 6.7020001 2.3929999
-19.652 6.6849999 2.3970001
-19.653999 6.6810002 2.3900001
-19.650999 6.6869998 2.375
-19.659 6.6729999 2.3759999
-19.657 6.677 2.3629999
-19.663 6.6659999 2.362
-19.664 6.665 2.3529999
-19.663 6.6659999 2.342
-19.672001 6.651 2.3440001
-19.679001 6.6389999 2.3429999
-19.679001 6.6399999 2.3329999
-19.684 6.631 2.3299999
-19.688 6.625 2.325
-19.687 6.6269999 2.3139999
-19.693001 6.6170001 2.312
-19.698 6.6079998 2.309
-19.698 6.6079998 2.299
-19.702999 6.6009998 2.2950001
-19.708 6.5910001 2.2920001
-19.709999 6.5879998 2.2850001
-19.709999 6.5879998 2.2750001
-19.711 6.5869999 2.266
-19.714001 6.5809999 2.2609999
-19.723 6.566 2.2620001
-19.723 6.5669999 2.2509999
-19.726999 6.5609999 2.2460001
-19.722 6.5689998 2.2309999
-19.726999 6.5609999 2.227
-19.729 6.5570002 2.22
-19.74 6.539 2.223
-19.737 6.5430002 2.21
-19.745001 6.5300002 2.21
-19.747 6.527 2.2030001
-19.750999 6.5209999 2.198
-19.746 6.5289998 2.1819999
-19.752001 6.5180001 2.1800001
-19.756001 6.513 2.174
-19.878 6.309 0.87199998
-19.865 6.3299999 0.85699999
-19.882 6.303 0.85699999
-19.877001 6.3099999 0.847
-19.868999 6.323 0.83499998
-19.863001 6.3340001 0.824
-19.865999 6.329 0.81800002
-19.871 6.3200002 0.81199998
-19.868 6.3249998 0.80299997
-19.875999 6.3119998 0.79900002
-19.872 6.3179998 0.78899997
-19.868 6.3260002 0.77899998
-19.874001 6.3140001 0.77399999
-19.867001 6.3270001 0.76300001
-19.875999 6.3109999 0.759
-19.871 6.3200002 0.74900001
-19.868999 6.3239999 0.74000001
-19.867001 6.3270001 0.73100001
-19.872999 6.3169999 0.72600001
-19.872 6.3189998 0.71799999
-19.872999 6.316 0.71100003
-19.871 6.3200002 0.70200002
-19.867001 6.3260002 0.69199997
-19.875 6.3130002 0.68800002
-19.875999 6.3109999 0.68000001
-19.872999 6.316 0.671
-19.875 6.3130002 0.66399997
-19.881001 6.3039999 0.65899998
-19.874001 6.3150001 0.648
-19.871 6.3200002 0.639
-19.874001 6.3140001 0.63300002
-19.874001 6.3150001 0.625
-19.879999 6.3060002 0.61900002
-19.882999 6.2989998 0.61299998
-19.870001 6.3210001 0.60000002
-19.879 6.3070002 0.59500003
-19.889999 6.2880001 0.59200001
-19.898001 6.2750001 0.58700001
-19.902 6.2690001 0.57999998
-19.906 6.2610002 0.574
-19.92 6.2389998 0.57099998
-19.926001 6.2290001 0.56599998
-19.940001 6.2059999 0.56300002
-19.947001 6.1939998 0.55699998
-19.565001 6.8169999 2.816
-19.561001 6.823 2.8
-19.563999 6.8189998 2.793
-19.558001 6.8270001 2.7739999
-19.555 6.8330002 2.7579999
-19.556 6.8309999 2.7490001
-19.554001 6.8340001 2.7360001
-19.551001 6.8390002 2.72
-19.556 6.8309999 2.717
-19.549 6.8429999 2.6949999
-19.551001 6.8400002 2.688
-19.544001 6.8509998 2.6670001
-19.545 6.8499999 2.6570001
-19.549 6.842 2.654
-19.549999 6.8410001 2.645
-19.548 6.8439999 2.632
-19.552999 6.836 2.6289999
-19.556 6.8319998 2.622
-19.554001 6.835 2.609
-19.556999 6.8299999 2.6029999
-19.552999 6.836 2.5880001
-19.552 6.8379998 2.575
-19.554001 6.8340001 2.569
-19.556 6.8299999 2.562
-19.563999 6.8169999 2.563
-19.559999 6.823 2.5480001
-19.568001 6.8099999 2.549
-19.568001 6.8119998 2.5380001
-19.569 6.809 2.53
-19.573999 6.8000002 2.527
-19.576 6.7969999 2.52
-19.573999 6.8000002 2.507
-19.58 6.79 2.506
-19.579 6.7930002 2.493
-19.583 6.7849998 2.49
-19.584 6.7849998 2.48
-19.591999 6.7719998 2.4820001
-19.598 6.7610002 2.4809999
-19.605 6.75 2.48
-19.594 6.7680001 2.454
-19.607 6.7470002 2.4619999
-19.606001 6.7480001 2.451
-19.611 6.7399998 2.448
-19.610001 6.7399998 2.438
-19.613001 6.7360001 2.431
-19.617001 6.7290001 2.427
-19.622999 6.7199998 2.425
-19.620001 6.724 2.411
-19.631001 6.7059999 2.4159999
-19.634001 6.7010002 2.4100001
-19.635 6.6999998 2.402
-19.635 6.698 2.3929999
-19.636 6.697 2.3840001
-19.648001 6.677 2.3900001
-19.646 6.6799998 2.378
-19.650999 6.6729999 2.3740001
-19.646999 6.6789999 2.359
-19.657 6.6630001 2.362
-19.658001 6.6599998 2.3540001
-19.664 6.651 2.352
-19.664 6.652 2.3410001
-19.67 6.6409998 2.3399999
-19.673 6.6360002 2.3329999
-19.673 6.6370001 2.323
-19.676001 6.631 2.3180001
-19.681999 6.6209998 2.316
-19.688999 6.6100001 2.3139999
-19.691999 6.605 2.3080001
-19.691 6.6059999 2.2980001
-19.695 6.599 2.293
-19.701 6.5900002 2.29
-19.704 6.5840001 2.2850001
-19.704 6.585 2.2739999
-19.705 6.5830002 2.266
-19.705 6.5840001 2.256
-19.714001 6.5679998 2.2579999
-19.716 6.5650001 2.25
-19.716999 6.5630002 2.2420001
-19.726 6.5489998 2.243
-19.725 6.5489998 2.233
-19.726999 6.546 2.2249999
-19.729 6.5440001 2.217
-19.738001 6.5279999 2.2190001
-19.739 6.526 2.21
-19.736 6.5320001 2.1960001
-19.745001 6.5170002 2.198
-19.746 6.5149999 2.1900001
-19.745001 6.5159998 2.1789999
-19.747 6.513 2.171
-19.745001 6.5170002 2.1589999
-19.753 6.5029998 2.1589999
-19.754999 6.5 2.152
-19.856001 6.3309999 0.88
-19.85 6.3400002 0.86900002
-19.858999 6.3249998 0.866
-19.882999 6.2859998 0.86900002
-19.865999 6.3140001 0.85299999
-19.867001 6.3119998 0.84500003
-19.861 6.322 0.83399999
-19.871 6.3060002 0.83099997
-19.860001 6.3239999 0.81800002
-19.863001 6.3179998 0.81199998
-19.865999 6.3130002 0.80500001
-19.863001 6.3179998 0.796
-19.872999 6.302 0.79299998
-19.865 6.3150001 0.78100002
-19.865 6.316 0.773
-19.868999 6.3080001 0.76700002
-19.860001 6.323 0.755
-19.851 6.3379998 0.74299997
-19.860001 6.3239999 0.73900002
-19.862 6.3200002 0.73199999
-19.860001 6.323 0.72399998
-19.861 6.322 0.71600002
-19.861 6.3210001 0.708
-19.868999 6.309 0.704
-19.865999 6.3130002 0.69499999
-19.863001 6.3189998 0.685
-19.863001 6.3179998 0.67799997
-19.868999 6.3080001 0.67199999
-19.871 6.3049998 0.66500002
-19.870001 6.3070002 0.65700001
-19.863001 6.3179998 0.64600003
-19.868 6.3099999 0.64099997
-19.860001 6.323 0.63
-19.868 6.3099999 0.625
-19.868999 6.3080001 0.61799997
-19.868 6.309 0.60900003
-19.877001 6.296 0.60500002
-19.882999 6.2849998 0.60000002
-19.893 6.2680001 0.59600002
-19.893999 6.2659998 0.588
-19.912001 6.2379999 0.58700001
-19.906 6.2470002 0.57700002
-19.931 6.2059999 0.57800001
-19.931999 6.2030001 0.56999999
-19.945999 6.1810002 0.56699997
-19.573999 6.789 2.8180001
-19.568001 6.7989998 2.7980001
-19.556999 6.816 2.7709999
-19.559999 6.8119998 2.7639999
-19.561001 6.8099999 2.7550001
-19.552 6.8260002 2.7290001
-19.556 6.8189998 2.7260001
-19.555 6.8200002 2.7130001
-19.558001 6.816 2.707
-19.551001 6.8270001 2.6860001
-19.552999 6.823 2.6789999
-19.552999 6.823 2.668
-19.549999 6.8280001 2.6530001
-19.545 6.8369999 2.635
-19.552999 6.822 2.638
-19.552 6.8249998 2.625
-19.555 6.8200002 2.619
-19.556999 6.816 2.612
-19.545 6.836 2.585
-19.549999 6.8280001 2.5810001
-19.555 6.8200002 2.5780001
-19.552999 6.823 2.5650001
-19.552999 6.822 2.556
-19.554001 6.8210001 2.546
-19.559 6.8119998 2.5439999
-19.562 6.8080001 2.5380001
-19.561001 6.809 2.526
-19.566 6.802 2.523
-19.566999 6.8000002 2.5150001
-19.576 6.7849998 2.517
-19.572001 6.7909999 2.5020001
-19.572001 6.7909999 2.4920001
-19.575001 6.7859998 2.4860001
-19.58 6.7779999 2.483
-19.58 6.7779999 2.473
-19.586 6.7680001 2.471
-19.584999 6.77 2.46
-19.59 6.7610002 2.457
-19.596001 6.7519999 2.4549999
-19.603001 6.7389998 2.4560001
-19.599001 6.7459998 2.4400001
-19.604 6.7379999 2.437
-19.612 6.7249999 2.438
-19.612 6.724 2.4289999
-19.615999 6.717 2.424
-19.618 6.7140002 2.4170001
-19.625 6.7030001 2.4159999
-19.621 6.7090001 2.401
-19.622 6.7069998 2.392
-19.625999 6.7010002 2.388
-19.632 6.6919999 2.385
-19.639999 6.677 2.3870001
-19.639 6.6789999 2.3759999
-19.648001 6.665 2.3770001
-19.646 6.6669998 2.365
-19.652 6.6589999 2.362
-19.650999 6.6589999 2.352
-19.653 6.6560001 2.345
-19.659 6.6459999 2.3429999
-19.663 6.6389999 2.3380001
-19.674 6.6220002 2.342
-19.67 6.6269999 2.3280001
-19.672001 6.6240001 2.3199999
-19.673 6.6230001 2.3110001
-19.669001 6.6300001 2.296
-19.676001 6.618 2.2950001
-19.687 6.5999999 2.299
-19.688 6.5970001 2.2920001
-19.691 6.5929999 2.286
-19.695 6.586 2.2809999
-19.700001 6.5780001 2.277
-19.688999 6.5960002 2.2539999
-19.705999 6.5689998 2.2639999
-19.702999 6.572 2.2520001
-19.702999 6.573 2.2420001
-19.712 6.5580001 2.243
-19.722 6.5409999 2.2449999
-19.724001 6.5380001 2.2379999
-19.722 6.54 2.227
-19.724001 6.5370002 2.2190001
-19.729 6.5289998 2.2160001
-19.735001 6.52 2.2119999
-19.725 6.5359998 2.191
-19.74 6.5110002 2.1989999
-19.735001 6.52 2.1830001
-19.739 6.513 2.178
-19.733 6.5219998 2.1630001
-19.742001 6.507 2.1630001
-19.743 6.5050001 2.155
-19.739 6.513 2.1400001
-19.764999 6.4699998 2.1600001
-19.764999 6.4699998 2.151
-19.773001 6.4559999 2.1500001
-19.846001 6.3319998 0.88599998
-19.851 6.3239999 0.88
-19.857 6.3130002 0.87599999
-19.868999 6.2930002 0.87400001
-19.860001 6.3080001 0.861
-19.851999 6.322 0.84899998
-19.858 6.3119998 0.84399998
-19.844999 6.3330002 0.82999998
-19.854 6.3189998 0.82599998
-19.857 6.3130002 0.81999999
-19.85 6.3260002 0.80800003
-19.849001 6.3270001 0.80000001
-19.860001 6.309 0.79799998
-19.860001 6.309 0.78899997
-19.855 6.3169999 0.77899998
-19.847 6.3309999 0.76700002
-19.858 6.3119998 0.76499999
-19.858 6.3119998 0.75700003
-19.844999 6.3330002 0.74299997
-19.872 6.289 0.74699998
-19.856001 6.316 0.73199999
-19.855 6.3169999 0.72399998
-19.854 6.3179998 0.71600002
-19.863001 6.3039999 0.71200001
-19.858999 6.309 0.70200002
-19.858 6.3119998 0.69400001
-19.855 6.3169999 0.685
-19.858 6.3109999 0.67900002
-19.863001 6.3039999 0.67299998
-19.853001 6.3200002 0.66100001
-19.846001 6.3319998 0.64999998
-19.849001 6.3260002 0.64300001
-19.853001 6.3200002 0.63700002
-19.851 6.3239999 0.62900001
-19.867001 6.2969999 0.62699997
-19.865999 6.2989998 0.61900002
-19.864 6.3010001 0.61000001
-19.875999 6.2820001 0.60699999
-19.886 6.2659998 0.60299999
-19.893 6.2529998 0.59799999
-19.895 6.25 0.59100002
-19.910999 6.223 0.58899999
-19.923 6.204 0.58499998
-19.924 6.2020001 0.57800001
-19.572001 6.7789998 2.7920001
-19.559999 6.8000002 2.7620001
-19.562 6.796 2.7550001
-19.561001 6.7979999 2.7420001
-19.559 6.8000002 2.7290001
-19.558001 6.802 2.7160001
-19.552999 6.8109999 2.698
-19.558001 6.803 2.6949999
-19.558001 6.802 2.6849999
-19.556999 6.8039999 2.6719999
-19.552999 6.8099999 2.6570001
-19.549999 6.8150001 2.642
-19.552 6.8119998 2.6340001
-19.551001 6.8140001 2.622
-19.549999 6.816 2.609
-19.559999 6.7979999 2.615
-19.551001 6.8140001 2.5899999
-19.555 6.8070002 2.5869999
-19.554001 6.809 2.5739999
-19.554001 6.8080001 2.5650001
-19.556999 6.8039999 2.559
-19.555 6.8070002 2.546
-19.552999 6.8099999 2.5339999
-19.552999 6.809 2.523
-19.565001 6.7909999 2.53
-19.562 6.796 2.5150001
-19.572001 6.7789998 2.52
-19.566999 6.7870002 2.503
-19.573999 6.776 2.5020001
-19.573 6.777 2.4909999
-19.572001 6.7779999 2.48
-19.583 6.7600002 2.4849999
-19.583 6.7610002 2.4749999
-19.575001 6.7729998 2.454
-19.580999 6.763 2.4530001
-19.587999 6.7519999 2.4519999
-19.59 6.7480001 2.4460001
-19.599001 6.7329998 2.448
-19.593 6.7420001 2.4300001
-19.601 6.7290001 2.431
-19.610001 6.7140002 2.434
-19.601 6.73 2.4100001
-19.601999 6.7270002 2.4030001
-19.614 6.7080002 2.4089999
-19.614 6.7069998 2.4000001
-19.615 6.7069998 2.3900001
-19.622999 6.6929998 2.392
-19.627001 6.6859999 2.3870001
-19.629 6.6830001 2.3789999
-19.632999 6.6750002 2.3759999
-19.632999 6.6760001 2.365
-19.638 6.6669998 2.362
-19.641001 6.6620002 2.3570001
-19.643999 6.658 2.3499999
-19.646 6.6550002 2.3429999
-19.650999 6.645 2.3399999
-19.650999 6.6459999 2.3299999
-19.657 6.6350002 2.3280001
-19.660999 6.6290002 2.3239999
-19.665001 6.6230001 2.3180001
-19.667999 6.6170001 2.313
-19.666 6.6209998 2.3
-19.671 6.6129999 2.2969999
-19.677999 6.6009998 2.296
-19.676001 6.6040001 2.2839999
-19.693001 6.5770001 2.2950001
-19.687 6.585 2.279
-19.691999 6.5780001 2.2739999
-19.697001 6.5689998 2.2709999
-19.698999 6.566 2.2639999
-19.702999 6.5599999 2.2579999
-19.705 6.5560002 2.2509999
-19.707001 6.552 2.244
-19.712 6.5430002 2.2409999
-19.724001 6.5240002 2.2460001
-19.723 6.5250001 2.2349999
-19.721001 6.5289998 2.2219999
-19.724001 6.5229998 2.217
-19.729 6.5159998 2.2119999
-19.728001 6.5180001 2.2019999
-19.731001 6.5120001 2.1960001
-19.726999 6.5190001 2.181
-19.732 6.5100002 2.178
-19.738001 6.5 2.175
-19.74 6.4970002 2.168
-19.743999 6.4899998 2.1630001
-19.738001 6.5 2.1470001
-19.743999 6.4899998 2.1440001
-19.746 6.487 2.1359999
-19.745001 6.4889998 2.1259999
-19.756001 6.4699998 2.1289999
-19.75 6.48 2.112
-19.768999 6.4489999 2.1240001
-19.837 6.3330002 0.89300001
-19.851 6.309 0.89200002
-19.857 6.2989998 0.88700002
-19.857 6.3000002 0.87900001
-19.846001 6.3169999 0.866
-19.847 6.3150001 0.85799998
-19.836 6.335 0.84399998
-19.853001 6.3060002 0.84500003
-19.847 6.3150001 0.83399999
-19.844999 6.3189998 0.82499999
-19.856001 6.3010001 0.82200003
-19.849001 6.3130002 0.81099999
-19.847 6.3150001 0.80199999
-19.849001 6.3119998 0.79500002
-19.844 6.3210001 0.78500003
-19.847 6.316 0.77899998
-19.848 6.3140001 0.77100003
-19.844999 6.3200002 0.76200002
-19.841 6.3260002 0.75199997
-19.844999 6.3189998 0.74599999
-19.847 6.316 0.73900002
-19.841 6.3270001 0.72799999
-19.849001 6.3130002 0.72399998
-19.85 6.3109999 0.71700001
-19.848 6.3150001 0.708
-19.848 6.3140001 0.69999999
-19.85 6.3099999 0.69300002
-19.851 6.309 0.68599999
-19.841999 6.3239999 0.67400002
-19.848 6.3140001 0.66900003
-19.849001 6.3130002 0.66100001
-19.849001 6.3119998 0.65399998
-19.85 6.3099999 0.64700001
-19.854 6.3039999 0.63999999
-19.851999 6.3080001 0.63099998
-19.847 6.316 0.62199998
-19.868 6.2810001 0.62199998
-19.877001 6.2659998 0.61799997
-19.874001 6.27 0.60900003
-19.893 6.2389998 0.60799998
-19.900999 6.2259998 0.60299999
-19.907 6.2160001 0.59799999
-19.91 6.211 0.59100002
-19.927 6.1820002 0.58899999
-19.566999 6.7750001 2.7609999
-19.57 6.7690001 2.7550001
-19.563999 6.7789998 2.7349999
-19.561001 6.7839999 2.7190001
-19.563999 6.7800002 2.7130001
-19.563999 6.7789998 2.7030001
-19.563 6.7810001 2.6900001
-19.556999 6.79 2.6719999
-19.563999 6.7789998 2.671
-19.555 6.7940001 2.6470001
-19.559999 6.7870002 2.6429999
-19.555 6.7940001 2.6270001
-19.559999 6.7859998 2.6229999
-19.556999 6.7909999 2.608
-19.552 6.8000002 2.5899999
-19.556 6.7930002 2.586
-19.552999 6.7979999 2.5710001
-19.552999 6.7969999 2.562
-19.563999 6.7800002 2.5669999
-19.559999 6.7859998 2.552
-19.552 6.7989998 2.53
-19.552 6.7979999 2.52
-19.555 6.7940001 2.5139999
-19.563 6.7810001 2.5150001
-19.563 6.7800002 2.506
-19.566 6.776 2.4990001
-19.572001 6.7649999 2.4979999
-19.570999 6.7670002 2.4860001
-19.577 6.756 2.4860001
-19.576 6.7589998 2.473
-19.573999 6.7620001 2.461
-19.580999 6.7509999 2.46
-19.576 6.7589998 2.444
-19.587999 6.7389998 2.45
-19.591 6.7340002 2.444
-19.589001 6.737 2.4319999
-19.596001 6.7259998 2.431
-19.597 6.723 2.4230001
-19.591999 6.7309999 2.4070001
-19.601 6.7160001 2.4100001
-19.583 6.7470002 2.3740001
-19.601999 6.7140002 2.391
-19.618 6.6880002 2.402
-19.614 6.6939998 2.388
-19.622 6.6810002 2.388
-19.622 6.6810002 2.378
-19.622 6.6820002 2.368
-19.629 6.6700001 2.3670001
-19.627001 6.6719999 2.3559999
