ply
format ascii 1.0
comment PCL generated
element vertex 739
property float x
property float y
property float z
element camera 1
property float view_px
property float view_py
property float view_pz
property float x_axisx
property float x_axisy
property float x_axisz
property float y_axisx
property float y_axisy
property float y_axisz
property float z_axisx
property float z_axisy
property float z_axisz
property float focal
property float scalex
property float scaley
property float centerx
property float centery
property int viewportx
property int viewporty
property float k1
property float k2
end_header
6.2629995 2.7952502 0.0057499995
6.3590002 2.7900002 0.012666668
6.4171996 2.7872002 0.0078000003
6.2571387 2.8579249 0.038590163
6.353488 2.8360243 0.05860975
6.4240389 2.8551152 0.048576929
6.25846 2.9486601 0.04762879
6.4415002 2.9370005 0.054142863
6.5464549 2.985182 0.044909094
6.2681518 3.0456326 0.048580151
6.3068748 3.0826249 0.022374997
6.5568333 3.0526671 0.047416668
6.2555895 3.1509278 0.049362913
6.3092499 3.1317499 0.03125
6.4580002 3.1804998 0.046750002
6.5614543 3.1404095 0.048954546
6.2603211 3.2489674 0.04619199
6.4274344 3.2509568 0.048695654
6.2693911 3.3305454 0.037701301
6.349833 3.3392167 0.047833338
6.4258256 3.339 0.039869562
6.2672219 2.8900001 0.10833333
6.3501825 2.8862729 0.1119091
6.4083338 2.8806667 0.12011112
6.2607336 2.9558299 0.14077419
6.3368745 2.9333746 0.1621875
6.4371157 2.9506154 0.15834615
6.5450721 2.9762142 0.1684286
6.6684999 2.9794998 0.19549999
6.757 2.99 0.198
6.8080001 2.9920001 0.199
6.2625461 3.0499861 0.14940558
6.3080001 3.0869999 0.142
6.5612216 3.0543888 0.14794441
6.2539287 3.1478143 0.14653568
6.4717269 3.1884549 0.17945457
6.5503411 3.1675403 0.15831999
6.191 3.2390001 0.177
6.2649059 3.2412119 0.14138983
6.3512788 3.2604399 0.14888
6.4263678 3.2362108 0.14426315
6.2729998 3.3035002 0.1005
6.3453331 3.3039999 0.1045
6.1790004 2.9945002 0.21733332
6.2665253 2.988929 0.24585713
6.3461571 2.9811337 0.24924448
6.4495363 2.9806824 0.25031707
6.5385008 2.9732189 0.24384378
6.6160002 2.9765 0.205
6.7470002 2.997 0.20100001
6.8525715 2.99 0.20071431
5.5423379 3.0794926 0.25401548
5.6504455 3.0765002 0.24891892
5.7321496 3.0716503 0.25944999
5.8485999 3.0456998 0.2225
5.9506245 3.0347917 0.21812499
6.0547652 3.0207059 0.21711768
6.1477499 3.0130839 0.21875
6.2626348 3.0475442 0.25111201
6.3250003 3.0503335 0.26700002
6.5530505 3.0562999 0.25855002
6.6420002 3.0009999 0.20200001
5.5125275 3.1481633 0.28149098
5.6838002 3.1357 0.22450002
5.7290716 3.1535003 0.26835716
6.2628026 3.1519918 0.24972594
6.3458757 3.1907079 0.25975004
6.4530377 3.1901543 0.25723082
6.5458937 3.1711073 0.25160712
5.4776855 3.2198517 0.22890741
5.545054 3.228518 0.25404543
5.6475196 3.2277305 0.25360423
5.7211113 3.2226112 0.27611107
6.2707858 3.2100713 0.22714286
6.3426676 3.2093334 0.22400002
6.4130001 3.2028332 0.23116669
6.5619998 3.201 0.23800001
6.2774591 2.9898653 0.34667569
6.3495278 2.9866951 0.35116667
6.4440975 2.9835608 0.34599993
6.5337033 2.979852 0.35022223
6.6430006 2.9883335 0.38433334
5.56353 3.0855098 0.3405098
5.6483426 3.0798848 0.35683608
5.7458892 3.0796511 0.34985715
5.8140831 3.0783334 0.37650001
6.274766 3.0507886 0.35071093
6.3143339 3.0436668 0.35999998
6.4679999 3.0020001 0.37900001
6.5534167 3.0524168 0.35166666
6.645 3.0039999 0.38600001
6.9955001 3.0764999 0.39450002
7.0494471 3.0551369 0.35145631
5.5613742 3.1460886 0.34236059
5.6121597 3.1512003 0.39071998
5.7700834 3.142 0.32533333
5.818223 3.1440003 0.37788886
6.273922 3.1530385 0.35103217
6.3483968 3.1907425 0.34865513
6.4459124 3.191978 0.34813333
6.542017 3.1733966 0.34900001
6.9945555 3.1418889 0.39111108
7.0462055 3.154958 0.34773508
7.1449561 3.1898913 0.34506518
5.5710006 3.2220769 0.33746156
5.6484079 3.232029 0.35438094
5.7458425 3.2293293 0.35399997
5.8181429 3.216929 0.38078567
6.292429 3.2020004 0.35428578
6.3548884 3.2033334 0.35711113
6.4405556 3.2035556 0.37099999
6.5633335 3.2016666 0.33966669
7.1583338 3.2003334 0.38733333
7.2314997 3.2020001 0.38
6.2779617 2.9919999 0.4453077
6.3501325 2.989079 0.44665793
6.448812 2.9859729 0.44897297
6.5400333 2.9811001 0.44686669
6.6125002 2.9887502 0.4285
5.5959997 3.089 0.40200001
5.6556182 3.0843968 0.44569114
5.747468 3.0783834 0.44663337
5.8391595 3.0786202 0.45216
5.9112501 3.0834999 0.49074998
6.2743874 3.0481145 0.44869071
6.3380003 3.0020003 0.45433331
6.4516668 3.0040002 0.45733333
6.5524354 3.0558264 0.44491309
6.6079998 3.0009999 0.498
6.9573483 3.0606508 0.45562798
7.041369 3.0207896 0.44052628
7.1537409 3.0250742 0.45188886
5.6517272 3.1497331 0.44968498
5.7080002 3.1526668 0.4756667
5.8695335 3.1506667 0.44220003
5.9060001 3.175 0.47999999
6.2754388 3.1514025 0.44984019
6.3462186 3.1928439 0.45190623
6.456193 3.1939232 0.44107696
6.5434909 3.1762073 0.44581133
6.8929996 3.1884999 0.4655
6.9561863 3.1494734 0.45123085
7.0456166 3.193615 0.44656408
7.1509137 3.1813185 0.44972333
7.2200627 3.1582501 0.41793749
5.6617761 3.225925 0.44402793
5.7502794 3.2324305 0.45261297
5.8417892 3.2271273 0.45473242
5.9115 3.2110002 0.48583335
6.2811875 3.2038124 0.45456249
6.3453641 3.2047458 0.45210904
6.4389024 3.204355 0.45619354
6.5479999 3.2016666 0.47100002
6.9489999 3.2032859 0.47485718
7.0641823 3.2037275 0.46627277
7.1495557 3.2058887 0.46422222
6.2745886 2.9947062 0.55117649
6.3439169 2.9922779 0.54936105
6.4454174 2.9879441 0.54719454
6.5313187 2.9874547 0.54850006
7.0760002 2.993 0.52700001
5.6876001 3.0898001 0.50639999
5.7495141 3.0856969 0.54402637
5.8495526 3.0785863 0.54770684
5.9406424 3.0760713 0.55717856
6.2736545 3.0478771 0.54789925
6.3378005 3.0102 0.55070007
6.4730005 3.0013332 0.53666675
6.5425649 3.0404351 0.55630434
6.6069999 3 0.51099998
6.868433 3.0630128 0.55989182
6.9378672 3.0342669 0.53457779
7.0606203 3.0278277 0.55775851
7.1254787 3.0468001 0.52859998
5.6930008 3.1270006 0.50376922
5.7366395 3.1478739 0.55221319
5.9485717 3.1590714 0.54614288
6.2721281 3.1504366 0.55145127
6.3526249 3.1952503 0.55112505
6.4637275 3.1954541 0.54631817
6.5408239 3.1656673 0.5474118
6.859798 3.1530778 0.5596875
6.9268618 3.1661377 0.52455169
7.0671177 3.1720591 0.54776466
7.1208577 3.1651433 0.52964288
5.6950002 3.2130001 0.50599998
5.7545609 3.227284 0.5456121
5.84867 3.2342005 0.55098832
5.9340835 3.226068 0.56064403
6.0009999 3.2065001 0.59599996
6.2771478 3.2045557 0.5521853
6.3488417 3.2069361 0.54873013
6.4323778 3.2061353 0.55213517
6.5424762 3.2069049 0.55852371
6.8625379 3.2054617 0.57176924
6.9524722 3.2056668 0.55433327
7.0444198 3.2059355 0.55403221
7.118 3.2040002 0.52228576
6.2846251 2.9960001 0.62712502
6.3505306 2.9940314 0.64668751
6.4526405 2.988795 0.64892316
6.5239224 2.9898465 0.65323085
5.789 3.092 0.61344445
5.849896 3.0843132 0.64907455
5.9509993 3.0749063 0.64883721
6.0338883 3.0783334 0.6708889
6.2731142 3.0471258 0.64956635
6.3376923 3.0058465 0.65899998
6.454 3.0035999 0.64480007
6.5437651 3.0457647 0.65617657
6.7717962 3.0628409 0.66390908
6.8338828 3.0440004 0.63910002
6.9578185 3.0327575 0.65606064
7.0337501 3.0490003 0.63295835
5.7811627 3.1438141 0.61283726
5.8282266 3.150058 0.66196668
5.9970002 3.1500001 0.60799998
6.03475 3.1661668 0.64458334
6.118 3.108 0.676
6.2735267 3.1508777 0.64938921
6.3634162 3.1945837 0.63508338
6.4471431 3.1945715 0.65314287
6.5506539 3.1670768 0.65346158
6.6160002 3.197 0.67900002
6.7657657 3.1525741 0.66442549
6.8216391 3.1602798 0.62015998
6.9645715 3.1692858 0.65814286
7.0303478 3.1513045 0.63808697
5.7902937 3.220706 0.61223531
5.8500099 3.2322001 0.64937514
5.9503903 3.2360485 0.65351212
6.0257425 3.226517 0.6629355
6.2819996 3.2072921 0.64833337
6.3500514 3.2080894 0.65246141
6.4484611 3.2085712 0.64946032
6.5337238 3.2086554 0.64972413
6.7667499 3.2080002 0.67943752
6.8506813 3.2087722 0.65313637
6.9464126 3.2100873 0.65113038
7.0272145 3.2071428 0.62400001
6.2779999 2.9984999 0.7525
6.3585 2.9968126 0.7389375
6.4534373 2.9928436 0.74731255
6.5292678 2.9922004 0.75266665
5.8752794 3.0891199 0.72736001
5.9452581 3.081259 0.75138879
6.0428491 3.0727572 0.75248492
6.1305003 3.0818336 0.7741667
6.2713428 3.0525234 0.74804771
6.3325391 3.0075004 0.7558462
6.4354005 3.0068998 0.76520002
6.5405908 3.0418181 0.75154543
6.6808887 3.0455556 0.77033329
6.7466369 3.0424464 0.74046797
6.8535452 3.0321817 0.75133336
6.929728 3.0518639 0.73795462
5.8762217 3.1490777 0.72477931
5.9196935 3.1508799 0.77389336
6.080667 3.1483333 0.71833336
6.1730003 3.1833334 0.76133341
6.2703323 3.1444778 0.74618256
6.3422499 3.1959999 0.75349998
6.4430003 3.1943331 0.75400007
6.5572271 3.1724091 0.74713629
6.6783447 3.1587586 0.76779306
6.7181163 3.1489232 0.72076941
6.9343004 3.1514499 0.75030005
5.8831563 3.2270627 0.72053128
5.9445715 3.2331488 0.75487727
6.0452509 3.2337377 0.7515375
6.119812 3.21925 0.7725625
6.2815003 3.2081821 0.75818175
6.3520737 3.209317 0.74880481
6.4473786 3.2114851 0.75121212
6.5276542 3.2074482 0.75231028
6.6763339 3.211333 0.76840001
6.74685 3.2149789 0.75302124
6.8480968 3.2151926 0.74788463
6.9317622 3.2139523 0.73519051
6.3738575 2.9977143 0.83257145
6.4532104 2.9961054 0.85015792
6.5254617 2.9965384 0.84153855
5.9706426 3.0878222 0.83235723
6.0412731 3.0797505 0.85590905
6.1414471 3.0732415 0.85662079
6.2687125 3.045908 0.85113174
6.3412733 3.0084543 0.85421222
6.4323335 3.0049448 0.8447777
6.5419989 3.0319567 0.85778254
6.6635261 3.0358422 0.84915793
6.7548418 3.0357895 0.84944725
6.8344998 3.0495589 0.83941168
6.902 3.0899999 0.80599999
5.9687376 3.1454084 0.83686429
6.0110011 3.1529734 0.88416219
6.1939998 3.197 0.82099998
6.266118 3.1555421 0.83950847
6.3500004 3.1975 0.81050003
6.4155002 3.1919999 0.84350002
6.5452671 3.1824005 0.86313337
6.6304669 3.177933 0.82599998
6.789 3.1919999 0.89700001
6.8508081 3.150346 0.85084611
5.9726534 3.2255583 0.82659614
6.0418515 3.234128 0.8563962
6.1388865 3.2317462 0.85480279
6.2702775 3.2136664 0.85891676
6.3510947 3.2126508 0.85086739
6.4481006 3.2125649 0.85013044
6.5417395 3.2101524 0.85652161
6.6504383 3.2177894 0.8496666
6.7550192 3.2215574 0.848077
6.8410997 3.2185006 0.84046674
6.9070001 3.207 0.80299997
6.395 2.9990001 0.93199998
6.4579086 2.998091 0.93318188
6.5075002 2.9965 0.93900001
6.0591273 3.087487 0.93935883
6.1455946 3.0780547 0.95232445
6.2627597 3.0480702 0.95004237
6.3413339 3.007606 0.94857591
6.4433475 3.0040381 0.95326924
6.5482941 3.0207644 0.9475587
6.6597915 3.0418336 0.94958323
6.7464495 3.0523999 0.94074994
6.8060002 3.096 0.92199999
6.0592008 3.1462276 0.94569886
6.1073337 3.1680832 0.99191678
6.2778001 3.1880002 0.92540008
6.3433752 3.1760001 0.97912502
6.4489999 3.1884999 0.95599997
6.5283337 3.1800001 0.96000004
6.7625899 3.1460457 0.95377272
6.8000002 3.105 0.90499997
6.0701904 3.2262857 0.93569857
6.1466961 3.232435 0.95514119
6.249094 3.2257812 0.9481563
6.3553619 3.2157218 0.94820827
6.4474058 3.2171452 0.949058
6.5445251 3.2193375 0.95118755
6.6489992 3.2267735 0.95073593
6.7381282 3.2237687 0.93928206
6.2950001 2.994 1.081
6.3256001 2.993 1.0814
6.4460001 2.9960001 1.001
6.5192003 2.9884002 1.0738001
6.0935001 3.0934999 1.013
6.1521792 3.0873597 1.04652
6.263689 3.0490408 1.0495813
6.3415003 3.0103745 1.0476251
6.4504848 3.005971 1.0482285
6.5420318 3.0212581 1.0474839
6.6573043 3.0549562 1.0372608
6.7141666 3.0750003 1.0078334
6.098 3.1355 1.003
6.1454039 3.1515737 1.0488167
6.2129998 3.1830001 1.098
6.3829002 3.1819999 1.0286
6.4233637 3.184 1.0606365
6.6671252 3.1527085 1.0575
6.7135715 3.1547143 1.0100001
6.1638622 3.2284882 1.0405126
6.2461028 3.234647 1.0498749
6.3467221 3.2310483 1.0552131
6.4528613 3.2277927 1.0529312
6.5497446 3.230027 1.0474865
6.6451697 3.2282979 1.0408938
6.7090001 3.2179999 1.0190001
6.4780002 2.997 1.107
6.5176673 2.9880004 1.1478333
6.1935 3.089 1.1185
6.2576976 3.0580413 1.1525311
6.3392639 3.0160794 1.1498158
6.4458008 3.0093 1.1518334
6.5424042 3.0328336 1.1495715
6.6246247 3.0745001 1.1133749
6.1916833 3.1347897 1.109737
6.2358422 3.1513336 1.1569257
6.5705557 3.1525002 1.1763891
6.6187854 3.1467142 1.1207857
6.1960001 3.201 1.105
6.253376 3.2303209 1.1470942
6.3445196 3.2435679 1.1473458
6.4530787 3.234591 1.1493419
6.5489984 3.2295914 1.1496054
6.6183748 3.2263749 1.1152499
6.5262003 2.9919999 1.2466
6.2660475 3.0570931 1.2495117
6.348114 3.0172567 1.2491999
6.4518285 3.0140691 1.2497932
6.5275993 3.0280502 1.2497749
6.2672558 3.1498721 1.250263
6.3049998 3.1397998 1.2642001
6.5525155 3.1492262 1.2509676
6.2689099 3.224293 1.2484831
6.3496385 3.2381091 1.2497468
6.4484653 3.2350137 1.2502818
6.5374537 3.222708 1.2489816
6.5139999 2.9960001 1.3513334
6.265748 3.06126 1.3491131
6.3411384 3.0230832 1.3548887
6.4491062 3.0155787 1.3491318
6.5290284 3.032588 1.3502059
6.26513 3.1497974 1.3487896
6.3099999 3.1954999 1.34
6.4349999 3.198 1.399
6.5486889 3.153069 1.3444139
6.2700229 3.2246509 1.3477674
6.3497982 3.234081 1.3472565
6.44769 3.2314365 1.3528732
6.5360999 3.2200606 1.3480799
6.5234003 2.994 1.4454001
6.2672796 3.0628266 1.4498512
6.346139 3.0247502 1.4520556
6.4504576 3.0183425 1.4497716
6.5317707 3.0347431 1.450886
6.2640767 3.1517541 1.4502748
6.4380002 3.1889999 1.441
6.5444613 3.1512687 1.4472694
6.27039 3.2257333 1.4507223
6.3481398 3.234848 1.4480252
6.4458714 3.2316761 1.451493
6.5332799 3.2252986 1.4490527
6.4990001 2.994 1.522
6.5095 2.9984999 1.5829999
6.2651372 3.0644817 1.5496017
6.3427429 3.0284855 1.5488855
6.4500246 3.0243337 1.5488334
6.530272 3.0390601 1.5497276
6.26158 3.1512258 1.5506375
6.5450435 3.1482177 1.5469999
6.2698073 3.2285299 1.550048
6.3495469 3.2386627 1.5512444
6.4507394 3.2356522 1.5517682
6.535501 3.2273784 1.5483104
6.5025001 2.9955001 1.6205001
6.26512 3.0667894 1.6490103
6.3477025 3.033973 1.6470809
6.4472899 3.0280004 1.6490262
6.5264745 3.0360529 1.6532367
6.2603168 3.1510143 1.6486183
6.302 3.102 1.684
6.53585 3.1501501 1.6453001
6.2707381 3.2290931 1.6478231
6.3503094 3.2428031 1.6525555
6.4510446 3.2385607 1.6482726
6.5320563 3.2315183 1.6496848
6.2615371 3.0704637 1.7471367
6.3392444 3.0387571 1.752135
6.4471798 3.0320001 1.7490515
6.5297813 3.0431221 1.7488534
6.2608013 3.1508648 1.7503691
6.5385189 3.1478393 1.7471199
6.2697153 3.2323136 1.7500879
6.3486094 3.2480254 1.7498729
6.4491014 3.2430727 1.7470723
6.5326848 3.2349653 1.7504913
6.2629795 3.0709181 1.8491751
6.3503327 3.0425005 1.8484446
6.4491744 3.0342252 1.8491253
6.5232759 3.0412755 1.8463449
6.2602038 3.1509614 1.8481489
6.3099999 3.122 1.893
6.5379043 3.1453331 1.8470951
6.2683611 3.2361667 1.8501573
6.3487406 3.2514565 1.8512346
6.4529858 3.2477567 1.8465431
6.5336413 3.2380564 1.8468302
6.2611079 3.072382 1.9470588
6.353024 3.0472858 1.9507623
6.4523888 3.0374722 1.9498334
6.5232506 3.0469065 1.9473125
6.2610936 3.1521997 1.9495713
6.5368934 3.1477149 1.9487499
6.2670007 3.2387762 1.9482234
6.347013 3.2555432 1.9498401
6.4512062 3.2515879 1.9493967
6.5328455 3.2388971 1.9475689
6.2612596 3.0741429 2.0467398
6.3543615 3.050667 2.0511389
6.4536295 3.041086 2.0507712
6.5198145 3.0498891 2.0498521
6.2589335 3.1492975 2.0495939
6.5342627 3.1457369 2.0525265
6.2648273 3.2382481 2.0486777
6.3481531 3.2599242 2.0500631
6.4509091 3.2554741 2.050539
6.5311909 3.2424686 2.0475316
6.2628193 3.0757403 2.148936
6.3503323 3.0542223 2.1471391
6.4536257 3.0449247 2.14855
6.5190001 3.0558798 2.15168
6.2582898 3.1496205 2.1483562
6.3000002 3.1689999 2.1730001
6.5313187 3.1479545 2.1471817
6.2606664 3.2399609 2.1498971
6.3460603 3.2639878 2.1504512
6.4524112 3.2593672 2.1490152
6.532196 3.2443726 2.1484513
6.2674117 3.0719247 2.2562253
6.3459764 3.0509045 2.2517858
6.4508009 3.0495141 2.2493427
6.5207191 3.0603998 2.2481198
6.2610164 3.1500156 2.2510002
6.3010001 3.1305001 2.2639999
6.5304761 3.1486669 2.2480953
6.2554269 3.2512112 2.2500463
6.3524485 3.272362 2.2355692
6.4539285 3.2613571 2.2469144
6.5315509 3.2469189 2.2469182
6.2734337 3.3186669 2.283767
6.3368163 3.3213158 2.2794733
6.4046669 3.3146667 2.2966669
6.2720571 2.9791429 2.372143
6.349308 2.9686155 2.3665895
6.4084997 2.994 2.3594999
6.2581344 3.0521653 2.3510387
6.3435788 3.0135262 2.319263
6.4561906 3.0403335 2.3411429
6.518765 3.0682938 2.3397648
6.2524691 3.1459031 2.3462763
6.5298185 3.1509092 2.3525
6.2484641 3.25174 2.3495634
6.3903999 3.2798002 2.3494
6.4709201 3.2652402 2.3376799
6.5328155 3.2440524 2.3461318
6.2626567 3.3486085 2.3499937
6.350121 3.3664546 2.3347878
6.4121423 3.3507619 2.3502383
6.2768998 3.4153669 2.3808668
6.3486004 3.4174752 2.3791752
6.4115996 3.4090002 2.3818002
6.2725 3.513 2.3915
6.2693343 2.8847339 2.4808669
6.3478675 2.8805673 2.4750001
6.4039998 2.8940001 2.4649999
6.2581854 2.9538832 2.4531391
6.3601174 2.9314511 2.4370592
6.404923 2.9615386 2.4602306
6.254704 3.0494366 2.4492152
6.3979998 3.0190001 2.4119999
6.4398122 3.0345001 2.4533126
6.5209999 3.0811112 2.4555554
6.2606888 3.1472557 2.4506199
6.3056669 3.1673336 2.4419999
6.5275011 3.15365 2.4473999
6.2550859 3.2496185 2.4527938
6.3179998 3.2337499 2.4442501
6.4732227 3.2634444 2.4341109
6.5308471 3.241385 2.4493461
6.2553272 3.3499055 2.4499857
6.3941107 3.3478892 2.4382222
6.4128232 3.3549411 2.4485884
6.2641053 3.4478121 2.4507487
6.3510976 3.4661252 2.432389
6.4114652 3.4511788 2.4497499
6.2764068 3.5167501 2.4789999
6.3518968 3.5193079 2.4835126
6.4096251 3.5159998 2.4895
6.2636471 2.7881761 2.5842946
6.3369331 2.7860665 2.5808001
6.2505178 2.8526802 2.550647
6.3594847 2.8405809 2.5424514
6.4099998 2.86725 2.5627499
6.2459469 2.9488366 2.5521779
6.3917141 2.9375002 2.5488572
6.4045 2.9524374 2.5559373
6.256907 3.0487962 2.5437229
6.330667 3.0505836 2.5837502
6.4358339 3.0287499 2.5409169
6.5209999 3.0797276 2.5529091
6.2535729 3.1493063 2.5489445
6.5257311 3.1512692 2.5530772
6.2542162 3.2492564 2.5499918
6.3530002 3.2793336 2.5420001
6.454834 3.2726667 2.5571668
6.5336666 3.2418096 2.5498095
6.2583246 3.3499665 2.5487695
6.3585792 3.3430526 2.5603156
6.4154625 3.3590002 2.5386925
6.2591782 3.4483492 2.5503502
6.3772006 3.45 2.5304
6.4122353 3.4530001 2.553647
6.2666378 3.5483987 2.5509787
6.3505912 3.566761 2.5380983
6.4140496 3.5543003 2.54895
6.2728996 3.6170003 2.5831001
6.3447351 3.6156766 2.584559
6.4155002 3.6123753 2.586375
6.2690001 2.6930001 2.6924999
6.3248 2.6916001 2.6924
6.248693 2.7557805 2.6557808
6.3491507 2.7461064 2.6489093
6.2361522 2.8523524 2.6485045
6.3871665 2.8417082 2.6575418
6.4047499 2.862 2.6257501
6.2453494 2.9396627 2.6413834
6.3637877 2.9498177 2.6530609
6.4043331 2.9233336 2.6395001
6.2659998 3.0762453 2.6483774
6.3478055 3.0660555 2.654417
6.4691005 3.0604999 2.6523001
6.5131006 3.0766003 2.6522999
6.2505193 3.1498096 2.6498015
6.524549 3.15135 2.6535997
6.2540069 3.2476306 2.6507657
6.340579 3.2842102 2.6731055
6.452333 3.277667 2.6663334
6.5291538 3.233077 2.6473076
6.2696533 3.3525388 2.6138082
6.3447142 3.3364761 2.6403334
6.401 3.3280001 2.6159999
6.2607403 3.4598811 2.6395438
6.3483639 3.4538183 2.6671817
6.4151874 3.450875 2.6434374
6.2632613 3.5500641 2.648057
6.3499999 3.5345001 2.6329999
6.4157887 3.5502629 2.6447892
6.2681718 3.6448381 2.6508706
6.3488741 3.6621845 2.6393559
6.4199009 3.6529026 2.6529512
6.2737336 3.708267 2.6848667
6.3410001 3.7125237 2.6891432
6.414875 3.7092502 2.6868749
6.2468967 2.6591508 2.7581038
6.3456497 2.6550527 2.7548769
6.2300305 2.7502909 2.7505667
6.3802438 2.7483027 2.7490604
6.415 2.7030001 2.711
6.2362847 2.8430274 2.7443385
6.3660312 2.8515315 2.7580624
6.4059997 2.8352499 2.7265
6.2621551 2.9088464 2.7191539
6.3516002 2.9114001 2.7147
6.2652974 3.0832336 2.7496388
6.3525248 3.0751252 2.7505498
6.4543142 3.0693426 2.7532287
6.5163336 3.077167 2.7420833
6.2500448 3.1495171 2.7490084
6.5248737 3.151083 2.7494583
6.2561808 3.2500482 2.7484682
6.3496361 3.2837694 2.7528658
6.4337997 3.28285 2.7616501
6.5274997 3.2411504 2.7482002
6.3909998 3.3069999 2.79
6.4200001 3.313 2.7590001
6.2737999 3.4787004 2.7260001
6.3397508 3.47925 2.7207499
6.4237504 3.4847498 2.7075002
6.2619443 3.5555427 2.7424948
6.3527498 3.5293751 2.7571249
6.4185233 3.5549524 2.7467144
6.2650242 3.6507695 2.7487209
6.3930001 3.6400001 2.76
6.4207826 3.6484346 2.7510436
6.2716279 3.7449362 2.7559817
6.3502393 3.7588453 2.7415073
6.4220424 3.7528934 2.7488081
6.2814445 3.808111 2.791667
6.3376431 3.8090715 2.7835717
6.4210005 3.8095002 2.7908335
6.2425647 2.5646377 2.8585958
6.3367615 2.5624049 2.8592379
6.2238402 2.6508799 2.8509357
6.3627648 2.6410882 2.8441474
6.4029999 2.6059999 2.832
6.2282248 2.7483964 2.8485341
6.3650002 2.7517416 2.8514192
6.2555885 2.8194115 2.8231766
6.3419094 2.8191819 2.8238182
6.2701864 3.0844886 2.8460467
6.3524055 3.0779188 2.8505948
6.4589601 3.0687647 2.8535688
6.5196428 3.0844285 2.8387144
6.2492247 3.148834 2.8509336
6.5228515 3.1458144 2.8524072
6.2538848 3.2495255 2.848412
6.3442574 3.2884099 2.8401542
6.4545889 3.2839706 2.8515589
6.5273471 3.2454784 2.8523915
6.2969999 3.303 2.885
6.3656917 3.3079617 2.860693
6.4230003 3.3066669 2.8476667
6.3239999 3.461 2.802
6.2742858 3.5844288 2.822
6.3502731 3.5796363 2.8290002
6.4223337 3.5876665 2.822
6.2662878 3.6556246 2.8438742
6.3441434 3.6350002 2.858
6.4192104 3.6557369 2.8472104
6.2672782 3.7484193 2.8495536
6.3010001 3.7650001 2.8280001
6.4202604 3.7579999 2.8496087
6.2745347 3.8422863 2.8548214
6.3490629 3.8528609 2.8441138
6.4259105 3.8493989 2.8476362
6.2800002 3.9055002 2.8890004
6.3505454 3.904546 2.8898184
6.4239998 3.9163332 2.895
6.1905003 2.477 2.9714999
6.2424603 2.4672501 2.9635661
6.3304691 2.4722812 2.9624376
6.1964002 2.5432 2.9544001
6.2208691 2.5453012 2.9487762
6.3534994 2.5446389 2.9434721
6.1978331 2.6296668 2.9611671
6.2159548 2.6495776 2.9469814
6.3631144 2.6520283 2.9487431
6.2405267 2.7228057 2.9286664
6.3512144 2.7242861 2.9282141
6.2718549 3.0860491 2.9466341
6.3532863 3.0798571 2.9474573
6.4541607 3.074182 2.9493408
6.5142732 3.0829999 2.9544547
6.2484546 3.1489186 2.9512358
6.5193696 3.1554813 2.9516664
6.2505441 3.2530391 2.9492595
6.3217998 3.2945001 2.9263999
6.4512119 3.2933936 2.9436367
6.5235448 3.2607272 2.9484851
6.2756925 3.3104615 2.9693079
6.3500843 3.3110423 2.9509997
6.4504447 3.3040001 2.9634445
6.5246673 3.3030002 2.9743335
6.2744288 3.6813576 2.918072
6.3189096 3.6645458 2.9371822
6.4126663 3.6774998 2.9181669
6.2699513 3.7562969 2.9410291
6.3295455 3.7339091 2.9672728
6.4216781 3.7459283 2.9480357
6.2703505 3.8496504 2.9496255
6.3111668 3.8485003 2.9308333
6.4279995 3.8542855 2.95
6.2776942 3.9386814 2.9585342
6.3467774 3.9521384 2.949523
6.4269094 3.9479818 2.9478905
6.2953334 4.0093336 2.9956665
6.3355002 4.0063748 2.99225
6.415 4.0039997 2.99
0 0 0 1 0 0 0 1 0 0 0 1 0 0 0 0 0 739 1 0 0
