ply
format ascii 1.0
comment PCL generated
element vertex 1776
property float x
property float y
property float z
element camera 0
property float view_px
property float view_py
property float view_pz
property float x_axisx
property float x_axisy
property float x_axisz
property float y_axisx
property float y_axisy
property float y_axisz
property float z_axisx
property float z_axisy
property float z_axisz
property float focal
property float scalex
property float scaley
property float centerx
property float centery
property int viewportx
property int viewporty
property float k1
property float k2
end_header
-17.995001 -1.358 0.493
-17.987 -1.351 0.484
-17.996 -1.359 0.479
-17.978001 -1.344 0.46900001
-17.989 -1.355 0.46399999
-17.99 -1.355 0.458
-17.983999 -1.35 0.44999999
-17.976999 -1.345 0.44100001
-17.983999 -1.352 0.43599999
-17.993 -1.36 0.43099999
-17.979 -1.347 0.421
-17.973 -1.342 0.41299999
-17.983 -1.352 0.40900001
-17.983 -1.353 0.40200001
-17.976 -1.346 0.39399999
-17.983 -1.354 0.38800001
-17.981001 -1.352 0.38100001
-17.983999 -1.355 0.375
-17.981001 -1.353 0.368
-18.002001 -1.3710001 0.36399999
-17.983 -1.355 0.354
-17.981001 -1.354 0.347
-17.979 -1.352 0.34
-17.988001 -1.3609999 0.33500001
-17.971001 -1.346 0.32499999
-17.978001 -1.353 0.31999999
-17.982 -1.3559999 0.31400001
-17.975 -1.35 0.30599999
-17.976 -1.352 0.29899999
-17.987 -1.362 0.294
-17.990999 -1.3660001 0.28799999
-17.992001 -1.368 0.28099999
-17.978001 -1.355 0.273
-17.982 -1.359 0.266
-17.971001 -1.35 0.25799999
-17.979 -1.357 0.25299999
-17.974001 -1.353 0.245
-17.979 -1.358 0.23899999
-17.972 -1.352 0.23199999
-17.972 -1.353 0.22499999
-18 -1.378 0.221
-17.985001 -1.365 0.213
-17.983 -1.364 0.206
-17.983999 -1.365 0.199
-17.986 -1.367 0.193
-17.98 -1.362 0.185
-17.983999 -1.367 0.17900001
-17.992001 -1.374 0.17299999
-17.982 -1.365 0.16500001
-18.007 -1.388 0.161
-18.000999 -1.383 0.154
-18.02 -1.4 0.149
-18.014999 -1.397 0.142
-18.027 -1.408 0.13600001
-18.039 -1.418 0.13
-18.039 -1.419 0.123
-18.042999 -1.423 0.117
-18.058001 -1.437 0.111
-18.068001 -1.446 0.105
-18.068001 -1.447 0.097999997
-18.079 -1.457 0.092
-18.091 -1.4680001 0.086000003
-18.112 -1.488 0.079999998
-18.118999 -1.494 0.074000001
-18.142 -1.515 0.068000004
-18.141001 -1.515 0.061000001
-17.982 -1.352 0.546
-17.971001 -1.3430001 0.537
-17.968 -1.341 0.52899998
-17.974001 -1.347 0.52399999
-17.962999 -1.337 0.514
-17.962999 -1.337 0.50800002
-17.981001 -1.354 0.505
-17.976 -1.35 0.49700001
-17.983 -1.357 0.49200001
-17.969999 -1.345 0.48199999
-17.976 -1.351 0.47600001
-17.969999 -1.346 0.46799999
-17.985001 -1.36 0.465
-17.985001 -1.3609999 0.458
-17.972 -1.349 0.44800001
-17.98 -1.3559999 0.44299999
-17.98 -1.357 0.43599999
-17.965 -1.344 0.42699999
-17.988001 -1.365 0.42399999
-17.986 -1.363 0.417
-17.986 -1.364 0.41
-17.981001 -1.36 0.403
-17.975 -1.355 0.39500001
-17.98 -1.36 0.389
-17.982 -1.362 0.382
-17.981001 -1.362 0.37599999
-17.973 -1.354 0.36700001
-17.99 -1.3710001 0.36300001
-17.983 -1.364 0.35499999
-17.979 -1.3609999 0.34799999
-17.976 -1.359 0.34099999
-17.969999 -1.354 0.333
-17.959 -1.345 0.32499999
-17.965 -1.351 0.31900001
-17.966999 -1.352 0.31200001
-17.971001 -1.357 0.30599999
-17.966999 -1.353 0.29899999
-17.968 -1.355 0.292
-17.982 -1.367 0.28799999
-17.971001 -1.358 0.27900001
-17.965 -1.353 0.27200001
-17.969999 -1.358 0.266
-17.98 -1.367 0.25999999
-17.976 -1.364 0.25299999
-17.974001 -1.362 0.24600001
-17.974001 -1.363 0.23899999
-17.976999 -1.3660001 0.233
-17.978001 -1.367 0.226
-17.983999 -1.373 0.22
-17.979 -1.369 0.213
-17.972 -1.363 0.205
-17.979 -1.369 0.2
-17.978001 -1.369 0.193
-17.976999 -1.368 0.186
-17.976 -1.368 0.17900001
-17.983999 -1.376 0.17299999
-17.988001 -1.38 0.167
-18 -1.391 0.161
-17.996 -1.388 0.154
-18.017 -1.4069999 0.149
-18.025999 -1.416 0.14300001
-18.037001 -1.426 0.13699999
-18.052 -1.4400001 0.132
-18.049 -1.437 0.125
-18.056 -1.4450001 0.118
-18.066999 -1.455 0.112
-18.073999 -1.462 0.106
-18.077999 -1.466 0.098999999
-18.096001 -1.482 0.093999997
-18.104 -1.489 0.086999997
-18.111 -1.4960001 0.081
-18.129999 -1.5140001 0.075000003
-18.118999 -1.505 0.067000002
-17.973 -1.353 0.54500002
-17.965 -1.346 0.53600001
-17.969 -1.351 0.53100002
-17.966999 -1.35 0.523
-17.968 -1.351 0.51700002
-17.966999 -1.35 0.50999999
-17.966999 -1.351 0.50300002
-17.952999 -1.3380001 0.493
-17.968 -1.352 0.49000001
-17.972 -1.3559999 0.484
-17.968 -1.353 0.47600001
-17.987 -1.3710001 0.47299999
-17.974001 -1.36 0.46399999
-17.962 -1.349 0.454
-17.976999 -1.363 0.45100001
-17.965 -1.352 0.44100001
-17.971001 -1.359 0.43599999
-17.976 -1.363 0.43000001
-17.958 -1.347 0.41999999
-17.969 -1.358 0.41499999
-17.983 -1.3710001 0.41100001
-17.975 -1.363 0.403
-17.966999 -1.357 0.39399999
-17.971001 -1.3609999 0.38800001
-17.976 -1.3660001 0.38299999
-17.969 -1.359 0.37400001
-17.968 -1.36 0.368
-17.973 -1.364 0.36199999
-17.966999 -1.359 0.354
-17.973 -1.365 0.34799999
-17.968 -1.3609999 0.34099999
-17.969 -1.362 0.33399999
-17.959999 -1.355 0.32600001
-17.951 -1.346 0.31799999
-17.962 -1.357 0.31299999
-17.962 -1.357 0.30599999
-17.962999 -1.359 0.29899999
-17.964001 -1.36 0.29300001
-17.962999 -1.36 0.28600001
-17.950001 -1.348 0.27700001
-17.962999 -1.3609999 0.27200001
-17.959999 -1.358 0.26499999
-17.965 -1.363 0.259
-17.961 -1.359 0.252
-17.973 -1.3710001 0.24699999
-17.968 -1.367 0.23899999
-17.965 -1.365 0.23199999
-17.98 -1.3789999 0.228
-17.975 -1.374 0.22
-17.966 -1.367 0.212
-17.966 -1.367 0.206
-17.966 -1.368 0.199
-17.976 -1.376 0.193
-17.982 -1.382 0.18700001
-17.989 -1.3890001 0.18099999
-17.983999 -1.385 0.17399999
-17.990999 -1.392 0.168
-17.999001 -1.399 0.162
-18.009001 -1.408 0.156
-18.028999 -1.427 0.15099999
-18.021999 -1.421 0.14399999
-18.033001 -1.432 0.138
-18.051001 -1.449 0.133
-18.048 -1.446 0.125
-18.052 -1.45 0.119
-18.069 -1.466 0.113
-18.087 -1.483 0.108
-18.110001 -1.5039999 0.102
-18.106001 -1.501 0.094999999
-18.117001 -1.511 0.089000002
-18.121 -1.515 0.082000002
-17.475 -0.78399998 2.6570001
-17.504 -0.80900002 2.681
-17.944 -1.337 0.54000002
-17.955 -1.347 0.53600001
-17.961 -1.353 0.52999997
-17.962 -1.354 0.52399999
-17.961 -1.354 0.51700002
-17.961 -1.354 0.50999999
-17.964001 -1.357 0.50400001
-17.965 -1.358 0.49700001
-17.959 -1.353 0.48899999
-17.952 -1.347 0.48100001
-17.955999 -1.352 0.47499999
-17.964001 -1.359 0.47
-17.945999 -1.3430001 0.45899999
-17.964001 -1.36 0.456
-17.973 -1.368 0.45100001
-17.966 -1.363 0.44299999
-17.954 -1.352 0.43399999
-17.957001 -1.355 0.428
-17.957001 -1.355 0.421
-17.959999 -1.359 0.41499999
-17.966 -1.364 0.40900001
-17.955 -1.355 0.40000001
-17.962999 -1.362 0.39500001
-17.959 -1.359 0.38699999
-17.959999 -1.36 0.38100001
-17.971001 -1.37 0.37599999
-17.961 -1.363 0.368
-17.961 -1.363 0.361
-17.958 -1.36 0.35299999
-17.955999 -1.359 0.34599999
-17.959999 -1.363 0.34
-17.952999 -1.357 0.33199999
-17.965 -1.368 0.32800001
-17.954 -1.359 0.31900001
-17.943001 -1.349 0.31099999
-17.955 -1.36 0.30599999
-17.962 -1.367 0.30000001
-17.952 -1.358 0.292
-17.955999 -1.362 0.28600001
-17.962999 -1.369 0.28
-17.959999 -1.3660001 0.273
-17.945 -1.354 0.264
-17.938999 -1.348 0.257
-17.955 -1.364 0.252
-17.952999 -1.362 0.245
-17.968 -1.376 0.23999999
-17.959999 -1.369 0.233
-17.964001 -1.373 0.226
-17.959999 -1.37 0.219
-17.958 -1.368 0.212
-17.948 -1.36 0.204
-17.962999 -1.374 0.199
-17.981001 -1.391 0.19499999
-17.990999 -1.4 0.189
-17.975 -1.386 0.18099999
-17.993999 -1.403 0.176
-17.997999 -1.4069999 0.169
-17.993999 -1.404 0.162
-18.009001 -1.418 0.15700001
-18.024 -1.432 0.15099999
-18.032 -1.4400001 0.145
-18.042999 -1.45 0.139
-18.039 -1.447 0.132
-18.049999 -1.457 0.126
-18.065001 -1.471 0.121
-18.083 -1.488 0.115
-18.09 -1.495 0.109
-18.098 -1.502 0.102
-18.101999 -1.507 0.094999999
-18.111 -1.515 0.089000002
-17.474001 -0.79000002 2.6600001
-17.474001 -0.79100001 2.651
-17.475 -0.792 2.642
-17.493 -0.80800003 2.654
-17.93 -1.3329999 0.53799999
-17.940001 -1.342 0.53299999
-17.950001 -1.352 0.52899998
-17.948 -1.35 0.52200001
-17.948999 -1.351 0.51499999
-17.952999 -1.3559999 0.509
-17.948999 -1.352 0.50099999
-17.962 -1.364 0.498
-17.961 -1.364 0.491
-17.961 -1.364 0.484
-17.955 -1.36 0.47600001
-17.948999 -1.355 0.46799999
-17.966999 -1.3710001 0.465
-17.961 -1.3660001 0.45699999
-17.955 -1.3609999 0.449
-17.951 -1.358 0.44100001
-17.955 -1.362 0.435
-17.948 -1.3559999 0.42699999
-17.945999 -1.354 0.41999999
-17.952999 -1.3609999 0.414
-17.955999 -1.365 0.40799999
-17.958 -1.367 0.40200001
-17.969999 -1.378 0.39700001
-17.947001 -1.357 0.38600001
-17.958 -1.368 0.382
-17.945 -1.357 0.373
-17.952999 -1.364 0.36700001
-17.957001 -1.368 0.361
-17.948 -1.36 0.35299999
-17.955 -1.367 0.347
-17.950001 -1.363 0.34
-17.938 -1.352 0.331
-17.945999 -1.36 0.32600001
-17.941999 -1.357 0.31799999
-17.948999 -1.364 0.31299999
-17.950001 -1.364 0.30599999
-17.958 -1.372 0.301
-17.951 -1.367 0.29300001
-17.943001 -1.36 0.285
-17.947001 -1.364 0.27900001
-17.945 -1.362 0.27200001
-17.955 -1.372 0.26699999
-17.948 -1.3660001 0.259
-17.955999 -1.373 0.25299999
-17.950001 -1.369 0.24600001
-17.955999 -1.374 0.23999999
-17.945999 -1.365 0.23199999
-17.952 -1.3710001 0.226
-17.948999 -1.369 0.219
-17.944 -1.364 0.211
-17.966 -1.385 0.207
-17.972 -1.391 0.20100001
-17.975 -1.3940001 0.19499999
-17.985001 -1.404 0.189
-17.985001 -1.404 0.182
-17.993 -1.4119999 0.176
-18 -1.419 0.17
-18.014999 -1.433 0.16500001
-18.018999 -1.437 0.15899999
-18.031 -1.447 0.153
-18.038 -1.455 0.147
-18.042 -1.459 0.14
-18.052 -1.4680001 0.134
-18.066999 -1.482 0.12800001
-18.073999 -1.489 0.122
-18.082001 -1.4960001 0.116
-18.097 -1.511 0.11
-18.099001 -1.513 0.103
-17.448 -0.77499998 2.6340001
-17.455999 -0.78200001 2.6340001
-17.475 -0.79900002 2.6459999
-17.487 -0.81 2.651
-17.483999 -0.80800003 2.6389999
-17.51 -0.83099997 2.6589999
-17.945 -1.355 0.55599999
-17.937 -1.348 0.54799998
-17.934999 -1.346 0.54000002
-17.936001 -1.347 0.53399998
-17.938999 -1.351 0.528
-17.959999 -1.3710001 0.52600002
-17.947001 -1.359 0.51599997
-17.948 -1.36 0.509
-17.937 -1.351 0.5
-17.950001 -1.363 0.49599999
-17.931 -1.346 0.48500001
-17.943001 -1.357 0.48100001
-17.938 -1.353 0.47299999
-17.954 -1.368 0.47
-17.944 -1.359 0.461
-17.952999 -1.367 0.456
-17.948999 -1.364 0.449
-17.936001 -1.353 0.43900001
-17.954 -1.37 0.43599999
-17.950001 -1.3660001 0.428
-17.951 -1.368 0.42199999
-17.950001 -1.367 0.41499999
-17.952 -1.37 0.40900001
-17.943001 -1.362 0.40000001
-17.957001 -1.375 0.396
-17.941999 -1.362 0.38699999
-17.947001 -1.367 0.38100001
-17.933001 -1.354 0.37099999
-17.937 -1.358 0.36500001
-17.938999 -1.3609999 0.359
-17.938999 -1.3609999 0.352
-17.948999 -1.3710001 0.347
-17.938999 -1.362 0.33899999
-17.941 -1.364 0.33199999
-17.945999 -1.369 0.32699999
-17.947001 -1.37 0.31999999
-17.941 -1.365 0.31200001
-17.934999 -1.36 0.30500001
-17.938 -1.363 0.29899999
-17.941999 -1.367 0.292
-17.943001 -1.369 0.28600001
-17.944 -1.369 0.27900001
-17.947001 -1.373 0.273
-17.924999 -1.353 0.26300001
-17.926001 -1.354 0.257
-17.943001 -1.3710001 0.252
-17.948 -1.375 0.24600001
-17.947001 -1.375 0.23899999
-17.937 -1.3660001 0.23100001
-17.945999 -1.375 0.226
-17.952 -1.381 0.22
-17.950001 -1.3789999 0.213
-17.952999 -1.382 0.207
-17.976 -1.404 0.20299999
-17.969 -1.397 0.19499999
-17.976999 -1.405 0.189
-17.983999 -1.4119999 0.183
-17.988001 -1.4170001 0.177
-18 -1.427 0.171
-18.018 -1.4450001 0.16599999
-18.033001 -1.459 0.161
-18.030001 -1.456 0.153
-18.040001 -1.466 0.148
-18.044001 -1.47 0.141
-18.059 -1.484 0.13500001
-18.059 -1.484 0.12800001
-18.091 -1.5140001 0.124
-18.083 -1.507 0.116
-17.427999 -0.76499999 2.615
-17.444 -0.77999997 2.625
-17.459 -0.79299998 2.6329999
-17.466 -0.79900002 2.631
-17.483 -0.815 2.6429999
-17.483999 -0.81599998 2.6340001
-17.487 -0.81900001 2.628
-17.923 -1.3430001 0.55900002
-17.931999 -1.352 0.55500001
-17.922001 -1.3430001 0.54500002
-17.947001 -1.367 0.54500002
-17.934999 -1.3559999 0.53500003
-17.938999 -1.36 0.52899998
-17.943001 -1.364 0.523
-17.937 -1.359 0.51499999
-17.931999 -1.355 0.50700003
-17.945 -1.367 0.50300002
-17.938 -1.3609999 0.495
-17.937 -1.36 0.48800001
-17.938 -1.362 0.48199999
-17.934999 -1.36 0.47400001
-17.947001 -1.3710001 0.47
-17.944 -1.368 0.46200001
-17.917 -1.344 0.44999999
-17.938 -1.363 0.44800001
-17.938999 -1.365 0.44100001
-17.936001 -1.362 0.43399999
-17.929001 -1.357 0.426
-17.940001 -1.367 0.421
-17.934 -1.362 0.41299999
-17.93 -1.358 0.40599999
-17.934 -1.363 0.40000001
-17.931 -1.36 0.39199999
-17.941 -1.37 0.38800001
-17.943001 -1.372 0.38100001
-17.938999 -1.369 0.37400001
-17.93 -1.3609999 0.36500001
-17.933001 -1.364 0.359
-17.937 -1.368 0.35299999
-17.927 -1.36 0.345
-17.934999 -1.367 0.33899999
-17.934999 -1.367 0.333
-17.927999 -1.3609999 0.32499999
-17.938 -1.372 0.31999999
-17.93 -1.364 0.31200001
-17.919001 -1.354 0.303
-17.936001 -1.3710001 0.29899999
-17.938 -1.373 0.29300001
-17.931 -1.367 0.285
-17.934999 -1.3710001 0.27900001
-17.914 -1.352 0.26899999
-17.941999 -1.378 0.26699999
-17.927 -1.365 0.25799999
-17.941 -1.378 0.25299999
-17.955 -1.391 0.248
-17.948 -1.385 0.23999999
-17.940001 -1.378 0.233
-17.937 -1.376 0.226
-17.938999 -1.378 0.219
-17.955999 -1.3940001 0.215
-17.957001 -1.395 0.208
-17.961 -1.399 0.20200001
-17.987 -1.423 0.198
-17.979 -1.416 0.19
-17.990999 -1.428 0.185
-18.006001 -1.442 0.17900001
-17.999001 -1.436 0.17200001
-18.01 -1.446 0.16599999
-18.032 -1.467 0.161
-18.039 -1.474 0.155
-18.035 -1.471 0.148
-18.052999 -1.488 0.14300001
-18.075001 -1.508 0.138
-18.084 -1.517 0.131
-18.084 -1.518 0.124
-17.434999 -0.77899998 2.6270001
-17.434999 -0.77899998 2.618
-17.426001 -0.77200001 2.599
-17.447001 -0.79100001 2.6140001
-17.459999 -0.80199999 2.6199999
-17.474001 -0.815 2.6270001
-17.472 -0.81400001 2.615
-17.49 -0.829 2.6270001
-17.499001 -0.838 2.628
-17.938 -1.365 0.57800001
-17.922001 -1.352 0.56699997
-17.922001 -1.351 0.56
-17.931 -1.36 0.55599999
-17.936001 -1.365 0.55000001
-17.93 -1.36 0.542
-17.923 -1.354 0.53399998
-17.924 -1.355 0.52700001
-17.921 -1.353 0.51899999
-17.916 -1.349 0.51200002
-17.934999 -1.367 0.509
-17.933001 -1.3660001 0.50199997
-17.936001 -1.369 0.49599999
-17.937 -1.369 0.48899999
-17.934 -1.367 0.48199999
-17.945999 -1.3789999 0.47799999
-17.934999 -1.369 0.46900001
-17.943001 -1.377 0.463
-17.938999 -1.373 0.456
-17.940001 -1.375 0.449
-17.929001 -1.365 0.44
-17.931 -1.367 0.43399999
-17.927999 -1.365 0.42699999
-17.927999 -1.365 0.41999999
-17.921 -1.359 0.412
-17.940001 -1.378 0.40900001
-17.917999 -1.358 0.398
-17.941 -1.3789999 0.39500001
-17.927 -1.3660001 0.38600001
-17.92 -1.36 0.37799999
-17.924999 -1.3660001 0.37200001
-17.929001 -1.37 0.366
-17.922001 -1.363 0.35800001
-17.929001 -1.37 0.35299999
-17.93 -1.3710001 0.34599999
-17.923 -1.365 0.338
-17.927 -1.37 0.33199999
-17.923 -1.3660001 0.32499999
-17.923 -1.3660001 0.31799999
-17.936001 -1.3789999 0.31400001
-17.921 -1.365 0.30500001
-17.938999 -1.382 0.301
-17.931999 -1.377 0.29300001
-17.938 -1.382 0.287
-17.92 -1.3660001 0.278
-17.92 -1.367 0.271
-17.931 -1.377 0.266
-17.924 -1.3710001 0.25799999
-17.934 -1.38 0.25299999
-17.927 -1.375 0.245
-17.924999 -1.373 0.23800001
-17.938999 -1.386 0.233
-17.943001 -1.39 0.227
-17.945999 -1.393 0.221
-17.961 -1.408 0.21600001
-17.973 -1.419 0.211
-17.975 -1.421 0.204
-17.978001 -1.425 0.198
-17.997 -1.442 0.193
-17.986 -1.433 0.185
-18.000999 -1.447 0.18000001
-18.011999 -1.4579999 0.17399999
-18.027 -1.472 0.169
-18.024 -1.469 0.161
-18.030001 -1.475 0.155
-18.059 -1.502 0.15099999
-18.069 -1.512 0.145
-18.084 -1.526 0.139
-17.422001 -0.77399999 2.6159999
-17.427 -0.77999997 2.6140001
-17.438999 -0.79000002 2.618
-17.434999 -0.78799999 2.6040001
-17.438999 -0.792 2.5999999
-17.452 -0.80400002 2.6059999
-17.469 -0.81800002 2.6159999
-17.472 -0.82099998 2.6099999
-17.468 -0.81900001 2.5969999
-17.488001 -0.83700001 2.6110001
-17.496 -0.84399998 2.6099999
-17.917 -1.354 0.58099997
-17.910999 -1.349 0.57300001
-17.921 -1.359 0.56800002
-17.924 -1.363 0.56199998
-17.92 -1.359 0.55500001
-17.921 -1.36 0.54799998
-17.924999 -1.365 0.542
-17.917999 -1.359 0.53399998
-17.915001 -1.3559999 0.52600002
-17.929001 -1.369 0.523
-17.923 -1.364 0.514
-17.922001 -1.364 0.50800002
-17.933001 -1.374 0.50300002
-17.924 -1.3660001 0.49399999
-17.917999 -1.3609999 0.486
-17.92 -1.363 0.47999999
-17.919001 -1.363 0.47299999
-17.924 -1.368 0.46700001
-17.924 -1.368 0.461
-17.921 -1.3660001 0.45300001
-17.927999 -1.373 0.44800001
-17.933001 -1.377 0.442
-17.93 -1.375 0.435
-17.916 -1.363 0.42500001
-17.924 -1.3710001 0.41999999
-17.924 -1.3710001 0.41299999
-17.917999 -1.3660001 0.40599999
-17.927999 -1.375 0.40099999
-17.924999 -1.373 0.39300001
-17.92 -1.369 0.38600001
-17.924 -1.373 0.38
-17.921 -1.3710001 0.373
-17.931 -1.381 0.368
-17.921 -1.3710001 0.359
-17.924999 -1.376 0.35299999
-17.931 -1.381 0.347
-17.921 -1.373 0.33899999
-17.919001 -1.3710001 0.33199999
-17.921 -1.373 0.32600001
-17.923 -1.375 0.31900001
-17.933001 -1.385 0.31400001
-17.931 -1.3839999 0.30700001
-17.917 -1.3710001 0.29800001
-17.914 -1.369 0.29100001
-17.908001 -1.363 0.28400001
-17.93 -1.3839999 0.28
-17.923 -1.378 0.27200001
-17.931 -1.386 0.26699999
-17.923 -1.3789999 0.259
-17.919001 -1.376 0.252
-17.92 -1.377 0.245
-17.93 -1.387 0.23999999
-17.941999 -1.398 0.235
-17.940001 -1.396 0.228
-17.947001 -1.404 0.222
-17.975 -1.4299999 0.219
-17.966 -1.4220001 0.211
-17.976999 -1.433 0.205
-17.976999 -1.433 0.198
-17.985001 -1.441 0.192
-18.004 -1.4579999 0.18799999
-17.993 -1.449 0.18000001
-18.014999 -1.469 0.175
-18.021999 -1.477 0.169
-18.037001 -1.49 0.163
-18.054001 -1.507 0.15800001
-18.063999 -1.516 0.152
-17.423 -0.78299999 2.6229999
-17.431 -0.79000002 2.6229999
-17.434 -0.79400003 2.6170001
-17.433001 -0.79299998 2.6070001
-17.434999 -0.79500002 2.5999999
-17.433001 -0.79400003 2.589
-17.452999 -0.81199998 2.6029999
-17.473 -0.82999998 2.6170001
-17.465 -0.824 2.598
-17.479 -0.83700001 2.6059999
-17.471001 -0.82999998 2.586
-17.496 -0.852 2.6070001
-17.898001 -1.346 0.59100002
-17.905001 -1.352 0.58600003
-17.910999 -1.358 0.58099997
-17.917999 -1.3660001 0.57599998
-17.909 -1.357 0.56699997
-17.917999 -1.3660001 0.56199998
-17.912001 -1.3609999 0.55400002
-17.916 -1.365 0.54799998
-17.91 -1.359 0.54000002
-17.902 -1.352 0.53100002
-17.92 -1.37 0.52899998
-17.924 -1.374 0.523
-17.914 -1.365 0.514
-17.923 -1.374 0.509
-17.92 -1.3710001 0.50199997
-17.92 -1.372 0.495
-17.923 -1.375 0.48899999
-17.903 -1.358 0.47799999
-17.900999 -1.3559999 0.47099999
-17.910999 -1.365 0.46599999
-17.926001 -1.38 0.46200001
-17.906 -1.362 0.45199999
-17.913 -1.368 0.44600001
-17.908001 -1.364 0.43799999
-17.915001 -1.3710001 0.433
-17.914 -1.37 0.426
-17.910999 -1.368 0.419
-17.915001 -1.372 0.41299999
-17.916 -1.373 0.40599999
-17.908001 -1.367 0.398
-17.903999 -1.363 0.391
-17.912001 -1.37 0.38499999
-17.916 -1.375 0.38
-17.9 -1.3609999 0.37
-17.919001 -1.378 0.36700001
-17.913 -1.374 0.359
-17.913 -1.374 0.352
-17.916 -1.377 0.34599999
-17.91 -1.372 0.338
-17.921 -1.382 0.333
-17.914 -1.376 0.32600001
-17.921 -1.383 0.31999999
-17.921 -1.3839999 0.31299999
-17.910999 -1.375 0.30500001
-17.924 -1.386 0.30000001
-17.916 -1.38 0.292
-17.92 -1.3839999 0.28600001
-17.910999 -1.376 0.278
-17.917999 -1.383 0.273
-17.903999 -1.37 0.264
-17.915001 -1.381 0.259
-17.924999 -1.391 0.25400001
-17.922001 -1.3890001 0.24699999
-17.926001 -1.392 0.23999999
-17.948 -1.413 0.236
-17.951 -1.416 0.23
-17.954 -1.419 0.22400001
-17.943001 -1.409 0.21600001
-17.965 -1.4299999 0.211
-17.969 -1.434 0.205
-17.969 -1.4349999 0.198
-17.990999 -1.456 0.19400001
-17.995001 -1.46 0.18700001
-18.01 -1.474 0.182
-18.024 -1.487 0.177
-18.039 -1.501 0.171
-18.055 -1.517 0.16599999
-18.055 -1.517 0.15899999
-17.408001 -0.778 2.6099999
-17.42 -0.78799999 2.6140001
-17.423 -0.792 2.6099999
-17.427 -0.79500002 2.6040001
-17.427999 -0.79699999 2.5969999
-17.431 -0.80000001 2.5899999
-17.427999 -0.79799998 2.5780001
-17.433001 -0.80299997 2.575
-17.445 -0.81400001 2.5799999
-17.459999 -0.82700002 2.5880001
-17.482 -0.847 2.6040001
-17.48 -0.84600002 2.592
-17.497999 -0.861 2.6029999
-17.452 -0.82300001 2.5420001
-17.492001 -0.85699999 2.5780001
-17.902 -1.358 0.60000002
-17.896999 -1.353 0.59200001
-17.902 -1.359 0.58700001
-17.899 -1.3559999 0.579
-17.905001 -1.363 0.574
-17.923 -1.38 0.57200003
-17.91 -1.368 0.56199998
-17.893 -1.352 0.551
-17.903999 -1.363 0.54699999
-17.909 -1.368 0.54100001
-17.903999 -1.363 0.53299999
-17.906 -1.3660001 0.52700001
-17.902 -1.363 0.51899999
-17.914 -1.374 0.51499999
-17.914 -1.375 0.50800002
-17.907 -1.369 0.5
-17.915001 -1.377 0.495
-17.919001 -1.381 0.48899999
-17.902 -1.365 0.479
-17.903 -1.367 0.472
-17.9 -1.364 0.465
-17.908001 -1.372 0.46000001
-17.915001 -1.3789999 0.45500001
-17.900999 -1.3660001 0.44499999
-17.899 -1.365 0.43799999
-17.906 -1.3710001 0.433
-17.917 -1.382 0.428
-17.914 -1.38 0.421
-17.903 -1.37 0.412
-17.903999 -1.3710001 0.405
-17.909 -1.376 0.40000001
-17.907 -1.375 0.39199999
-17.906 -1.374 0.38600001
-17.913 -1.381 0.38
-17.9 -1.37 0.37099999
-17.908001 -1.377 0.366
-17.903999 -1.375 0.359
-17.909 -1.3789999 0.35299999
-17.908001 -1.3789999 0.34599999
-17.915001 -1.386 0.34
-17.902 -1.374 0.331
-17.913 -1.3839999 0.32600001
-17.906 -1.378 0.31900001
-17.917999 -1.39 0.31400001
-17.903999 -1.377 0.30500001
-17.917999 -1.39 0.30000001
-17.913 -1.386 0.29300001
-17.900999 -1.375 0.285
-17.913 -1.387 0.28
-17.912001 -1.387 0.273
-17.906 -1.381 0.26499999
-17.896 -1.373 0.257
-17.926001 -1.4 0.255
-17.924 -1.4 0.248
-17.927999 -1.403 0.241
-17.943001 -1.418 0.237
-17.940001 -1.415 0.229
-17.955 -1.429 0.22499999
-17.955999 -1.431 0.21799999
-17.971001 -1.4450001 0.213
-17.975 -1.449 0.207
-17.983 -1.457 0.20100001
-17.993999 -1.4680001 0.19499999
-18.011999 -1.485 0.19
-18.027 -1.499 0.185
-18.038 -1.5089999 0.17900001
-18.049 -1.52 0.17299999
-17.407 -0.78399998 2.6129999
-17.408001 -0.78500003 2.605
-17.408001 -0.78500003 2.596
-17.417 -0.79400003 2.598
-17.429001 -0.80500001 2.602
-17.427999 -0.80500001 2.592
-17.43 -0.80599999 2.585
-17.427999 -0.80500001 2.573
-17.438999 -0.81599998 2.5769999
-17.438999 -0.81599998 2.5680001
-17.455 -0.83099997 2.5780001
-17.476 -0.85000002 2.5929999
-17.469999 -0.84500003 2.5769999
-17.474001 -0.84899998 2.5710001
-17.486 -0.86000001 2.576
-17.497999 -0.87099999 2.5810001
-17.514999 -0.88700002 2.5810001
-17.903 -1.367 0.616
-17.889 -1.355 0.60500002
-17.888 -1.355 0.59799999
-17.896999 -1.363 0.59399998
-17.913 -1.378 0.59100002
-17.903999 -1.37 0.58200002
-17.900999 -1.367 0.574
-17.898001 -1.365 0.56699997
-17.888 -1.3559999 0.55800003
-17.900999 -1.369 0.55400002
-17.906 -1.374 0.54900002
-17.898001 -1.367 0.54000002
-17.903999 -1.373 0.53500003
-17.915001 -1.383 0.52999997
-17.902 -1.372 0.51999998
-17.896 -1.3660001 0.51200002
-17.910999 -1.381 0.509
-17.902 -1.373 0.5
-17.896999 -1.369 0.49200001
-17.896999 -1.369 0.486
-17.907 -1.3789999 0.48100001
-17.909 -1.381 0.47499999
-17.9 -1.373 0.46599999
-17.913 -1.385 0.46200001
-17.896999 -1.3710001 0.45199999
-17.899 -1.374 0.44600001
-17.903999 -1.3789999 0.44
-17.9 -1.375 0.433
-17.9 -1.376 0.426
-17.899 -1.375 0.419
-17.910999 -1.386 0.41499999
-17.886999 -1.364 0.403
-17.898001 -1.375 0.39899999
-17.889999 -1.368 0.38999999
-17.898001 -1.376 0.38499999
-17.891001 -1.369 0.377
-17.903 -1.381 0.373
-17.881001 -1.362 0.36199999
-17.896 -1.376 0.35800001
-17.895 -1.375 0.35100001
-17.896999 -1.377 0.345
-17.893 -1.373 0.338
-17.9 -1.381 0.33199999
-17.898001 -1.3789999 0.32499999
-17.898001 -1.38 0.31799999
-17.896 -1.378 0.31099999
-17.91 -1.392 0.30700001
-17.898001 -1.381 0.29800001
-17.893 -1.377 0.29100001
-17.907 -1.39 0.28600001
-17.905001 -1.388 0.27900001
-17.885 -1.37 0.27000001
-17.91 -1.3940001 0.26699999
-17.917 -1.401 0.26100001
-17.92 -1.404 0.255
-17.927 -1.411 0.249
-17.927 -1.4119999 0.242
-17.944 -1.428 0.23800001
-17.954 -1.438 0.23199999
-17.959 -1.442 0.226
-17.966 -1.45 0.22
-17.969999 -1.454 0.214
-17.985001 -1.4680001 0.20900001
-17.982 -1.465 0.20100001
-18.01 -1.492 0.198
-18.028 -1.5089999 0.193
-18.042 -1.523 0.18700001
-18.042 -1.523 0.18000001
-17.405001 -0.78899997 2.6159999
-17.410999 -0.79500002 2.6129999
-17.410999 -0.796 2.605
-17.41 -0.79500002 2.5940001
-17.421 -0.80500001 2.5969999
-17.421 -0.80599999 2.589
-17.433001 -0.81699997 2.5929999
-17.434 -0.81800002 2.585
-17.431999 -0.81699997 2.5739999
-17.434 -0.81999999 2.5669999
-17.434 -0.81999999 2.5580001
-17.444 -0.829 2.5610001
-17.447001 -0.83200002 2.5539999
-17.447001 -0.833 2.5450001
-17.466 -0.85000002 2.5580001
-17.490999 -0.87199998 2.5780001
-17.487 -0.87 2.5639999
-17.495001 -0.87699997 2.563
-17.877001 -1.352 0.62400001
-17.905001 -1.377 0.62400001
-17.882 -1.357 0.61199999
-17.874001 -1.35 0.60299999
-17.888 -1.363 0.60000002
-17.886999 -1.362 0.59299999
-17.902 -1.377 0.58999997
-17.892 -1.368 0.57999998
-17.886999 -1.364 0.57200003
-17.882 -1.359 0.56400001
-17.886 -1.364 0.55900002
-17.889999 -1.367 0.55299997
-17.895 -1.373 0.54699999
-17.891001 -1.369 0.54000002
-17.902 -1.38 0.53500003
-17.888 -1.367 0.52499998
-17.893 -1.372 0.51999998
-17.898001 -1.377 0.514
-17.886 -1.367 0.505
-17.891001 -1.372 0.49900001
-17.885 -1.367 0.491
-17.896999 -1.378 0.48699999
-17.892 -1.374 0.479
-17.900999 -1.383 0.47400001
-17.889999 -1.373 0.465
-17.885 -1.369 0.458
-17.893999 -1.378 0.45300001
-17.888 -1.372 0.44499999
-17.888 -1.373 0.43799999
-17.889 -1.374 0.43200001
-17.896999 -1.381 0.426
-17.879999 -1.3660001 0.41600001
-17.889 -1.375 0.41100001
-17.893 -1.3789999 0.40599999
-17.893 -1.3789999 0.39899999
-17.9 -1.387 0.39399999
-17.893 -1.38 0.38499999
-17.884001 -1.372 0.377
-17.896999 -1.385 0.373
-17.888 -1.377 0.36399999
-17.885 -1.375 0.35699999
-17.891001 -1.38 0.352
-17.895 -1.385 0.34599999
-17.892 -1.383 0.33899999
-17.893 -1.3839999 0.33199999
-17.896999 -1.387 0.32600001
-17.888 -1.3789999 0.31799999
-17.889 -1.381 0.31099999
-17.903 -1.3940001 0.30700001
-17.905001 -1.396 0.30000001
-17.898001 -1.39 0.29300001
-17.892 -1.385 0.285
-17.889999 -1.3839999 0.278
-17.900999 -1.395 0.273
-17.912001 -1.405 0.26800001
-17.916 -1.409 0.26199999
-17.924 -1.4170001 0.25600001
-17.927 -1.42 0.25
-17.937 -1.4299999 0.244
-17.943001 -1.436 0.23800001
-17.950001 -1.443 0.233
-17.947001 -1.441 0.22499999
-17.973 -1.465 0.222
-17.973 -1.466 0.215
-17.973 -1.466 0.208
-18.004999 -1.497 0.205
-18.027 -1.518 0.2
-18.033001 -1.523 0.19400001
-17.393 -0.78600001 2.6059999
-17.4 -0.792 2.605
-17.398001 -0.792 2.5940001
-17.415001 -0.80699998 2.6040001
-17.424 -0.815 2.6059999
-17.416 -0.80900002 2.5869999
-17.42 -0.81300002 2.582
-17.427999 -0.81999999 2.5829999
-17.427 -0.81999999 2.572
-17.431999 -0.82499999 2.569
-17.441 -0.833 2.5699999
-17.441999 -0.83499998 2.563
-17.441999 -0.83499998 2.5539999
-17.447001 -0.83999997 2.55
-17.447001 -0.84100002 2.5409999
-17.471001 -0.86299998 2.5599999
-17.450001 -0.84399998 2.526
-17.482 -0.87300003 2.5539999
-17.496 -0.88599998 2.5610001
-17.503 -0.89300001 2.559
-17.509001 -0.89899999 2.5569999
-17.884001 -1.367 0.634
-17.871 -1.354 0.62400001
-17.863001 -1.348 0.61500001
-17.870001 -1.355 0.61000001
-17.881001 -1.3660001 0.60600001
-17.892 -1.376 0.602
-17.889 -1.373 0.59500003
-17.875999 -1.362 0.58399999
-17.881001 -1.367 0.579
-17.875999 -1.363 0.57099998
-17.888 -1.374 0.56699997
-17.885 -1.372 0.56
-17.889999 -1.377 0.55400002
-17.879 -1.367 0.54500002
-17.878 -1.3660001 0.53799999
-17.892 -1.38 0.53399998
-17.885 -1.374 0.52600002
-17.892 -1.381 0.52100003
-17.875 -1.3660001 0.50999999
-17.885 -1.375 0.50599998
-17.889 -1.3789999 0.5
-17.879999 -1.372 0.491
-17.884001 -1.375 0.48500001
-17.891001 -1.382 0.47999999
-17.896999 -1.3890001 0.47499999
-17.875999 -1.369 0.46399999
-17.892 -1.3839999 0.46000001
-17.882999 -1.377 0.45199999
-17.885 -1.3789999 0.44499999
-17.884001 -1.378 0.43799999
-17.888 -1.383 0.433
-17.885 -1.38 0.42500001
-17.884001 -1.3789999 0.41800001
-17.879999 -1.376 0.41100001
-17.879 -1.375 0.40400001
-17.878 -1.375 0.39700001
-17.888 -1.3839999 0.39199999
-17.874001 -1.372 0.38299999
-17.884001 -1.382 0.37799999
-17.868999 -1.368 0.36899999
-17.868999 -1.368 0.36199999
-17.882999 -1.382 0.35800001
-17.879999 -1.3789999 0.35100001
-17.885 -1.385 0.345
-17.882999 -1.383 0.338
-17.885 -1.385 0.33199999
-17.875 -1.377 0.324
-17.892 -1.392 0.31900001
-17.879 -1.381 0.31099999
-17.892 -1.393 0.30599999
-17.882 -1.3839999 0.29800001
-17.893999 -1.396 0.29300001
-17.891001 -1.3940001 0.28600001
-17.896 -1.399 0.28
-17.9 -1.403 0.27399999
-17.9 -1.403 0.26699999
-17.919001 -1.421 0.26300001
-17.926001 -1.428 0.257
-17.934 -1.436 0.252
-17.938 -1.4400001 0.245
-17.945 -1.448 0.23999999
-17.957001 -1.4579999 0.234
-17.957001 -1.459 0.227
-17.979 -1.48 0.223
-17.982 -1.484 0.21699999
-18.011 -1.511 0.213
-18.017 -1.518 0.207
-18.021999 -1.522 0.20100001
-17.398001 -0.79699999 2.6159999
-17.395 -0.796 2.6040001
-17.403 -0.80299997 2.6040001
-17.406 -0.80599999 2.599
-17.413 -0.81300002 2.598
-17.414 -0.81400001 2.589
-17.413 -0.81400001 2.579
-17.416 -0.81800002 2.5739999
-17.424999 -0.82499999 2.575
-17.423 -0.824 2.563
-17.434 -0.83499998 2.5669999
-17.431999 -0.833 2.5550001
-17.447001 -0.847 2.5639999
-17.448 -0.84899998 2.556
-17.437 -0.83999997 2.5350001
-17.444 -0.84600002 2.533
-17.452 -0.85399997 2.533
-17.475 -0.875 2.5510001
-17.487 -0.88599998 2.5539999
-17.482 -0.88200003 2.54
-17.497 -0.89499998 2.5469999
-17.503 -0.90100002 2.5450001
-17.523001 -0.92000002 2.559
-17.867001 -1.359 0.64499998
-17.868999 -1.3609999 0.63800001
-17.867001 -1.36 0.63099998
-17.867001 -1.3609999 0.62400001
-17.870001 -1.363 0.61799997
-17.870001 -1.364 0.61199999
-17.872999 -1.367 0.60500002
-17.862 -1.357 0.59600002
-17.872999 -1.367 0.59200001
-17.870001 -1.365 0.58399999
-17.881001 -1.376 0.58099997
-17.875999 -1.372 0.57300001
-17.871 -1.368 0.565
-17.875 -1.3710001 0.55900002
-17.865999 -1.364 0.55000001
-17.877001 -1.374 0.546
-17.888 -1.385 0.542
-17.877001 -1.375 0.53200001
-17.889999 -1.388 0.52899998
-17.879999 -1.3789999 0.51999998
-17.877001 -1.376 0.51200002
-17.884001 -1.383 0.50700003
-17.879 -1.3789999 0.49900001
-17.875 -1.376 0.49200001
-17.872 -1.373 0.484
-17.875999 -1.377 0.47799999
-17.874001 -1.376 0.47099999
-17.881001 -1.382 0.46599999
-17.867001 -1.37 0.456
-17.882999 -1.385 0.45300001
-17.882 -1.385 0.44600001
-17.872999 -1.377 0.43799999
-17.871 -1.375 0.43000001
-17.871 -1.376 0.42399999
-17.878 -1.382 0.41800001
-17.865 -1.3710001 0.40900001
-17.871 -1.377 0.40400001
-17.875999 -1.382 0.398
-17.879999 -1.386 0.39199999
-17.868999 -1.377 0.38299999
-17.870001 -1.378 0.377
-17.886999 -1.3940001 0.373
-17.882 -1.39 0.366
-17.871 -1.38 0.35699999
-17.879 -1.388 0.352
-17.871 -1.381 0.34400001
-17.877001 -1.386 0.338
-17.872999 -1.383 0.331
-17.877001 -1.387 0.32499999
-17.881001 -1.391 0.31900001
-17.885 -1.395 0.31299999
-17.884001 -1.395 0.30599999
-17.879999 -1.391 0.29899999
-17.872999 -1.386 0.29100001
-17.898001 -1.41 0.28799999
-17.902 -1.414 0.28200001
-17.903 -1.414 0.27500001
-17.917 -1.429 0.271
-17.924999 -1.436 0.26499999
-17.933001 -1.444 0.259
-17.931999 -1.444 0.252
-17.940001 -1.452 0.24699999
-17.959 -1.47 0.242
-17.959 -1.47 0.235
-17.966999 -1.478 0.23
-17.995001 -1.505 0.226
-18.018999 -1.528 0.222
-18.016001 -1.525 0.215
-17.391001 -0.79799998 2.6129999
-17.382 -0.792 2.5929999
-17.393 -0.801 2.5969999
-17.396 -0.80500001 2.5910001
-17.410999 -0.81900001 2.5999999
-17.403999 -0.81300002 2.5829999
-17.415001 -0.82300001 2.586
-17.409 -0.81900001 2.5699999
-17.412001 -0.82200003 2.5650001
-17.43 -0.838 2.576
-17.424999 -0.83399999 2.5610001
-17.431 -0.83999997 2.559
-17.434 -0.84399998 2.5539999
-17.440001 -0.84899998 2.5510001
-17.440001 -0.84899998 2.5420001
-17.448999 -0.85799998 2.5439999
-17.440001 -0.85100001 2.5250001
-17.452 -0.86199999 2.529
-17.451 -0.86199999 2.5190001
-17.479 -0.88700002 2.5409999
-17.483999 -0.89200002 2.5380001
-17.493 -0.89999998 2.539
-17.499001 -0.90600002 2.536
-17.855 -1.3559999 0.64899999
-17.860001 -1.3609999 0.64399999
-17.860001 -1.362 0.63700002
-17.871 -1.373 0.634
-17.878 -1.3789999 0.62900001
-17.872999 -1.375 0.62099999
-17.867001 -1.37 0.61199999
-17.864 -1.367 0.60500002
-17.857 -1.3609999 0.59600002
-17.872999 -1.377 0.59299999
-17.854 -1.36 0.58200002
-17.878 -1.382 0.58099997
-17.875 -1.38 0.574
-17.874001 -1.38 0.56699997
-17.870001 -1.376 0.55900002
-17.861 -1.368 0.55000001
-17.871 -1.378 0.546
-17.870001 -1.377 0.53899997
-17.874001 -1.382 0.53299999
-17.871 -1.3789999 0.52600002
-17.879 -1.387 0.52100003
-17.865 -1.374 0.51099998
-17.867001 -1.376 0.50400001
-17.877001 -1.386 0.5
-17.868 -1.378 0.491
-17.868 -1.3789999 0.48500001
-17.861 -1.372 0.47600001
-17.855 -1.367 0.46799999
-17.882999 -1.3940001 0.46799999
-17.868999 -1.381 0.458
-17.864 -1.377 0.44999999
-17.854 -1.367 0.44100001
-17.862 -1.376 0.43599999
-17.856001 -1.3710001 0.42899999
-17.865999 -1.38 0.42399999
-17.870001 -1.3839999 0.41800001
-17.867001 -1.382 0.41100001
-17.854 -1.37 0.40200001
-17.864 -1.38 0.39700001
-17.872 -1.388 0.39199999
-17.858999 -1.376 0.38299999
-17.872 -1.388 0.37799999
-17.872999 -1.39 0.37200001
-17.877001 -1.3940001 0.366
-17.875999 -1.393 0.359
-17.868 -1.387 0.35100001
-17.872 -1.39 0.345
-17.875 -1.3940001 0.33899999
-17.875999 -1.395 0.33199999
-17.872 -1.392 0.32499999
-17.879 -1.399 0.31900001
-17.879999 -1.4 0.31299999
-17.867001 -1.388 0.30399999
-17.882 -1.402 0.30000001
-17.889999 -1.41 0.294
-17.892 -1.413 0.28799999
-17.905001 -1.425 0.28299999
-17.913 -1.433 0.278
-17.906 -1.427 0.27000001
-17.91 -1.431 0.264
-17.924 -1.4450001 0.259
-17.938999 -1.459 0.25400001
-17.947001 -1.467 0.248
-17.958 -1.478 0.243
-17.972 -1.492 0.23800001
-17.997 -1.516 0.234
-18.009001 -1.528 0.229
-17.378 -0.79400003 2.602
-17.379999 -0.796 2.595
-17.386 -0.80199999 2.5929999
-17.392 -0.80800003 2.5910001
-17.403999 -0.81900001 2.596
-17.405001 -0.82099998 2.5880001
-17.405001 -0.82200003 2.579
-17.416 -0.83200002 2.5829999
-17.409 -0.82599998 2.5650001
-17.417999 -0.83499998 2.5669999
-17.417999 -0.83499998 2.5580001
-17.421 -0.83899999 2.553
-17.424 -0.84200001 2.5469999
-17.433001 -0.85000002 2.5480001
-17.440001 -0.85699999 2.5469999
-17.434 -0.852 2.5309999
-17.440001 -0.85799998 2.529
-17.434999 -0.85399997 2.5139999
-17.445999 -0.86400002 2.517
-17.448 -0.86699998 2.5109999
-17.468 -0.88499999 2.5239999
-17.478001 -0.89399999 2.526
-17.483999 -0.90100002 2.5250001
-17.497 -0.91299999 2.53
-17.513 -0.92699999 2.5380001
-17.858999 -1.369 0.66600001
-17.85 -1.36 0.65600002
-17.851999 -1.363 0.64999998
-17.851999 -1.363 0.64399999
-17.860001 -1.3710001 0.639
-17.860001 -1.372 0.63200003
-17.863001 -1.374 0.62599999
-17.858 -1.3710001 0.61799997
-17.855 -1.368 0.61000001
-17.851 -1.365 0.60299999
-17.865999 -1.3789999 0.60000002
-17.843 -1.357 0.58700001
-17.864 -1.377 0.58600003
-17.868999 -1.382 0.57999998
-17.865 -1.3789999 0.57300001
-17.865999 -1.381 0.56599998
-17.851 -1.367 0.55599999
-17.863001 -1.3789999 0.55199999
-17.857 -1.373 0.54400003
-17.868 -1.3839999 0.54000002
-17.851999 -1.369 0.52899998
-17.867001 -1.385 0.52600002
-17.867001 -1.3839999 0.51899999
-17.862 -1.38 0.51099998
-17.851 -1.3710001 0.50199997
-17.856001 -1.375 0.49599999
-17.851999 -1.372 0.48899999
-17.857 -1.377 0.48300001
-17.864 -1.3839999 0.47799999
-17.863001 -1.383 0.47099999
-17.846001 -1.367 0.461
-17.853001 -1.374 0.456
-17.862 -1.3839999 0.45100001
-17.870001 -1.392 0.44600001
-17.861 -1.3839999 0.43799999
-17.857 -1.38 0.43000001
-17.855 -1.3789999 0.42300001
-17.854 -1.378 0.41600001
-17.856001 -1.38 0.41
-17.874001 -1.398 0.40700001
-17.857 -1.382 0.39700001
-17.865999 -1.391 0.39199999
-17.860001 -1.386 0.384
-17.860001 -1.386 0.377
-17.875 -1.4 0.373
-17.870001 -1.396 0.366
-17.871 -1.397 0.359
-17.851999 -1.38 0.34900001
-17.864 -1.391 0.345
-17.878 -1.406 0.34
-17.864 -1.392 0.331
-17.868 -1.396 0.32499999
-17.864 -1.3940001 0.31799999
-17.875999 -1.405 0.31299999
-17.879999 -1.409 0.30700001
-17.879999 -1.41 0.301
-17.891001 -1.42 0.296
-17.9 -1.429 0.28999999
-17.910999 -1.4400001 0.285
-17.912001 -1.441 0.278
-17.912001 -1.442 0.27200001
-17.916 -1.446 0.266
-17.923 -1.454 0.25999999
-17.941999 -1.471 0.255
-17.959999 -1.489 0.25099999
-17.975 -1.503 0.24600001
-17.996 -1.524 0.242
-17.996 -1.525 0.235
-17.374001 -0.79799998 2.602
-17.382999 -0.80699998 2.6040001
-17.384001 -0.80800003 2.596
-17.386 -0.81 2.589
-17.393 -0.81699997 2.5869999
-17.392 -0.81699997 2.5769999
-17.4 -0.824 2.5769999
-17.412001 -0.83600003 2.5829999
-17.409 -0.83399999 2.5710001
-17.410999 -0.83600003 2.563
-17.408001 -0.83399999 2.5510001
-17.415001 -0.83999997 2.549
-17.427999 -0.852 2.556
-17.421 -0.847 2.539
-17.427 -0.85299999 2.5369999
-17.422001 -0.84899998 2.5220001
-17.433001 -0.85900003 2.526
-17.438999 -0.86500001 2.5239999
-17.445999 -0.87199998 2.5220001
-17.441 -0.86699998 2.507
-17.452999 -0.87900001 2.5120001
-17.455999 -0.88200003 2.506
-17.466999 -0.89300001 2.51
-17.462999 -0.88999999 2.4960001
-17.490999 -0.91500002 2.5190001
-17.497999 -0.92199999 2.517
-17.521 -0.94300002 2.5339999
-17.841999 -1.3609999 0.662
-17.836 -1.3559999 0.65399998
-17.843 -1.363 0.64899999
-17.858999 -1.378 0.64700001
-17.857 -1.377 0.639
-17.851999 -1.373 0.63200003
-17.855 -1.376 0.62599999
-17.844999 -1.367 0.616
-17.856001 -1.378 0.61199999
-17.851 -1.373 0.60399997
-17.843 -1.3660001 0.59500003
-17.858 -1.381 0.59299999
-17.853001 -1.377 0.58499998
-17.860001 -1.383 0.579
-17.857 -1.381 0.57200003
-17.837999 -1.363 0.56
-17.851 -1.376 0.55699998
-17.860001 -1.385 0.55199999
-17.857 -1.383 0.54500002
-17.857 -1.383 0.53799999
-17.858999 -1.385 0.53200001
-17.862 -1.388 0.52600002
-17.849001 -1.376 0.51599997
-17.861 -1.388 0.51200002
-17.857 -1.385 0.505
-17.851 -1.38 0.49700001
-17.855 -1.3839999 0.491
-17.849001 -1.3789999 0.48300001
-17.853001 -1.382 0.477
-17.847 -1.377 0.46900001
-17.858999 -1.3890001 0.465
-17.868 -1.398 0.46000001
-17.851999 -1.383 0.44999999
-17.85 -1.382 0.44299999
-17.846001 -1.378 0.43599999
-17.847 -1.38 0.42899999
-17.844 -1.377 0.42199999
-17.871 -1.403 0.41999999
-17.860001 -1.393 0.412
-17.858 -1.391 0.405
-17.843 -1.377 0.39500001
-17.853001 -1.388 0.38999999
-17.858999 -1.393 0.38499999
-17.843 -1.3789999 0.375
-17.865 -1.4 0.373
-17.861 -1.397 0.36500001
-17.858 -1.395 0.35800001
-17.862 -1.399 0.352
-17.865999 -1.402 0.34599999
-17.847 -1.385 0.336
-17.863001 -1.4 0.33199999
-17.851999 -1.391 0.324
-17.867001 -1.405 0.31999999
-17.867001 -1.406 0.31299999
-17.889 -1.427 0.31
-17.879999 -1.419 0.30199999
-17.888 -1.427 0.296
-17.899 -1.438 0.29100001
-17.907 -1.4450001 0.285
-17.914 -1.4529999 0.28
-17.917999 -1.457 0.27399999
-17.922001 -1.461 0.26699999
-17.940001 -1.479 0.26300001
-17.952 -1.49 0.25799999
-17.966 -1.5039999 0.25299999
-17.98 -1.517 0.248
-17.375999 -0.80699998 2.609
-17.372999 -0.80500001 2.5969999
-17.374001 -0.80699998 2.589
-17.379 -0.81199998 2.586
-17.395 -0.82700002 2.596
-17.393 -0.82499999 2.5840001
-17.392 -0.82499999 2.5739999
-17.393999 -0.82700002 2.566
-17.403999 -0.83600003 2.569
-17.406 -0.838 2.562
-17.412001 -0.84500003 2.5599999
-17.42 -0.852 2.5599999
-17.417 -0.85000002 2.5480001
-17.422001 -0.85500002 2.5439999
-17.427999 -0.861 2.5420001
-17.43 -0.86299998 2.5350001
-17.434999 -0.86900002 2.533
-17.433001 -0.86699998 2.5209999
-17.436001 -0.87099999 2.516
-17.441999 -0.87599999 2.513
-17.448 -0.88200003 2.5109999
-17.444 -0.87900001 2.4979999
-17.447001 -0.88300002 2.4920001
-17.454 -0.88999999 2.4909999
-17.471001 -0.90499997 2.5009999
-17.493999 -0.926 2.517
-17.490999 -0.92400002 2.506
-17.506001 -0.93800002 2.513
-17.830999 -1.359 0.67400002
-17.83 -1.358 0.667
-17.837999 -1.367 0.66299999
-17.836 -1.365 0.65600002
-17.837999 -1.368 0.64899999
-17.843 -1.372 0.64399999
-17.854 -1.383 0.63999999
-17.846001 -1.376 0.63099998
-17.844 -1.374 0.62400001
-17.844 -1.375 0.61699998
-17.853001 -1.3839999 0.61299998
-17.847 -1.378 0.60399997
-17.854 -1.385 0.60000002
-17.855 -1.387 0.59299999
-17.856001 -1.388 0.58700001
-17.858 -1.391 0.57999998
-17.829 -1.364 0.56599998
-17.839001 -1.373 0.56199998
-17.847 -1.382 0.55800003
-17.841 -1.377 0.54900002
-17.827999 -1.365 0.54000002
-17.857 -1.392 0.54000002
-17.851999 -1.388 0.53200001
-17.843 -1.38 0.523
-17.846001 -1.383 0.51700002
-17.856001 -1.393 0.51300001
-17.851999 -1.39 0.505
-17.846001 -1.3839999 0.49700001
-17.851 -1.3890001 0.491
-17.853001 -1.391 0.48500001
-17.855 -1.393 0.479
-17.854 -1.393 0.472
-17.849001 -1.388 0.46399999
-17.826 -1.368 0.45300001
-17.844999 -1.386 0.44999999
-17.847 -1.388 0.44400001
-17.844 -1.386 0.43599999
-17.843 -1.385 0.42899999
-17.844999 -1.388 0.42300001
-17.849001 -1.391 0.417
-17.851999 -1.395 0.41100001
-17.853001 -1.396 0.405
-17.857 -1.401 0.39899999
-17.856001 -1.4 0.39199999
-17.858 -1.402 0.38600001
-17.858999 -1.403 0.37900001
-17.848 -1.393 0.37099999
-17.851999 -1.398 0.36500001
-17.846001 -1.393 0.35699999
-17.851 -1.397 0.35100001
-17.851999 -1.398 0.345
-17.861 -1.408 0.34
-17.861 -1.408 0.333
-17.865999 -1.414 0.32699999
-17.872999 -1.42 0.32100001
-17.870001 -1.418 0.31400001
-17.875 -1.423 0.30899999
-17.886999 -1.434 0.30399999
-17.886999 -1.4349999 0.29699999
-17.893999 -1.443 0.29100001
-17.909 -1.457 0.287
-17.91 -1.4579999 0.28
-17.931 -1.479 0.27599999
-17.938999 -1.487 0.271
-17.954 -1.501 0.266
-17.986 -1.5319999 0.26300001
-17.974001 -1.521 0.255
-17.362 -0.80199999 2.5969999
-17.367001 -0.80699998 2.5940001
-17.372 -0.81199998 2.5899999
-17.375999 -0.81599998 2.586
-17.377001 -0.81699997 2.5780001
-17.384001 -0.824 2.5780001
-17.386999 -0.82700002 2.572
-17.393 -0.833 2.5699999
-17.407 -0.84600002 2.5769999
-17.407 -0.847 2.5680001
-17.402 -0.84299999 2.553
-17.415001 -0.85500002 2.559
-17.41 -0.852 2.5450001
-17.417 -0.85799998 2.543
-17.419001 -0.861 2.5369999
-17.426001 -0.86699998 2.536
-17.427 -0.86900002 2.5280001
-17.431999 -0.87400001 2.5250001
-17.429001 -0.87199998 2.5120001
-17.441 -0.88300002 2.517
-17.434999 -0.87900001 2.5020001
-17.438999 -0.88200003 2.4960001
-17.451 -0.89300001 2.5009999
-17.445999 -0.88999999 2.487
-17.455999 -0.89999998 2.4890001
-17.462 -0.90499997 2.4860001
-17.481001 -0.92299998 2.4990001
-17.492001 -0.93300003 2.5020001
-17.504999 -0.94599998 2.507
-17.51 -0.94999999 2.5039999
-17.528 -0.96799999 2.5050001
-17.82 -1.357 0.68599999
-17.82 -1.357 0.67900002
-17.827999 -1.3660001 0.67500001
-17.837 -1.374 0.671
-17.841 -1.378 0.66500002
-17.837 -1.375 0.65700001
-17.823 -1.362 0.64700001
-17.836 -1.375 0.64399999
-17.84 -1.3789999 0.63800001
-17.844 -1.383 0.63200003
-17.834999 -1.375 0.62300003
-17.839001 -1.3789999 0.61699998
-17.837999 -1.378 0.61000001
-17.833 -1.374 0.602
-17.836 -1.377 0.59600002
-17.843 -1.385 0.59200001
-17.84 -1.382 0.58399999
-17.843 -1.386 0.57800001
-17.836 -1.3789999 0.56999999
-17.844999 -1.388 0.565
-17.836 -1.38 0.55599999
-17.833 -1.377 0.54900002
-17.837999 -1.382 0.54299998
-17.844999 -1.39 0.53799999
-17.847 -1.392 0.53200001
-17.834 -1.38 0.52200001
-17.834999 -1.382 0.51599997
-17.847 -1.393 0.51200002
-17.836 -1.3839999 0.50300002
-17.843 -1.39 0.49700001
-17.832001 -1.381 0.48800001
-17.843 -1.391 0.484
-17.846001 -1.3940001 0.47799999
-17.848 -1.396 0.472
-17.844999 -1.3940001 0.465
-17.844999 -1.3940001 0.458
-17.839001 -1.3890001 0.44999999
-17.841999 -1.393 0.44400001
-17.837 -1.388 0.43599999
-17.841 -1.392 0.43000001
-17.836 -1.388 0.42300001
-17.837 -1.3890001 0.41600001
-17.834999 -1.388 0.40900001
-17.844999 -1.398 0.405
-17.836 -1.39 0.396
-17.844999 -1.398 0.391
-17.836 -1.39 0.38299999
-17.853001 -1.4069999 0.37900001
-17.844999 -1.399 0.37099999
-17.837999 -1.393 0.36300001
-17.839001 -1.395 0.35699999
-17.849001 -1.405 0.352
-17.84 -1.396 0.34400001
-17.847 -1.404 0.338
-17.846001 -1.403 0.33199999
-17.858 -1.415 0.32699999
-17.875999 -1.432 0.32300001
-17.863001 -1.42 0.31400001
-17.882 -1.438 0.31099999
-17.886 -1.443 0.30399999
-17.886 -1.443 0.29800001
-17.908001 -1.465 0.294
-17.905001 -1.462 0.287
-17.905001 -1.4630001 0.28
-17.938 -1.494 0.278
-17.948999 -1.505 0.273
-17.966 -1.522 0.26800001
-17.966999 -1.524 0.26199999
-17.364 -0.81099999 2.6040001
-17.367001 -0.81400001 2.599
-17.358999 -0.80800003 2.5799999
-17.382 -0.829 2.599
-17.372999 -0.82099998 2.5780001
-17.375 -0.824 2.5710001
-17.375999 -0.82499999 2.5639999
-17.386 -0.83499998 2.5669999
-17.391001 -0.83999997 2.5639999
-17.393999 -0.84299999 2.5580001
-17.389 -0.83899999 2.543
-17.403999 -0.85299999 2.5510001
-17.406 -0.85500002 2.5439999
-17.407 -0.85699999 2.5369999
-17.405001 -0.85600001 2.526
-17.416 -0.866 2.529
-17.422001 -0.87199998 2.527
-17.424999 -0.875 2.5209999
-17.438 -0.88800001 2.527
-17.437 -0.88700002 2.517
-17.431 -0.88300002 2.5020001
-17.443001 -0.89399999 2.506
-17.441 -0.89200002 2.4949999
-17.438 -0.88999999 2.4820001
-17.451 -0.90200001 2.4879999
-17.455 -0.90700001 2.483
-17.459999 -0.91100001 2.48
-17.465 -0.917 2.477
-17.492001 -0.94199997 2.4979999
-17.492001 -0.94199997 2.4879999
-17.487 -0.93800002 2.474
-17.51 -0.95999998 2.4909999
-17.554001 -1 2.529
-17.820999 -1.367 0.69499999
-17.827 -1.373 0.69
-17.819 -1.365 0.68099999
-17.832001 -1.3789999 0.67799997
-17.823 -1.37 0.66900003
-17.827999 -1.375 0.66299999
-17.820999 -1.369 0.65399998
-17.830999 -1.3789999 0.64999998
-17.826 -1.374 0.64200002
-17.815001 -1.365 0.63300002
-17.822001 -1.3710001 0.62800002
-17.833 -1.383 0.62400001
-17.82 -1.3710001 0.61400002
-17.822001 -1.373 0.60799998
-17.84 -1.391 0.60600001
-17.83 -1.381 0.59600002
-17.820999 -1.373 0.58700001
-17.836 -1.388 0.58399999
-17.827999 -1.381 0.57599998
-17.816 -1.369 0.56599998
-17.823999 -1.377 0.56099999
-17.822001 -1.376 0.55400002
-17.825001 -1.3789999 0.54799998
-17.826 -1.38 0.542
-17.832001 -1.387 0.537
-17.827 -1.382 0.52899998
-17.830999 -1.387 0.523
-17.834999 -1.39 0.51700002
-17.822001 -1.3789999 0.50800002
-17.837 -1.393 0.50400001
-17.83 -1.387 0.49599999
-17.83 -1.387 0.48899999
-17.833 -1.391 0.48300001
-17.834999 -1.393 0.477
-17.837999 -1.396 0.47099999
-17.829 -1.388 0.46200001
-17.823999 -1.383 0.45500001
-17.841 -1.4 0.45199999
-17.825001 -1.386 0.442
-17.830999 -1.391 0.43599999
-17.82 -1.381 0.42699999
-17.827999 -1.39 0.42199999
-17.84 -1.401 0.41800001
-17.836 -1.398 0.41100001
-17.841999 -1.404 0.405
-17.844 -1.406 0.39899999
-17.841999 -1.405 0.39199999
-17.839001 -1.402 0.38499999
-17.827 -1.391 0.37599999
-17.841 -1.405 0.37200001
-17.84 -1.405 0.36500001
-17.844 -1.408 0.359
-17.830999 -1.397 0.34999999
-17.851999 -1.4170001 0.347
-17.846001 -1.4119999 0.33899999
-17.860001 -1.426 0.33500001
-17.865999 -1.432 0.329
-17.875999 -1.442 0.324
-17.862 -1.429 0.315
-17.881001 -1.447 0.31099999
-17.895 -1.461 0.30700001
-17.903 -1.469 0.301
-17.903 -1.469 0.29499999
-17.924999 -1.4910001 0.29100001
-17.929001 -1.495 0.285
-17.961 -1.527 0.28299999
-17.961 -1.527 0.27599999
-17.365 -0.81900001 2.6099999
-17.356001 -0.81199998 2.5899999
-17.357 -0.81400001 2.5829999
-17.365 -0.82099998 2.5829999
-17.370001 -0.82599998 2.5799999
-17.374001 -0.82999998 2.575
-17.378 -0.83399999 2.5699999
-17.391001 -0.84600002 2.5769999
-17.391001 -0.847 2.5680001
-17.393999 -0.85100001 2.563
-17.393 -0.85000002 2.552
-17.402 -0.85900003 2.5539999
-17.407 -0.86400002 2.55
-17.405001 -0.86299998 2.54
-17.403999 -0.86199999 2.5280001
-17.415001 -0.87199998 2.5320001
-17.424 -0.88099998 2.5339999
-17.419001 -0.87800002 2.52
-17.422001 -0.88099998 2.5139999
-17.427 -0.88599998 2.5109999
-17.422001 -0.88200003 2.4960001
-17.436001 -0.89499998 2.503
-17.437 -0.89600003 2.494
-17.437 -0.89700001 2.4860001
-17.441999 -0.90200001 2.4820001
-17.443001 -0.903 2.4749999
-17.459999 -0.91900003 2.4849999
-17.462 -0.921 2.4779999
-17.459999 -0.92000002 2.467
-17.482 -0.94099998 2.4820001
-17.492001 -0.94999999 2.484
-17.497999 -0.95599997 2.4820001
-17.506001 -0.96399999 2.4820001
-17.521 -0.97799999 2.4890001
-17.816999 -1.372 0.70200002
