ply
format ascii 1.0
comment PCL generated
element vertex 1204
property float x
property float y
property float z
element camera 1
property float view_px
property float view_py
property float view_pz
property float x_axisx
property float x_axisy
property float x_axisz
property float y_axisx
property float y_axisy
property float y_axisz
property float z_axisx
property float z_axisy
property float z_axisz
property float focal
property float scalex
property float scaley
property float centerx
property float centery
property int viewportx
property int viewporty
property float k1
property float k2
end_header
-6.6681252 4.8956246 0.047125001
-6.80825 4.9709997 0.049125001
-6.7640429 4.9371929 0.047903229
-6.6334715 4.936832 0.046983201
-6.593842 4.9724212 0.054526318
-7.8151112 5.0794444 0.058555558
-7.7481771 5.0686178 0.052264709
-7.6786399 5.0794401 0.051519997
-6.8035002 5.0015001 0.061999999
-6.7590594 5.0536399 0.046379991
-6.6382947 5.0434237 0.045858975
-6.5893331 5.0189328 0.051133342
-7.8169479 5.1424823 0.059551734
-7.7931814 5.1635919 0.044727277
-7.6700172 5.1568365 0.050490908
-8.4492865 5.2486787 0.052160718
-8.3933334 5.2436671 0.098999999
-7.8105717 5.2201433 0.067571431
-7.7532806 5.2231321 0.049499996
-7.6803346 5.2089448 0.041999999
-8.7070007 5.3120003 0.0099999998
-8.4589996 5.302 0.057999998
-6.6584001 4.8972001 0.152
-6.8042865 4.9718575 0.14021429
-6.7628698 4.9389911 0.15128283
-6.6353512 4.9376755 0.14792791
-6.5946317 4.9706845 0.15573685
-7.8124995 5.0692 0.16700001
-7.747406 5.0652814 0.14740624
-7.684 5.0777392 0.15191305
-6.8053336 5.050334 0.17366669
-6.7605042 5.05445 0.14803672
-6.6397009 5.0456219 0.14948271
-6.5934081 5.0208516 0.14825927
-8.5370007 5.192667 0.17366669
-8.4308748 5.1951251 0.1415
-8.359148 5.1865191 0.16437037
-7.8129997 5.1500592 0.14618839
-7.7935715 5.1788578 0.14514287
-7.6695423 5.1588135 0.15094915
-8.6141996 5.2456002 0.1164
-8.5522661 5.2710586 0.14908825
-8.4462366 5.2525592 0.1507647
-8.3600788 5.2382312 0.1503077
-7.8169475 5.2178426 0.14989474
-7.7548075 5.2247667 0.1528767
-7.6843991 5.2109995 0.14539999
-8.6009998 5.3000002 0.115
-8.5685005 5.3085003 0.1275
-6.7309999 4.8979998 0.28099999
-6.8074999 4.9705005 0.25499997
-6.7617764 4.9405885 0.24923524
-6.6392765 4.9376636 0.24882172
-6.5917377 4.9746847 0.24699996
-7.8101668 5.0605001 0.24083334
-7.7547274 5.0718489 0.24903029
-7.684864 5.0805001 0.24459089
-6.8036666 5.0583339 0.245
-6.7603321 5.0548754 0.24936454
-6.6389728 5.0475335 0.24853425
-6.5936303 5.0251107 0.25437036
-8.4405003 5.1907501 0.27974999
-8.3486662 5.187571 0.26666668
-8.2674751 5.1723995 0.25310001
-7.8112378 5.1445003 0.24459526
-7.7717505 5.1481252 0.25400001
-7.6661496 5.1564741 0.24958108
-8.5263004 5.2419 0.2172
-8.4566145 5.2514319 0.25624996
-8.3537731 5.2566772 0.24229032
-8.2589188 5.2361999 0.25975999
-7.8050003 5.2160001 0.2375
-7.7585664 5.226203 0.24783787
-7.6823339 5.2124591 0.25041667
-8.4759998 5.3010001 0.206
-6.8056002 4.9728003 0.32980001
-6.7654419 4.9468861 0.3519873
-6.6404943 4.9380722 0.34914148
-6.5911374 4.9834099 0.34872732
-7.8128333 5.074667 0.36283335
-7.7432327 5.0771008 0.34920001
-7.6855712 5.0811901 0.34880954
-6.8016672 5.0733333 0.35600004
-6.7597342 5.0568843 0.34776109
-6.635169 5.0480595 0.34755945
-6.5923333 5.0293703 0.35311109
-8.427 5.1907501 0.32049999
-8.347909 5.1883636 0.35118183
-8.2315674 5.1756659 0.34459999
-8.1600256 5.165103 0.36184615
-7.810111 5.1470551 0.35038891
-7.7888751 5.1433749 0.35525
-7.6688914 5.1533647 0.35021171
-8.4175386 5.2437692 0.31484616
-8.3577795 5.2486224 0.35324445
-8.2469234 5.2485003 0.34546158
-8.1608925 5.225286 0.36475006
-7.8057499 5.2160001 0.34949997
-7.7539997 5.2276416 0.34868649
-7.6816669 5.2159004 0.35383338
-8.2889996 4.8899999 0.414
-8.3617268 4.961545 0.43318182
-8.2550001 4.9455004 0.41350001
-8.1311121 4.9434443 0.41911113
-8.3586168 5.0556159 0.42976925
-8.2153339 5.0336666 0.41166669
-8.1541252 5.0425 0.414125
-8.0900002 5.0780001 0.42649999
-7.8187499 5.0885 0.41625002
-7.7273755 5.0781879 0.4456875
-7.6852221 5.0818143 0.45362961
-6.7583418 5.0584884 0.44846597
-6.6396046 5.0530834 0.45288369
-6.5897651 5.0246763 0.44997057
-8.3399448 5.1636672 0.42638892
-8.2488232 5.1821761 0.46258822
-8.1502504 5.1556997 0.44069996
-8.0582991 5.1617999 0.4673
-7.8133612 5.1458611 0.44738886
-7.7781672 5.1538334 0.44966668
-7.6693754 5.1511698 0.44640911
-6.7620001 5.0999999 0.47400001
-8.3232746 5.2339997 0.42363638
-8.2445583 5.2463961 0.4550465
-8.1465797 5.2333798 0.45092005
-8.0722189 5.2158127 0.46281248
-7.9949999 5.2020001 0.491
-7.8120003 5.2209997 0.46024999
-7.7599664 5.2303166 0.4467369
-7.6810822 5.216433 0.44643238
-7.8227496 5.0910001 0.54925001
-7.7204676 5.073267 0.55786669
-7.6847043 5.0863705 0.53922224
-6.7567067 5.0645361 0.547939
-6.5920005 5.0327053 0.55032349
-8.2239094 5.1782727 0.52645451
-8.1589994 5.1679258 0.55692601
-8.0418186 5.1589546 0.54518181
-7.9533811 5.1669526 0.56400001
-7.8110003 5.1577244 0.54589647
-7.7844286 5.1859999 0.55342859
-7.6685128 5.152194 0.54668188
-8.2198677 5.2240005 0.52606666
-8.1511393 5.2321568 0.54957896
-8.0547619 5.2212992 0.54815996
-7.9838572 5.2060719 0.56085718
-7.8122869 5.2185717 0.53928572
-7.7565532 5.2333431 0.54562682
-7.6798105 5.2182431 0.5501892
-8.2257996 4.7494006 0.63586676
-8.2143345 4.8146667 0.6353333
-8.1645384 4.8457689 0.63246155
-8.0586147 4.8411541 0.61900002
-7.9394674 4.8457332 0.63006669
-7.8730016 4.8506675 0.65971118
-8.1639566 4.9473038 0.63069564
-8.0637503 4.9422498 0.61799997
-7.9517779 4.9445558 0.6183334
-7.8619747 4.9422312 0.65453845
-8.1416368 5.0513635 0.63659096
-8.0922499 5.0557504 0.62150002
-7.9464998 5.0530005 0.65249997
-7.8460717 5.0184999 0.66499996
-7.7472858 5.072608 0.64807141
-7.6870551 5.0872774 0.64677781
-6.8049998 5.0650001 0.61000001
-8.1379623 5.158731 0.63357693
-8.0672302 5.1618075 0.6597693
-7.9441762 5.1668234 0.63923532
-7.8471432 5.1667857 0.64821434
-7.7010002 5.105 0.63800001
-7.667829 5.150043 0.64905375
-7.5929999 5.1079998 0.69400001
-7.4549999 5.1009998 0.699
-7.3404999 5.132 0.69349998
-7.2384996 5.11625 0.65149999
-7.1761594 5.1203599 0.6627599
-7.0970001 5.1269999 0.69199997
-8.1242857 5.2205715 0.61807144
-8.0515671 5.2197556 0.64537734
-7.9597893 5.2095265 0.65381587
-7.8283906 5.2320733 0.65421951
-7.7526293 5.2426114 0.65146297
-7.677176 5.2208247 0.64885014
-7.9052501 4.8418002 0.75740004
-7.8837314 4.8492823 0.74052233
-7.9050002 4.914 0.76499999
-7.8753452 4.9510407 0.7521466
-8.0340004 5.0885 0.72549999
-7.921 5.085 0.74800003
-7.8532419 5.0429182 0.75441933
-7.7367644 5.0867062 0.74123526
-7.6881247 5.0917501 0.75874996
-7.5478578 5.0898571 0.75899994
-7.4473333 5.0772228 0.74616665
-7.3534007 5.0687499 0.74285001
-7.0543637 5.0379772 0.72977269
-6.9448342 5.0673699 0.73948139
-6.8544207 5.0703692 0.75149101
-8.0299053 5.1651425 0.73504764
-7.9560547 5.1511674 0.75980556
-7.8549676 5.153419 0.75470972
-7.6545558 5.1336298 0.73125923
-7.539031 5.1755624 0.73406249
-7.4544249 5.178484 0.74575776
-7.3499217 5.1596985 0.74474603
-7.2505355 5.1495724 0.752518
-7.1505246 5.1315923 0.74869502
-7.0504446 5.1153898 0.75788873
-6.9671669 5.1058335 0.7574445
-8.0264997 5.2090001 0.72280002
-7.9528236 5.2102351 0.74558812
-7.8324165 5.2363334 0.75102085
-7.7496853 5.2429609 0.74803919
-7.6508822 5.219686 0.74839211
-7.563355 5.2104187 0.75699991
-7.9066997 4.8289003 0.83619994
-7.8876352 4.8551927 0.83494258
-7.8730364 4.9498034 0.8411966
-7.7176666 4.969667 0.83866668
-7.5595717 4.942286 0.84128577
-7.9039998 5.098 0.80599999
-7.8533325 5.0446448 0.83486658
-7.7482004 5.0699 0.83980006
-7.6738 5.0646 0.83219999
-7.5337148 5.0498571 0.82642865
-7.4630914 5.0801821 0.82799995
-7.3469996 5.0518341 0.83458328
-7.0524445 5.0280004 0.82811111
-6.9422779 5.0933328 0.82877785
-6.8515134 5.0817308 0.8365947
-7.9244504 5.1578383 0.83538711
-7.8576512 5.158721 0.85425574
-7.7886672 5.1389999 0.88966668
-7.631 5.1083751 0.82725
-7.5395999 5.1718001 0.85646671
-7.4469352 5.1821933 0.83925813
-7.3478379 5.1754413 0.83490694
-7.2478828 5.1572089 0.84146506
-7.1517315 5.1421924 0.84388465
-7.0491729 5.1246924 0.84757692
-6.9555178 5.1127033 0.8547408
-6.8471999 5.1174998 0.86320001
-6.7528834 5.1347265 0.87086266
-6.6885333 5.1256003 0.88173342
-7.9312859 5.2031431 0.81785715
-7.8312941 5.2345004 0.83727276
-7.7523685 5.2461729 0.84758705
-7.6388574 5.240036 0.84507143
-7.5475278 5.248014 0.84921628
-7.4730005 5.2162857 0.85585713
-7.6102867 5.3154287 0.88585716
-7.570364 5.3131814 0.88545465
-7.7504997 5.0961666 0.93933338
-7.6431432 5.072072 0.93164283
-7.5721488 5.0716996 0.93825001
-6.8069057 5.0407619 0.96052378
-7.8285675 5.1613722 0.9455294
-7.7696652 5.1210556 0.95177788
-7.6455283 5.142529 0.95388234
-7.5525494 5.1476865 0.95158821
-6.8190002 5.165 0.96450001
-6.7560716 5.1564846 0.94201458
-6.6852279 5.1513696 0.95330417
-7.8098512 5.2180004 0.95660001
-7.7614422 5.2459116 0.94235295
-7.6312828 5.2480254 0.94989741
-7.5314989 5.2543664 0.94786555
-6.8347502 5.2424998 0.96425003
-6.7503004 5.2384171 0.96718341
-6.6785884 5.2305655 0.97397828
-7.6116467 5.3398528 0.95482343
-7.5433474 5.3533969 0.94445759
-7.4969997 5.3575001 0.954
-7.6167498 5.4084997 0.96125001
-7.5567865 5.4190001 0.98185712
-7.7267504 5.0908127 1.0603125
-7.6739998 5.0929999 1.052
-7.1290002 5.0915003 1.0634999
-7.05375 5.0879998 1.0664999
-6.9403639 5.0866365 1.082091
-6.8322439 5.0650482 1.054756
-6.737968 5.0524564 1.0469468
-6.6937652 5.0846467 1.0368825
-7.819376 5.1563754 1.0534168
-7.7693634 5.1169701 1.0470606
-7.6648002 5.1509991 1.0583143
-7.5523462 5.174654 1.0285385
-7.4440002 5.1923332 1.0670002
-7.351182 5.1735454 1.0695455
-7.2494998 5.1640835 1.072625
-7.144536 5.1397858 1.073
-7.0535555 5.123148 1.0736667
-6.9715252 5.1295238 1.0711906
-6.8561168 5.1370006 1.0734118
-6.7645001 5.1421261 1.0506964
-6.6863084 5.1505523 1.0462949
-7.807972 5.2219458 1.0467569
-7.764451 5.2473497 1.0496751
-7.6410408 5.2475305 1.0552654
-7.5370002 5.2413039 1.0466963
-7.4771547 5.2362309 1.0713078
-7.3560009 5.241909 1.0641818
-7.2490525 5.2348948 1.0642632
-7.1455994 5.2569504 1.0665001
-7.0448093 5.2563334 1.0675714
-6.9640002 5.2484446 1.0694444
-6.8518329 5.2533336 1.0722501
-6.7635188 5.2525368 1.0418334
-6.6730967 5.2515392 1.0475838
-7.6137433 5.3449426 1.0510856
-7.5219808 5.3506532 1.0390612
-7.4405713 5.3489528 1.0645714
-7.3570991 5.3612003 1.0663
-7.2614007 5.3621001 1.0650002
-7.1476536 5.368577 1.074
-7.0459986 5.3603997 1.0757601
-6.9510355 5.3631792 1.0760357
-6.8619499 5.3422999 1.0749
-6.7497497 5.3359504 1.0593333
-6.6689014 5.338016 1.0698363
-7.6041241 5.4252491 1.0595624
-7.546505 5.4533257 1.0388877
-7.4612336 5.4451337 1.0595667
-7.3426666 5.4227343 1.0720668
-7.2585459 5.4155006 1.0774546
-7.1707497 5.4116249 1.08525
-7.5524707 5.5251474 1.0759412
-7.4650002 5.513 1.0934999
-7.8070002 5.098 1.1335
-7.7421665 5.0962501 1.1487499
-7.6820002 5.098 1.143
-6.8400002 5.0939999 1.11
-6.7617998 5.0780005 1.1008
-7.8172517 5.1519151 1.147373
-7.7574024 5.1103277 1.1556
-7.6752563 5.146358 1.1505641
-7.0755 5.1624999 1.1075001
-6.9490004 5.1265001 1.1055
-6.823 5.1219997 1.1220001
-6.7452192 5.1567798 1.1456766
-6.6901093 5.1691623 1.1282704
-7.8129325 5.2226553 1.1554137
-7.7679796 5.2491636 1.1500409
-7.6605687 5.2470551 1.1404055
-7.5574288 5.2717857 1.1259286
-6.8070002 5.2319999 1.197
-6.770092 5.2542787 1.165611
-6.676816 5.248642 1.1490713
-7.6173 5.3569007 1.1463199
-7.5269995 5.3524666 1.163022
-7.4990001 5.3299999 1.159
-7.2270002 5.3979998 1.105
-7.0539999 5.3840003 1.102
-6.9725003 5.37925 1.1045001
-6.8649998 5.3710003 1.1159999
-6.7571154 5.357327 1.1578273
-6.6616569 5.3532352 1.1498814
-7.608696 5.4219127 1.1548263
-7.5436726 5.4491463 1.1509635
-7.4925003 5.4625001 1.14635
-7.3779998 5.414 1.107
-7.2509999 5.4180002 1.103
-6.7379398 5.4462576 1.1587578
-6.6593361 5.4425154 1.1639214
-7.6040001 5.5320001 1.117
-7.5617433 5.5533848 1.1394858
-7.4827447 5.5466084 1.1504509
-6.7378001 5.5079999 1.1930001
-6.6647501 5.50775 1.19525
-7.5404439 5.632134 1.1683556
-7.4811177 5.6277647 1.183
-7.7421255 5.0973749 1.2437501
-7.8184371 5.1563292 1.2474759
-7.7554827 5.1111722 1.2511034
-7.6776156 5.1463089 1.2472925
-7.8129416 5.2268815 1.258353
-7.7670927 5.2544999 1.2502961
-7.6784649 5.2343659 1.2436097
-6.802 5.2729998 1.243
-6.7453008 5.2637334 1.2372501
-6.6815157 5.2695155 1.2294848
-7.6153998 5.3831997 1.2123998
-7.5404167 5.3690009 1.2163334
-7.3594999 5.3937502 1.27675
-7.2502871 5.373857 1.2722858
-7.152667 5.3769164 1.2803334
-7.0456505 5.3688998 1.2798502
-6.9536929 5.3432307 1.2828462
-6.8535624 5.3184376 1.2839999
-6.7648401 5.3434806 1.25096
-6.6660662 5.3482823 1.2504623
-7.6076679 5.4397788 1.2341852
-7.5427179 5.4442501 1.2483591
-7.4658842 5.4556289 1.2540855
-7.3462386 5.4382396 1.27272
-7.2545385 5.4383082 1.2714617
-7.1450624 5.4615626 1.2743126
-7.0594997 5.4204998 1.2737501
-6.9312863 5.4387145 1.2792859
-6.8642001 5.4665999 1.2789999
-6.7499261 5.4418335 1.2468519
-6.6476569 5.4506173 1.2490293
-7.5664325 5.5442548 1.2494903
-7.4751348 5.5496945 1.2435086
-7.3442101 5.5477362 1.2696319
-7.2401676 5.5463328 1.2701668
-7.1491876 5.5371876 1.2737501
-7.0384202 5.5637894 1.2764736
-6.9416876 5.5638127 1.2770625
-6.850636 5.5581818 1.2796364
-6.7304897 5.5446944 1.2480204
-6.6456871 5.5424571 1.256853
-7.6090002 5.6929998 1.2539999
-7.5565081 5.6560006 1.2400351
-7.4699993 5.6481986 1.2414181
-7.3379407 5.6597061 1.2674118
-7.2290006 5.662231 1.2733847
-7.1481667 5.677166 1.2781667
-7.0540476 5.6589522 1.2810477
-6.9604006 5.6518002 1.2844501
-6.8498082 5.6330395 1.2851537
-6.7461114 5.6241107 1.286
-6.6546249 5.6077499 1.2874999
-7.5366392 5.7376795 1.2634599
-7.4612913 5.7299681 1.2694839
-7.3502507 5.7268124 1.2791251
-7.2494507 5.7103496 1.2762002
-7.1643333 5.7014999 1.2880001
-6.7310257 4.2342248 1.36745
-6.6787376 4.2310529 1.3757106
-7.751667 5.0916667 1.3463334
-7.8202705 5.1559858 1.3502432
-7.7551394 5.1142941 1.3502566
-7.6793127 5.1451664 1.3476876
-7.8148842 5.2304611 1.35425
-7.7670255 5.2610259 1.3418946
-7.6795154 5.2381606 1.3536129
-6.7589998 5.2940001 1.3015
-7.1365004 5.3829999 1.3065
-7.0414996 5.3657503 1.3052499
-6.9507146 5.3444295 1.307143
-6.8397498 5.3355002 1.3115
-6.7363014 5.3514004 1.3331667
-6.6723533 5.3741288 1.3281612
-7.5486927 5.4725389 1.313
-7.4546671 5.4298334 1.3058333
-7.3610001 5.4229999 1.304
-7.2550001 5.4029999 1.306
-6.7460003 5.4443183 1.3708183
-6.6556072 5.4487939 1.346598
-7.6199999 5.5209999 1.33
-7.5579267 5.5504527 1.3541322
-7.4882941 5.5740004 1.3694705
-6.7314401 5.5612798 1.3727199
-6.6331706 5.5503082 1.3488181
-7.5709019 5.6451941 1.3462925
-7.4774852 5.6553144 1.3649715
-7.3309999 5.6680002 1.3049999
-7.2789998 5.684 1.3
-7.1205001 5.6940002 1.301
-7.0429997 5.6771436 1.3074286
-6.9587145 5.6614289 1.3065715
-6.8505001 5.6508331 1.3038335
-6.7238669 5.6454673 1.3478223
-6.6377873 5.6448421 1.3517778
-7.5515637 5.7519631 1.3453456
-7.4612207 5.755815 1.3436441
-7.3787498 5.7214999 1.3032501
-7.2145 5.7020001 1.3055
-6.7174287 5.7185717 1.3900001
-6.6553202 5.716681 1.3835999
-7.5340195 5.838203 1.3595926
-7.4618893 5.8364449 1.3684669
-6.6815996 4.1795001 1.4107
-6.7359796 4.2558436 1.4419607
-6.6708741 4.2584805 1.4416708
-6.7230539 4.3419456 1.4533784
-6.6691084 4.3408003 1.4676727
-6.7203331 4.4106669 1.4860001
-6.6847501 4.40275 1.4842501
-7.7263336 5.0948334 1.4485
-7.8214521 5.1586571 1.4486717
-7.7555318 5.1173191 1.4479334
-7.6822834 5.1503773 1.449019
-7.8153586 5.2287617 1.4478333
-7.7612243 5.2668285 1.4512932
-7.679256 5.2377672 1.4509535
-7.763 5.303 1.4119999
-6.7322774 5.469111 1.4268333
-6.6653867 5.473516 1.4275806
-7.5584002 5.5912004 1.4148
-7.4765 5.5857501 1.427
-7.23 5.5900002 1.484
-7.1616664 5.5926666 1.4799999
-7.0500002 5.5866008 1.4866
-6.9335999 5.5808001 1.4878
-6.8494167 5.5592499 1.4898334
-6.7355609 5.5526137 1.4560269
-6.6416459 5.5496259 1.4495957
-7.5597849 5.651432 1.4425136
-7.4716063 5.6540613 1.4412423
-7.3346825 5.6490912 1.4852729
-7.248827 5.6441369 1.4844828
-7.1585836 5.6444998 1.4856251
-7.0553327 5.6595559 1.4860557
-6.9580002 5.64925 1.4880002
-6.8625002 5.6690001 1.48875
-6.7223577 5.6494527 1.4514998
-6.6233654 5.6506557 1.4502586
-6.5970001 5.6676669 1.4343333
-7.5602612 5.7497621 1.4434785
-7.4642997 5.7474008 1.4421835
-7.3552499 5.7465506 1.4804497
-7.2495837 5.742959 1.4816669
-7.1509995 5.7539358 1.4833547
-7.0466104 5.7558336 1.4859444
-6.9295998 5.7684999 1.4865
-6.8555007 5.7517147 1.4879286
-6.6360254 5.7465711 1.4477929
-6.5955 5.7453895 1.456389
-7.5422382 5.8523045 1.4480433
-7.4526 5.8483081 1.4452363
-7.3587656 5.8588834 1.4804705
-7.2614174 5.8591666 1.4832085
-7.1584778 5.8599133 1.4863044
-7.0464783 5.8361306 1.4869567
-6.9508948 5.8270001 1.4883158
-7.5289121 5.9434228 1.457489
-7.4594631 5.9411855 1.4638331
-7.3585005 5.9093752 1.490625
-7.2874999 5.9049997 1.4915
-7.5139999 6.0074997 1.4885
-7.494 6.0240002 1.495
-6.7210002 4.2966666 1.5103334
-6.6863337 4.29 1.5093334
-6.7283082 4.3616152 1.5318078
-6.6670003 4.3580179 1.5358502
-6.7228665 4.4489779 1.5553555
-6.6611729 4.4463458 1.5600619
-6.7097774 4.5214448 1.5822222
-6.6745 4.5126877 1.57775
-7.7323337 5.0976667 1.5456667
-8.0459538 5.1438708 1.5482287
-7.9733896 5.1408334 1.5747777
-7.8208256 5.1611748 1.5477141
-7.7458482 5.1195064 1.5445318
-7.68431 5.1526203 1.5452762
-7.8156486 5.2301755 1.5435499
-7.7522941 5.2661963 1.5435489
-7.678091 5.2373939 1.547091
-7.7529998 5.3010001 1.551
-6.698 5.4879999 1.501
-7.1315002 5.598 1.5025001
-7.0310001 5.579 1.5039999
-6.9401436 5.574286 1.5105714
-6.8492498 5.5584998 1.5098751
-6.7432947 5.5581765 1.5173528
-6.6579657 5.5674143 1.5211033
-7.5299997 5.6617498 1.50825
-7.4569998 5.6616669 1.5073335
-7.3305721 5.6348577 1.5067143
-7.242909 5.6268182 1.5103637
-7.1636667 5.6413336 1.5243334
-7.0289998 5.6079998 1.523
-6.7225456 5.6512733 1.5737274
-6.6320205 5.6448226 1.547479
-7.5486541 5.7614226 1.5376923
-7.4702005 5.7756 1.5673
-6.9980001 5.7680001 1.5319999
-6.8280001 5.7989998 1.522
-6.6233082 5.7465849 1.5513194
-6.5949554 5.7637277 1.5508639
-7.5449767 5.8500247 1.5529511
-7.4504147 5.8547583 1.5649312
-7.3613334 5.8863335 1.5150001
-7.2443333 5.8910003 1.5040001
-7.1591663 5.8760004 1.5105834
-7.0529165 5.8604164 1.5080001
-6.9471674 5.8425002 1.5088334
-6.8420997 5.8264003 1.5097001
-6.7439094 5.8157272 1.5227274
-7.5312562 5.9493332 1.5469999
-7.4376941 5.9514194 1.5460323
-7.3690004 5.9235001 1.5190001
-7.2725 5.9034996 1.5005
-7.5160255 6.0373845 1.5534359
-7.4502134 6.0497146 1.5570244
-7.3855004 6.0244999 1.5465
-7.5065002 6.1075001 1.5880001
-7.4656253 6.107625 1.589
-6.7171435 4.4703336 1.6254286
-6.6653867 4.4670224 1.6274318
-6.7173605 4.5457411 1.65238
-6.6579466 4.5484638 1.6491166
-6.7089 4.6165004 1.6782
-6.6586156 4.6300774 1.6828464
-7.9213333 5.0943336 1.6578335
-7.8793998 5.0925999 1.683
-7.777 5.0889997 1.619
-8.0091114 5.1407776 1.6148888
-7.9475818 5.1308208 1.6445618
-7.8367801 5.1491442 1.6522969
-7.7446446 5.1260762 1.6526154
-7.6856775 5.1592627 1.6485693
-7.8118267 5.2393441 1.6495515
-7.7553639 5.2687311 1.6504875
-7.67942 5.2358603 1.6541227
-6.7175007 5.6706672 1.6085
-6.645524 5.6781902 1.6177143
-7.1100001 5.7940001 1.692
-7.0879998 5.7839999 1.692
-6.7132783 5.7396111 1.6439444
-7.5368934 5.864428 1.6351432
-7.454555 5.8642039 1.6381298
-7.342 5.8787498 1.6873751
-7.2449169 5.8721671 1.6905
-7.1461582 5.8563161 1.6907895
-6.9432678 5.8456669 1.6941336
-6.8478751 5.8356252 1.694625
-7.5328636 5.9465909 1.6459999
-7.4364448 5.9469719 1.6493193
-7.3517218 5.9484448 1.6894444
-7.2473755 5.9524164 1.6888751
-7.5187778 6.0431552 1.6488224
-7.4260936 6.0467381 1.650723
-7.3515506 6.0467496 1.6873999
-7.2460628 6.0528755 1.6875
-7.5117006 6.1311998 1.6590003
-7.4491477 6.148406 1.6483068
-7.3636875 6.1301875 1.6763124
-7.2578182 6.1111817 1.6892729
-7.1619997 6.1073747 1.6947502
-7.4657898 6.2118421 1.6832105
-6.7073336 4.5770001 1.7296666
-6.662735 4.5759411 1.7214707
-6.7142339 4.6571331 1.7422001
-6.6480861 4.6522284 1.7468573
-6.7140002 4.7178001 1.7636
-6.6496668 4.7336664 1.7741108
-7.9039998 5.099 1.704
-7.8339996 5.0926838 1.7549473
-7.7714553 5.0878181 1.785182
-7.9110003 5.1238575 1.7088572
-7.8427539 5.1400113 1.7473949
-7.7348189 5.1281815 1.7428789
-7.6888571 5.1668749 1.7465184
-7.8163342 5.2391748 1.7517195
-7.748508 5.2732902 1.746507
-7.6814365 5.2376852 1.7495207
-6.8175721 5.7931428 1.7118572
-6.7355003 5.7832999 1.7147999
-7.4419999 5.8940001 1.71
-7.3534999 5.8775005 1.7037501
-7.2259998 5.8631668 1.7143333
-7.1391006 5.8466001 1.7087001
-7.0610003 5.8462 1.7206
-6.9512501 5.8144999 1.714
-6.8521338 5.8108673 1.7122002
-7.519412 5.9666481 1.7307646
-7.4582863 5.9369998 1.7334287
-7.3189998 5.901 1.727
-7.5209484 6.0487695 1.755513
-7.4392104 6.0462627 1.7795264
-7.5075679 6.1348329 1.7511001
-7.4397206 6.1564741 1.7485409
-7.3747778 6.1584444 1.7407776
-7.2484169 6.1290007 1.7095835
-7.5074005 6.2307 1.7321999
-7.4620295 6.2532496 1.747336
-7.3902302 6.2481718 1.7624002
-7.4560647 6.3194509 1.7832581
-7.3920002 6.3137498 1.7865001
-6.9272223 4.0913334 1.8570001
-6.8415918 4.0896363 1.8778182
-7.4208336 4.1940002 1.8648334
-7.3463049 4.1894722 1.8680558
-7.2559037 4.1758466 1.8729231
-7.1484227 4.1527996 1.8722003
-7.0493779 4.1346555 1.8713446
-6.9622803 4.1170459 1.8765583
-6.8767338 4.1080003 1.8782666
-7.6497254 4.2583761 1.8682753
-7.549067 4.2374425 1.8684919
-7.4527979 4.2168303 1.8704746
-7.3622379 4.2077146 1.8708575
-6.660778 4.6846113 1.8156667
-6.7410002 4.7519999 1.801
-6.6407747 4.757462 1.8405163
-6.6457257 4.8386536 1.8631686
-6.5999999 4.8969998 1.898
-6.6669998 4.901 1.886
-7.8039999 5.092 1.802
-7.7389393 5.0827956 1.8439591
-7.6776428 5.0788932 1.8748573
-7.8199196 5.1682906 1.8464998
-7.7569571 5.1320424 1.851149
-7.6710391 5.1502886 1.8495963
-7.8154516 5.2375302 1.8540158
-7.7493649 5.2752733 1.8472906
-7.6816521 5.2354646 1.8441861
-7.5117693 6.0636926 1.8215386
-7.4391623 6.0741086 1.8315675
-7.3379998 6.0929999 1.8940001
-7.5088124 6.145432 1.8475134
-7.4283323 6.1498923 1.8538713
-7.377562 6.1596251 1.8750627
-7.2444448 6.152 1.8966666
-7.503643 6.2290721 1.8512856
-7.4634857 6.2540436 1.8508496
-7.3836923 6.2573853 1.860564
-7.5019999 6.3410001 1.811
-7.4614782 6.3530536 1.8483672
-7.3831472 6.347611 1.8570925
-7.4453716 6.4248285 1.8779715
-7.386889 6.4109998 1.8792223
-6.9400001 4.0939999 1.921
-6.8427138 4.0830002 1.912143
-7.4324999 4.1989999 1.9095
-7.3486357 4.1886368 1.9083637
-7.2480001 4.1756926 1.9075384
-7.1543336 4.1516113 1.9091666
-7.049417 4.1340833 1.9093751
-6.9491539 4.1123071 1.9123847
-6.8636665 4.1086669 1.9086666
-7.9406543 4.2770858 1.9486791
-7.850656 4.2686849 1.9495887
-7.7506995 4.2841005 1.9058999
-7.6398883 4.2521114 1.9046667
-7.5465999 4.2422996 1.9047002
-7.4599419 4.2205291 1.9068824
-7.3559999 4.2060003 1.9133333
-7.9501534 4.3516483 1.9471763
-7.829299 4.3599739 1.9478698
-7.779572 4.3411431 1.9641429
-7.9202337 4.4104671 1.9537666
-7.8860722 4.4114289 1.9498572
-6.7010002 4.7930002 1.903
-6.6638336 4.7845001 1.9135001
-6.6408339 4.859333 1.9336923
-6.599 4.8429999 1.905
-6.7030005 4.9100003 1.939
-6.6338668 4.9432592 1.9560864
-6.5974998 4.9360003 1.9665
-7.7114997 5.0852499 1.9022499
-7.6826005 5.0820003 1.9108
-6.640801 5.0104003 1.9844
-7.8218932 5.162179 1.9478574
-7.7458701 5.1383896 1.953922
-7.6601272 5.1582174 1.9390545
-7.8176627 5.2406335 1.9522943
-7.7561111 5.2803497 1.948889
-7.6519704 5.2496619 1.9585145
-7.7527499 5.3057499 1.97875
-7.6475 5.3103747 1.992625
-7.217 6.0949998 1.906
-7.5115004 6.1870003 1.9189999
-7.4648004 6.1612496 1.9196503
-7.3543158 6.1429477 1.9091579
-7.2518234 6.1455884 1.9048233
-7.5048003 6.2293339 1.9393334
-7.4728656 6.2512407 1.9543464
-7.3728576 6.2564292 1.9247859
-7.266778 6.2530007 1.9011112
-7.4786549 6.3481669 1.950859
-7.3681617 6.3668075 1.9460002
-7.4562135 6.4541907 1.9434996
-7.3756332 6.4458666 1.9465667
-7.4371057 6.5254993 1.9735523
-7.3677039 6.5179629 1.9794075
-7.9392352 4.2793202 2.0501802
-7.8524938 4.2714558 2.0482531
-7.9543014 4.349278 2.045989
-7.8241587 4.3548574 2.0461426
-7.7963333 4.3481669 2.0408335
-7.928237 4.4113951 2.0461581
-7.8678522 4.4079261 2.0517778
-6.6356659 4.9662499 2.0289791
-6.5971999 4.9778004 2.0128
-6.7030001 5.027 2.089
-6.6321282 5.0470681 2.0481877
-6.5946159 5.0521922 2.0597694
-7.8213224 5.1689839 2.0481613
-7.7448874 5.1441231 2.0528004
-7.6883845 5.1719484 2.044282
-6.6353326 5.117909 2.0784545
-6.593667 5.1136665 2.0906668
-7.8177223 5.2410293 2.0501912
-7.7527747 5.2799497 2.0522499
-7.6597133 5.2495308 2.046303
-7.7648335 5.308167 2.0401666
-7.6407938 5.3454342 2.0545061
-7.5928574 5.3614297 2.0695715
-7.6330662 5.4148669 2.0846667
-7.592 5.4190001 2.0780001
-7.4488587 6.2788939 2.0174289
-7.3946667 6.2798338 2.0263333
-7.5019999 6.3315001 2.0450001
-7.4620228 6.3472013 2.0476704
-7.3837571 6.3597751 2.0523546
-7.4637237 6.4477377 2.0485656
-7.4448209 6.5513468 2.0467784
-7.3597288 6.5506234 2.0493784
-7.4273429 6.6249719 2.0754857
-7.3652792 6.6247606 2.0773199
-7.2989998 6.6160002 2.0829999
-6.726265 4.1385469 2.1601696
-7.9414392 4.2822032 2.1533389
-7.8539658 4.2734714 2.1489773
-8.007 4.303 2.1659999
-7.9547958 4.3478813 2.1472366
-7.8172097 4.3426523 2.1522779
-7.7916002 4.3583999 2.141
-7.9313588 4.4154863 2.147923
-7.8559685 4.4081616 2.1491935
-6.6359997 5.0699687 2.1168747
-6.5961666 5.0890002 2.1173334
-7.8186502 5.1742253 2.1500747
-7.7434344 5.149085 2.1527448
-7.6924553 5.1672049 2.1430454
-6.6396241 5.1511874 2.1443963
-6.5894036 5.1525779 2.1469808
-7.8163319 5.2436419 2.1507051
-7.7438154 5.2837958 2.156163
-7.6848607 5.2415967 2.1478243
-6.6315255 5.2315741 2.1726499
-6.5878587 5.2198577 2.1806428
-7.7595 5.3106666 2.1300001
-7.6363339 5.368259 2.130259
-7.5945721 5.3778577 2.1212857
-7.6355839 5.4465609 2.1456578
-7.5865417 5.4471087 2.158865
-7.6222858 5.5174289 2.1806428
-7.5892506 5.5171251 2.1821251
-7.4368124 6.3758745 2.1154373
-7.3487105 6.3636847 2.1141315
-7.4576354 6.4567184 2.1427324
-7.3558965 6.4523449 2.1355517
-7.4542122 6.5499706 2.1518312
-7.3485718 6.5688219 2.1450717
-7.4337435 6.6517549 2.147059
-7.3532853 6.6540709 2.1439857
-7.3590422 6.734376 2.1722713
-6.7302876 4.1534395 2.2463336
-6.6422791 4.1862779 2.2188888
-7.9372129 4.2837877 2.2501731
-7.8543139 4.2761011 2.2479215
-6.71872 4.2341399 2.26194
-6.6519823 4.2379456 2.2592542
-6.5792952 4.2327843 2.2724903
-8.0220003 4.3109999 2.2880001
-7.9557862 4.3452883 2.2499256
-7.8187461 4.3504457 2.2488678
-7.7948747 4.3570004 2.2376249
-7.9318237 4.4174447 2.2477779
-7.8571844 4.4098949 2.2537367
-7.7954998 4.4025002 2.2909999
-7.822257 5.1758852 2.2522287
-7.7463279 5.1552978 2.2501976
-7.6889739 5.1721258 2.2513752
-6.6298342 5.1762776 2.2135
-6.5938334 5.1920004 2.2098334
-7.8176732 5.2429152 2.2495177
-7.7482219 5.2843337 2.2470448
-7.6839113 5.2447495 2.2482793
-6.6367049 5.2592678 2.2394743
-6.5859852 5.2593908 2.2411091
-7.7658181 5.3028183 2.2674546
-6.6289296 5.3400354 2.2628217
-6.5835004 5.334455 2.2692502
-7.624238 5.4723339 2.2186666
-7.5818238 5.4774117 2.2243531
-6.6140003 5.4040003 2.2904999
-7.6234608 5.5508618 2.2475235
-7.5719161 5.5500827 2.2515838
-7.6122861 5.6172857 2.277143
-7.5775261 5.6262631 2.2798419
-7.4242501 6.4862499 2.2014999
-7.3713336 6.4889998 2.2103336
-7.443254 6.5547147 2.2390954
-7.361445 6.5586848 2.2472963
-7.4375386 6.6492767 2.250526
-7.3438721 6.6500573 2.245019
-7.4238949 6.7515574 2.246974
-7.335279 6.7555704 2.2459452
-7.4128551 6.837522 2.2639375
-7.3544092 6.8418341 2.2649543
-6.7248945 4.1505718 2.3503392
-6.6959996 4.1700001 2.3225
-7.9325595 4.2863803 2.3466198
-7.8518295 4.2800908 2.3528833
-6.7191615 4.2529511 2.3463709
-6.6476521 4.2794785 2.3211737
-6.5591769 4.2516389 2.3512964
-7.9557605 4.3459382 2.3504584
-7.8195705 4.3477974 2.3492131
-7.7961249 4.3590002 2.3470001
-6.7141662 4.33112 2.3649526
-6.6511841 4.3363333 2.3621998
-6.5689044 4.3280392 2.3687115
-7.928369 4.4167628 2.3471842
-7.8608871 4.4135919 2.3482499
-7.8192062 5.1803446 2.3495171
-7.7433085 5.1566453 2.3509042
-7.6899657 5.177896 2.347517
-7.8188529 5.2452455 2.3505805
-7.737483 5.2787929 2.3426898
-7.686779 5.2524581 2.3505087
-6.6177502 5.2870002 2.3085001
-6.5949998 5.2880001 2.303
-7.7563109 5.3051038 2.3552065
-7.6929998 5.3000002 2.382
-6.6289997 5.3598003 2.3336
-6.5802417 5.3647237 2.3342412
-6.6272225 5.4382749 2.35869
-6.5763206 5.4431105 2.3614998
-7.6118331 5.5803332 2.3188334
-7.5739331 5.5750008 2.3212001
-6.6257997 5.5084 2.3894002
-6.579 5.5135002 2.3921669
-7.6101665 5.6495838 2.3437085
-7.5615954 5.6547971 2.3510878
-7.605 5.6999998 2.365
-7.5682955 5.7254086 2.3752222
-7.3401999 6.5908003 2.3203332
-7.4290009 6.6602345 2.336412
-7.352438 6.6485004 2.3350315
-7.2459645 6.6467853 2.3162143
-7.4251494 6.7491755 2.3469999
-7.3266845 6.7558417 2.3371053
-7.2431674 6.7557502 2.3145833
-7.4120712 6.8473854 2.3505998
-7.3330145 6.857543 2.3430421
-7.2615004 6.8233328 2.3282499
-7.4048338 6.9223337 2.3738334
-6.7138119 4.1672816 2.4354689
-6.6482491 4.1521249 2.4523752
-7.9302092 4.2893019 2.444279
-7.8507485 4.2835555 2.4509363
-6.7141833 4.2473817 2.4496911
-6.684 4.2557497 2.4457502
-6.5559158 4.2519445 2.449944
-7.9546785 4.3460541 2.449419
-7.8257184 4.343256 2.4507921
-7.7995 4.3929996 2.441
-6.7129474 4.3464389 2.4478951
-6.6643596 4.3758001 2.4256399
-6.5523171 4.3523979 2.4475837
-7.9285684 4.4182506 2.4532728
-7.8557448 4.4148836 2.44786
-6.7103086 4.4180002 2.4605
-6.6599727 4.4342747 2.4653561
-6.566021 4.4256535 2.4714999
-7.8166947 5.1821394 2.4521668
-7.74225 5.1613836 2.4485767
-7.688056 5.1820555 2.435889
-7.818861 5.2493305 2.4509749
-7.7262669 5.2755003 2.4471338
-7.6879187 5.2480283 2.449712
-7.8096671 5.3083334 2.4886668
-7.760179 5.3088217 2.4496431
-7.6989999 5.3024998 2.45
-6.5999999 5.3990002 2.401
-6.6262965 5.4643703 2.4261479
-6.5775414 5.4662433 2.4288383
-6.6210022 5.5453062 2.4514029
-6.5697145 5.546536 2.4517026
-7.5633688 5.6772113 2.4185262
-6.6114998 5.6138749 2.4859998
-6.5730004 5.6190767 2.4844232
-7.6146669 5.751667 2.4100001
-7.5579028 5.7567611 2.4462497
-7.5507998 5.8297744 2.4755504
-7.3670001 6.691 2.441
-7.4206047 6.7651052 2.4294736
-7.3457994 6.7574754 2.4416254
-7.4123812 6.8483024 2.446476
-7.3293777 6.8471313 2.4522026
-7.2976665 6.8100004 2.4596667
-7.4056001 6.9316988 2.4461005
-6.6700001 4.1880002 2.5710001
-7.9310269 4.2927289 2.5449462
-7.8488784 4.2847018 2.5440526
-7.79 4.2946672 2.5550001
-6.7076826 4.2610912 2.5360909
-6.670711 4.253315 2.5467629
-6.565917 4.2689824 2.534441
-7.9522443 4.3428569 2.5490613
-7.8240194 4.3485012 2.5501783
-7.7854996 4.3649998 2.54075
-6.7083058 4.3511229 2.5439997
-6.6958227 4.3627057 2.5578239
-6.5473728 4.3491426 2.5495431
-7.930068 4.4224777 2.5528405
-7.8603263 4.4192042 2.5514491
-6.7063007 4.4455848 2.544698
-6.6706057 4.4746661 2.5391042
-6.5473742 4.4510393 2.5475781
-6.7076254 4.5263748 2.5741248
-6.6584001 4.533124 2.5691075
-6.5582395 4.520957 2.5714786
-7.8197198 5.1819687 2.5502501
-7.7405767 5.1652389 2.5481529
-7.6953335 5.1854162 2.5415001
-7.819859 5.2533298 2.5491412
-7.7123003 5.2506499 2.5519001
-7.6895208 5.2542539 2.5469015
-7.753859 5.3094993 2.5506999
-7.6908998 5.3039999 2.5550001
-6.6191864 5.5676246 2.519125
-6.5751152 5.5707698 2.5208848
-6.6125002 5.6519785 2.5459583
-6.5651846 5.6545362 2.5476601
-7.5536923 5.7847695 2.5135388
-6.6087999 5.7193999 2.579
-6.5656762 5.7293239 2.5757568
-7.5401211 5.8581629 2.5431011
-7.4953337 5.8676672 2.5510001
-7.5374203 5.9296794 2.5724597
-7.493 5.9183331 2.5856667
-7.2179999 6.7940001 2.5350001
-7.1341429 6.7918572 2.5284288
-7.4079366 6.8695626 2.5194376
-7.3429232 6.8513079 2.5300965
-7.2488055 6.8416109 2.5286391
-7.1471791 6.841898 2.5301795
-7.4056497 6.92555 2.5459499
-7.9293151 4.294631 2.6486845
-7.8558464 4.2871952 2.6443262
-6.7020001 4.296 2.6010001
-6.5840001 4.2969999 2.602
-7.9509902 4.3442693 2.6488464
-7.8299699 4.3423285 2.6490002
-7.7883334 4.3598332 2.6611669
-6.7078824 4.3540001 2.6258826
-6.6689816 4.3565965 2.6463654
-6.555017 4.3676844 2.6361222
-7.9316039 4.4251046 2.6490207
-7.8614311 4.4246478 2.648314
-6.7046671 4.4516292 2.6396298
-6.6926303 4.4479351 2.655391
-6.5400538 4.447845 2.6517098
-6.7047281 4.5340004 2.6547272
-6.6765351 4.5582685 2.6410606
-6.5388522 4.5480781 2.6462698
-6.5 4.5804996 2.6669998
-6.6606731 4.6267405 2.6670172
-6.5561171 4.6190929 2.6749535
-7.8185334 5.1834345 2.6466334
-7.7434044 5.1720486 2.6466103
-7.6927152 5.1787143 2.6468573
-7.8215423 5.2489634 2.6515558
-7.7141008 5.2493496 2.6455498
-7.6914458 5.2573552 2.6445558
-7.8101249 5.3060002 2.64625
-7.7546806 5.3115721 2.6490896
-7.6943336 5.3053336 2.6590002
-6.6009998 5.6750002 2.6070001
-6.5782862 5.6825004 2.6139998
-6.6076198 5.756238 2.632143
-6.5563097 5.7527528 2.6384821
-7.5170002 5.8955002 2.6064999
-6.6061664 5.8216667 2.6693332
-6.560216 5.8340163 2.6688833
-7.5310926 5.9542303 2.6384153
-7.4918423 5.9710627 2.6417813
-7.5297422 6.0290861 2.6658854
-7.4881363 6.0302272 2.6758635
-7.3969998 6.8990002 2.6010001
-7.9189234 4.2936926 2.7452312
-7.8640647 4.2914186 2.748903
-7.9509988 4.3404307 2.7500181
-7.8308229 4.3406453 2.7487261
-7.7881999 4.3737998 2.7588
-6.6731672 4.3899999 2.7188337
-7.9342437 4.4264693 2.7472243
-7.8625007 4.4260221 2.7508049
-6.7084999 4.4775 2.7445002
-6.6699147 4.4571724 2.7442851
-6.5496821 4.4634767 2.7378094
-6.7053332 4.5351667 2.724
-6.689044 4.5513821 2.7535
-6.5286975 4.5482359 2.7507832
-6.723 4.66225 2.7389998
-6.6691275 4.6574502 2.7392962
-6.5325766 4.6508641 2.7479749
-6.4970002 4.697 2.79
-6.7045002 4.7309999 2.789
-6.6556892 4.7236891 2.7704003
-6.5506754 4.7200499 2.7757499
-7.8159733 5.1839733 2.7476218
-7.740654 5.1722507 2.7516665
-7.6975002 5.1852503 2.74475
-7.8237867 5.2499876 2.7492378
-7.7105174 5.244277 2.7492068
-7.6943674 5.2543001 2.744
-7.8126369 5.3065457 2.7584546
-7.7535992 5.313508 2.7490771
-7.6953335 5.3056669 2.7450004
-6.6059999 5.789 2.704
-6.5667496 5.7947502 2.7205
-6.6142864 5.8590002 2.7174287
-6.5562878 5.8627634 2.7328136
-6.487 5.882 2.779
-7.5209999 5.9899998 2.701
-7.4934998 5.9959998 2.7045
-6.6142864 5.9278574 2.7520001
-6.5526743 5.9410391 2.761909
-7.5262566 6.0584192 2.7361162
-7.4834728 6.0642447 2.7402453
-6.5634999 6.0102496 2.7952499
-7.5218396 6.1335163 2.7644513
-7.4761863 6.1362553 2.7695122
-7.5120001 6.2090001 2.7939999
-7.9187784 4.2903333 2.8405557
-7.8715482 4.2897086 2.8487098
-7.9514513 4.3399711 2.8510964
-7.834825 4.3371921 2.8506317
-7.77 4.3699999 2.8
-7.9353218 4.4264235 2.8476775
-7.8595519 4.4283948 2.8486578
-6.6512003 4.4804001 2.8210001
-6.7249999 4.5120001 2.8180001
-6.6631713 4.5538955 2.845737
-6.5419211 4.5623021 2.8363016
-6.680346 4.6483459 2.8484037
-6.5210886 4.6492162 2.8496666
-6.4970002 4.697 2.8840001
-6.7372503 4.7589998 2.835
-6.6644917 4.7528348 2.8422089
-6.5310478 4.7540007 2.8469243
-6.4963336 4.7511115 2.8551111
-6.7344999 4.8080001 2.8710001
-6.6461759 4.8272648 2.8731174
-6.5509524 4.822372 2.8801157
-6.4990001 4.8109999 2.8729999
-7.8159995 5.1885505 2.8464003
-7.737792 5.176096 2.844835
-7.6973338 5.1923332 2.8270001
-7.8254657 5.2495704 2.8499761
-7.7091818 5.2453861 2.8577278
-7.6952267 5.254591 2.8456364
-7.813333 5.3099165 2.8435836
-7.7499814 5.3186107 2.8522217
-7.697 5.316 2.8570001
-6.6170001 5.9885001 2.8080001
-6.5495777 5.9617558 2.8286221
-7.4790001 6.0895 2.8105001
-6.5510654 6.0445671 2.8564482
-7.5150499 6.1622 2.83355
-7.4722333 6.1621785 2.8333039
-6.550693 6.1137691 2.8877697
-7.5156093 6.2267389 2.8629127
-7.4679484 6.241549 2.8679378
-7.507 6.316 2.8870001
-7.461 6.3070002 2.8915
-6.8061996 4.0388002 2.9946001
-6.7593942 4.0630369 2.9523704
-6.7365999 4.1051998 2.9656
-7.9183998 4.2828002 2.9591999
-7.872941 4.2947054 2.9478819
-7.951098 4.3397985 2.9483862
-7.8333526 4.3461938 2.952841
-7.7925 4.3535004 2.924
-7.9371448 4.4280624 2.949646
-7.851645 4.4316444 2.9482207
-7.8000002 4.4060001 2.984
-6.6533999 4.5851998 2.9280002
-6.5834999 4.5815001 2.9184999
-6.6590886 4.6555786 2.9427545
-6.5398045 4.6605735 2.9399996
-6.4970002 4.6810002 2.9200001
-6.6697564 4.7445407 2.9499464
-6.5131812 4.7435427 2.9510481
-6.4956002 4.7649341 2.9434001
-6.6501126 4.8621702 2.9393969
-6.532774 4.8550429 2.9389248
-6.4943485 4.8453264 2.9629998
-6.6424217 4.9210787 2.9706841
-6.5515223 4.9219999 2.9780865
-6.4902 4.9078002 2.9808004
-7.8152318 5.1906161 2.9506156
-7.7439995 5.1799307 2.945569
-7.6946669 5.1846666 2.9413335
-7.8262482 5.2486482 2.9478405
-7.7142448 5.2516413 2.9487362
-7.6971984 5.2620006 2.93695
-7.8157773 5.3127227 2.9636664
-7.7525449 5.320765 2.9528818
-7.691 5.3175001 2.9380002
-6.5279999 5.9829998 2.9000001
-6.5461149 6.0658288 2.9254284
-6.4910002 6.0900002 2.905
-7.5279999 6.1830001 2.9170001
-7.4505 6.1619997 2.9264998
-6.5434742 6.1488686 2.948622
-6.4961252 6.1494999 2.9506252
-7.5085831 6.2750006 2.9287498
-7.4666843 6.2701397 2.9361749
-6.5332112 6.2194214 2.9835789
-6.498333 6.2263336 2.9913335
-7.508625 6.3317499 2.9547501
-7.4617376 6.336514 2.9598944
-7.4568 6.4096003 2.9936001
0 0 0 1 0 0 0 1 0 0 0 1 0 0 0 0 0 1204 1 0 0
