ply
format ascii 1.0
comment PCL generated
element vertex 1802
property float x
property float y
property float z
element camera 0
property float view_px
property float view_py
property float view_pz
property float x_axisx
property float x_axisy
property float x_axisz
property float y_axisx
property float y_axisy
property float y_axisz
property float z_axisx
property float z_axisy
property float z_axisz
property float focal
property float scalex
property float scaley
property float centerx
property float centery
property int viewportx
property int viewporty
property float k1
property float k2
end_header
9.5089998 2.7390001 2.7539999
9.5270004 2.7290001 2.7420001
9.5129995 2.737 2.72
9.5139999 2.737 2.7030001
9.5179996 2.7349999 2.687
9.5179996 2.7349999 2.6689999
9.5179996 2.7349999 2.652
9.526 2.73 2.6370001
9.5050001 2.7420001 2.6129999
9.4969997 2.747 2.592
9.5050001 2.743 2.5780001
9.5129995 2.7379999 2.563
9.4910002 2.7509999 2.539
9.0600004 3.013 0.65899998
9.0760002 3.0039999 0.64499998
9.066 3.01 0.62900001
9.0439997 3.023 0.611
9.0249996 3.0339999 0.59500003
9.0200005 3.0369999 0.579
8.9879999 3.0550001 0.56099999
8.9799995 3.0599999 0.546
8.9720001 3.0650001 0.52999997
8.9549999 3.075 0.514
8.9490004 3.0780001 0.498
8.941 3.0829999 0.48300001
8.9200001 3.095 0.46599999
8.9189997 3.095 0.45100001
8.901 3.1059999 0.435
8.882 3.1170001 0.419
8.8640003 3.1270001 0.40400001
8.8660002 3.1259999 0.389
8.842 3.1400001 0.373
8.8439999 3.1400001 0.35800001
8.8380003 3.1429999 0.34299999
8.8269997 3.1500001 0.32800001
8.8249998 3.151 0.31299999
8.8310003 3.148 0.29899999
8.8310003 3.1470001 0.28400001
8.8319998 3.1470001 0.26899999
8.8369999 3.1440001 0.255
8.8190002 3.155 0.23899999
8.842 3.142 0.226
8.8380003 3.1440001 0.211
8.849 3.138 0.197
8.8430004 3.141 0.182
8.8520002 3.1359999 0.167
8.849 3.138 0.152
8.8529997 3.1359999 0.138
8.8579998 3.1329999 0.123
8.8769999 3.122 0.109
8.8690004 3.1270001 0.093999997
9.5369997 2.744 0.057999998
9.5570002 2.733 0.043000001
9.5480003 2.7379999 0.026000001
9.54 2.743 0.0099999998
9.5959997 2.707 2.924
9.5380001 2.74 2.885
9.5240002 2.7479999 2.862
9.5249996 2.7479999 2.845
9.5270004 2.747 2.8280001
9.5220003 2.75 2.8080001
9.5220003 2.75 2.79
9.5179996 2.753 2.7720001
9.5089998 2.7579999 2.7509999
9.5170002 2.753 2.7360001
9.5050001 2.76 2.714
9.526 2.7490001 2.704
9.5089998 2.7579999 2.681
9.5179996 2.7539999 2.6659999
9.5179996 2.753 2.6489999
9.5089998 2.7590001 2.6289999
9.5089998 2.7590001 2.6110001
9.5170002 2.7539999 2.5969999
9.5170002 2.7550001 2.579
9.5129995 2.757 2.5610001
9.5080004 2.76 2.5420001
9.5159998 2.756 2.527
9.1090002 3.0020001 0.69300002
9.1140003 3 0.67799997
9.0869999 3.0150001 0.66000003
9.0670004 3.027 0.64300001
9.0469999 3.0380001 0.62599999
9.0410004 3.0420001 0.611
9.026 3.05 0.59399998
9.0039997 3.063 0.57700002
8.9770002 3.0780001 0.56
8.9750004 3.0799999 0.54500002
8.9820004 3.076 0.52999997
8.9700003 3.0829999 0.514
8.9490004 3.095 0.498
8.9309998 3.1059999 0.48199999
8.9239998 3.1099999 0.46599999
8.9130001 3.1159999 0.45100001
8.8999996 3.1240001 0.435
8.8780003 3.1370001 0.419
8.8940001 3.1270001 0.405
8.8559999 3.1489999 0.38800001
8.8610001 3.1470001 0.373
8.8660002 3.1440001 0.359
8.8610001 3.1470001 0.34400001
8.8719997 3.141 0.33000001
8.8640003 3.1459999 0.315
8.8599997 3.148 0.30000001
8.8730001 3.1400001 0.28600001
8.8570004 3.1500001 0.27000001
8.8570004 3.1500001 0.25600001
8.8620005 3.1470001 0.241
8.8710003 3.142 0.227
8.8719997 3.142 0.212
8.8760004 3.1389999 0.197
8.8809996 3.1370001 0.183
8.882 3.1359999 0.168
8.8839998 3.135 0.153
8.8999996 3.1259999 0.139
8.8870001 3.1340001 0.124
9.5450001 2.7579999 0.075000003
9.5430002 2.7590001 0.059
9.5469999 2.757 0.043000001
9.5469999 2.757 0.026000001
9.5559998 2.7520001 0.0099999998
9.5959997 2.7260001 2.9030001
9.5319996 2.7620001 2.862
9.5389996 2.7590001 2.8469999
9.5290003 2.7639999 2.826
9.5249996 2.767 2.8069999
9.5299997 2.7639999 2.7909999
9.5340004 2.7620001 2.7750001
9.5299997 2.7639999 2.756
9.5249996 2.7679999 2.7360001
9.5170002 2.7720001 2.7160001
9.5299997 2.7650001 2.7030001
9.5050001 2.78 2.677
9.5170002 2.773 2.664
9.5089998 2.7780001 2.6429999
9.5159998 2.7739999 2.628
9.507 2.779 2.608
9.5170002 2.773 2.5940001
9.5089998 2.7780001 2.5739999
9.5089998 2.779 2.5569999
9.5129995 2.776 2.5409999
9.5170002 2.7739999 2.5250001
9.5150003 2.7750001 2.507
9.1280003 3.0090001 0.72500002
9.1400003 3.003 0.71100003
9.1230001 3.0120001 0.69400001
9.0900002 3.0309999 0.67500001
9.0819998 3.036 0.65899998
9.0629997 3.0469999 0.64200002
9.0579996 3.05 0.62699997
9.0419998 3.059 0.61000001
9.0340004 3.0639999 0.59399998
9.0200005 3.072 0.57800001
8.9910002 3.0880001 0.56099999
8.9870005 3.0910001 0.54500002
8.9639997 3.1040001 0.52899998
8.9580002 3.1070001 0.51300001
8.9440002 3.115 0.49700001
8.934 3.1210001 0.48199999
8.9309998 3.1229999 0.46599999
8.9119997 3.1340001 0.44999999
8.9069996 3.1370001 0.435
8.8800001 3.1530001 0.419
8.8959999 3.1440001 0.405
8.8850002 3.1500001 0.389
8.8809996 3.152 0.37400001
8.8859997 3.1489999 0.36000001
8.8870001 3.1489999 0.345
8.8920002 3.1459999 0.331
8.8929996 3.1459999 0.31600001
8.8979998 3.1429999 0.301
8.8889999 3.148 0.28600001
8.9029999 3.1400001 0.27200001
8.8970003 3.1440001 0.257
8.901 3.142 0.242
8.8940001 3.1459999 0.227
8.9090004 3.1370001 0.213
8.908 3.138 0.198
8.9189997 3.132 0.184
8.9139996 3.135 0.169
9.54 2.779 0.107
9.5380001 2.78 0.090999998
9.5369997 2.7809999 0.075000003
9.5459995 2.776 0.059
9.5459995 2.776 0.043000001
9.5290003 2.786 0.026000001
9.5459995 2.776 0.0099999998
9.6099997 2.737 2.8870001
9.5290003 2.783 2.8399999
9.5290003 2.783 2.823
9.5159998 2.7909999 2.8010001
9.5200005 2.7880001 2.7850001
9.5290003 2.7839999 2.77
9.5380001 2.779 2.756
9.5209999 2.789 2.7320001
9.5209999 2.789 2.7149999
9.5340004 2.7820001 2.7019999
9.5129995 2.7939999 2.677
9.5129995 2.7939999 2.6600001
9.5129995 2.7939999 2.642
9.5039997 2.799 2.622
9.5159998 2.7920001 2.609
9.5059996 2.7980001 2.5880001
9.5209999 2.79 2.575
9.5220003 2.79 2.5580001
9.5120001 2.7950001 2.5380001
9.5120001 2.7950001 2.5209999
9.5139999 2.7939999 2.5039999
9.5010004 2.802 2.483
9.1309996 3.0250001 0.755
9.1660004 3.0050001 0.74400002
9.1450005 3.017 0.72600001
9.1239996 3.029 0.70899999
9.1210003 3.0309999 0.69300002
9.092 3.0480001 0.67500001
9.073 3.059 0.65799999
9.0819998 3.0539999 0.64399999
9.052 3.0699999 0.62599999
9.0340004 3.0810001 0.60900003
9.026 3.086 0.59299999
9.0279999 3.085 0.57800001
8.9969997 3.102 0.56099999
8.9870005 3.108 0.54500002
8.9750004 3.115 0.52899998
8.9490004 3.1300001 0.51200002
8.941 3.1340001 0.49700001
8.9399996 3.135 0.48199999
8.9320002 3.1400001 0.46599999
8.9200001 3.1470001 0.44999999
8.9099998 3.152 0.435
8.9169998 3.1489999 0.421
8.9090004 3.1530001 0.405
8.927 3.1429999 0.39199999
8.9230003 3.145 0.37599999
8.9200001 3.1470001 0.361
8.9250002 3.145 0.347
8.9250002 3.1440001 0.33199999
8.9259996 3.1440001 0.317
8.927 3.1440001 0.30199999
8.927 3.1440001 0.28799999
8.9230003 3.1459999 0.273
8.927 3.1440001 0.25799999
8.9370003 3.138 0.244
8.941 3.1359999 0.229
8.9499998 3.131 0.214
8.941 3.1359999 0.199
9.5360003 2.8 0.123
9.5530005 2.79 0.107
9.5489998 2.793 0.090999998
9.5439997 2.7950001 0.075000003
9.5450001 2.7950001 0.059
9.5410004 2.7969999 0.043000001
9.5539999 2.79 0.027000001
9.559 2.7869999 0.011
9.6160002 2.7520001 2.869
9.5310001 2.8010001 2.8210001
9.5319996 2.8010001 2.803
9.5240002 2.8050001 2.783
9.533 2.8 2.7690001
9.5200005 2.8069999 2.747
9.5410004 2.796 2.737
9.5209999 2.8080001 2.7119999
9.5080004 2.8150001 2.6900001
9.5249996 2.8050001 2.6789999
9.5109997 2.8139999 2.6559999
9.5080004 2.8150001 2.638
9.5120001 2.813 2.622
9.5209999 2.8080001 2.608
9.5279999 2.8039999 2.5929999
9.5290003 2.8039999 2.576
9.5200005 2.809 2.5550001
9.5279999 2.8039999 2.5409999
9.5159998 2.812 2.5190001
9.5279999 2.8050001 2.506
9.5150003 2.812 2.4849999
9.5170002 2.812 2.4679999
9.198 3.0039999 0.79299998
9.1879997 3.01 0.77600002
9.1420002 3.036 0.75599998
9.1350002 3.04 0.74000001
9.1230001 3.0469999 0.72299999
9.1230001 3.0469999 0.708
9.0979996 3.062 0.69
9.0810003 3.0710001 0.67299998
9.0860004 3.0680001 0.65899998
9.0629997 3.082 0.64099997
9.0469999 3.0910001 0.625
9.0439997 3.0929999 0.60900003
9.0200005 3.1059999 0.59200001
9.0139999 3.109 0.57700002
8.9960003 3.1199999 0.56
8.9840002 3.1270001 0.54400003
8.974 3.1329999 0.528
8.9630003 3.1389999 0.51300001
8.9569998 3.142 0.49700001
8.9429998 3.151 0.48100001
8.9540005 3.1440001 0.46700001
8.9490004 3.1470001 0.45199999
8.9320002 3.1570001 0.43599999
8.9329996 3.1570001 0.421
8.9549999 3.1440001 0.40799999
8.9429998 3.151 0.39199999
8.9440002 3.151 0.377
8.9530001 3.1459999 0.36300001
8.9449997 3.1500001 0.34799999
8.9569998 3.1440001 0.333
8.9580002 3.1429999 0.31900001
8.9510002 3.1470001 0.303
8.9610004 3.142 0.289
8.9680004 3.138 0.27399999
8.9700003 3.1370001 0.25999999
8.9870005 3.1270001 0.245
8.9770002 3.1329999 0.23
9.5369997 2.8169999 0.139
9.5690002 2.799 0.123
9.5340004 2.819 0.107
9.5389996 2.816 0.090999998
9.5439997 2.8139999 0.075000003
9.5439997 2.8139999 0.059
9.5530005 2.809 0.043000001
9.5530005 2.809 0.027000001
9.5579996 2.8069999 0.011
9.5869999 2.7880001 2.8380001
9.5539999 2.8069999 2.809
9.5299997 2.8199999 2.7820001
9.5279999 2.8210001 2.7639999
9.5159998 2.829 2.743
9.5200005 2.826 2.727
9.5240002 2.8239999 2.711
9.5120001 2.8310001 2.6889999
9.5290003 2.822 2.677
9.5200005 2.8269999 2.6570001
9.5139999 2.8299999 2.638
9.5039997 2.836 2.6170001
9.5030003 2.8369999 2.599
9.5120001 2.832 2.585
9.5089998 2.8340001 2.5669999
9.5200005 2.8280001 2.553
9.5179996 2.829 2.5350001
9.5109997 2.8329999 2.5150001
9.5030003 2.8369999 2.4960001
9.5229998 2.826 2.4849999
9.5190001 2.829 2.4660001
9.5050001 2.8369999 2.4449999
9.2399998 2.9979999 0.84299999
9.2489996 2.993 0.829
9.2110004 3.0150001 0.80900002
9.1850004 3.029 0.79100001
9.1759996 3.0350001 0.77399999
9.1610003 3.043 0.75700003
9.1330004 3.059 0.73900002
9.1269999 3.062 0.72299999
9.1149998 3.069 0.70599997
9.1079998 3.073 0.69099998
9.0950003 3.0810001 0.67400002
9.0780001 3.0899999 0.65700001
9.0620003 3.0999999 0.64099997
9.0480003 3.1070001 0.62400001
9.0410004 3.112 0.60799998
9.0249996 3.1210001 0.59200001
9.0220003 3.1229999 0.57700002
9.0010004 3.1340001 0.56
8.9890003 3.141 0.54400003
8.9790001 3.1470001 0.528
8.9750004 3.1489999 0.51300001
8.974 3.1500001 0.498
8.9720001 3.151 0.48300001
8.9799995 3.1470001 0.46900001
8.9770002 3.1489999 0.45300001
8.9820004 3.1459999 0.43900001
8.9870005 3.1429999 0.42399999
8.9759998 3.1500001 0.40900001
8.9840002 3.145 0.39399999
8.9809999 3.1470001 0.37900001
9.0089998 3.131 0.366
8.9860001 3.1440001 0.34999999
8.9960003 3.1389999 0.33500001
8.9919996 3.141 0.31999999
9.0059996 3.1329999 0.30599999
8.9980001 3.138 0.28999999
9.0050001 3.1340001 0.27599999
9.0220003 3.125 0.26199999
9.3590002 2.9360001 0.244
9.5469999 2.8310001 0.155
9.5419998 2.8329999 0.139
9.5509996 2.8280001 0.123
9.5559998 2.826 0.107
9.5430002 2.8329999 0.090999998
9.552 2.8280001 0.075000003
9.5559998 2.826 0.059
9.5430002 2.8329999 0.043000001
9.5609999 2.823 0.027000001
9.559 2.825 0.011
9.5930004 2.803 2.8199999
9.5380001 2.8340001 2.783
9.5439997 2.8310001 2.767
9.5279999 2.8399999 2.744
9.5319996 2.8380001 2.7279999
9.5240002 2.8429999 2.7079999
9.5200005 2.845 2.6889999
9.5200005 2.845 2.6719999
9.5240002 2.8429999 2.6559999
9.5109997 2.8499999 2.6340001
9.5319996 2.839 2.6240001
9.5129995 2.8499999 2.5999999
9.5150003 2.848 2.5840001
9.5190001 2.846 2.5680001
9.5229998 2.8440001 2.552
9.5200005 2.846 2.533
9.5229998 2.845 2.517
9.5229998 2.845 2.5
9.5150003 2.8499999 2.48
9.5270004 2.8429999 2.4660001
9.5059996 2.855 2.4430001
9.5039997 2.8559999 2.425
9.2370005 3.017 0.87300003
9.2469997 3.0120001 0.85900003
9.2460003 3.0120001 0.84299999
9.2139997 3.0309999 0.824
9.2089996 3.033 0.80800003
9.1789999 3.05 0.78899997
9.1750002 3.052 0.773
9.1569996 3.063 0.75599998
9.151 3.066 0.74000001
9.1309996 3.0769999 0.72299999
9.1079998 3.0910001 0.70499998
9.099 3.096 0.68900001
9.0909996 3.1010001 0.67299998
9.0880003 3.102 0.65799999
9.059 3.119 0.63999999
9.0509996 3.1229999 0.62400001
9.0229998 3.1389999 0.60600001
9.026 3.138 0.59200001
9.0190001 3.142 0.57599998
9.0059996 3.1489999 0.56
9.0010004 3.152 0.54500002
9.0059996 3.1489999 0.52999997
9.007 3.1489999 0.51499999
9.0039997 3.151 0.5
9.0039997 3.151 0.48500001
9.0010004 3.1530001 0.47
9.0059996 3.1500001 0.45500001
9.007 3.1489999 0.44
9.0080004 3.1489999 0.42500001
9.0220003 3.141 0.41100001
9.0179996 3.1440001 0.396
9.0229998 3.141 0.38100001
9.0319996 3.1359999 0.36700001
9.0310001 3.1359999 0.352
9.0279999 3.1389999 0.33700001
9.0299997 3.1370001 0.322
9.0380001 3.1329999 0.30700001
9.3920002 2.9349999 0.245
9.5469999 2.849 0.171
9.5539999 2.845 0.155
9.5500002 2.8469999 0.139
9.5539999 2.845 0.123
9.5500002 2.8469999 0.107
9.5469999 2.849 0.090999998
9.5389996 2.8540001 0.075000003
9.5349998 2.8559999 0.059
9.5559998 2.845 0.043000001
9.5740004 2.8340001 0.027000001
9.5480003 2.849 0.011
9.5889997 2.8239999 2.7980001
9.5480003 2.8469999 2.766
9.5360003 2.8540001 2.744
9.5190001 2.8640001 2.721
9.5229998 2.8610001 2.7049999
9.5319996 2.8570001 2.691
9.5319996 2.8570001 2.6730001
9.5279999 2.859 2.654
9.5279999 2.8599999 2.6370001
9.5039997 2.8729999 2.612
9.5109997 2.869 2.5969999
9.5109997 2.869 2.5799999
9.5290003 2.859 2.5680001
9.5310001 2.858 2.552
9.5150003 2.8670001 2.529
9.526 2.8610001 2.5150001
9.5129995 2.869 2.494
9.5190001 2.8659999 2.4790001
9.5139999 2.868 2.46
9.5100002 2.8710001 2.4419999
9.5220003 2.8640001 2.428
9.5100002 2.8710001 2.4070001
9.2740002 3.0139999 0.90799999
9.2939997 3.003 0.89499998
9.2629995 3.02 0.87599999
9.2320004 3.0380001 0.85600001
9.217 3.046 0.83899999
9.2159996 3.0469999 0.824
9.1870003 3.063 0.80500001
9.1820002 3.066 0.78899997
9.1630001 3.0769999 0.77100003
9.1560001 3.0810001 0.755
9.1470003 3.086 0.73900002
9.1269999 3.098 0.722
9.1199999 3.1010001 0.70599997
9.1040001 3.1099999 0.68900001
9.092 3.1170001 0.67299998
9.0769997 3.125 0.65600002
9.0509996 3.1400001 0.639
9.0649996 3.1329999 0.625
9.0480003 3.142 0.60799998
9.0340004 3.1500001 0.59200001
9.026 3.155 0.57599998
9.0369997 3.148 0.56199998
9.0299997 3.1530001 0.546
9.026 3.155 0.53100002
9.0270004 3.154 0.51599997
9.0319996 3.151 0.50199997
9.0290003 3.154 0.486
9.0389996 3.148 0.472
9.0319996 3.152 0.456
9.0489998 3.1429999 0.44299999
9.0550003 3.1389999 0.428
9.0489998 3.1429999 0.412
9.0609999 3.1359999 0.398
9.0570002 3.138 0.38299999
9.0530005 3.141 0.368
9.0629997 3.135 0.35299999
9.066 3.1340001 0.338
9.4569998 2.9170001 0.24699999
9.5629997 2.858 0.18700001
9.5489998 2.8659999 0.171
9.5489998 2.8659999 0.155
9.5450001 2.868 0.139
9.5500002 2.8659999 0.123
9.5550003 2.8629999 0.107
9.5459995 2.868 0.090999998
9.559 2.8610001 0.075000003
9.5559998 2.8629999 0.059
9.5500002 2.8659999 0.043000001
9.5340004 2.875 0.027000001
9.552 2.8659999 0.011
9.5500002 2.865 2.747
9.5229998 2.8800001 2.72
9.5349998 2.8729999 2.707
9.5229998 2.8800001 2.6849999
9.5150003 2.885 2.665
9.5270004 2.878 2.652
9.5319996 2.8759999 2.6359999
9.5270004 2.8789999 2.6170001
9.5310001 2.8770001 2.6010001
9.5319996 2.8759999 2.5840001
9.5229998 2.882 2.5639999
9.5310001 2.8770001 2.549
9.5349998 2.875 2.533
9.5190001 2.8840001 2.5109999
9.5310001 2.8770001 2.4979999
9.5220003 2.882 2.4779999
9.5299997 2.878 2.4630001
9.5129995 2.888 2.4400001
9.5209999 2.8829999 2.4260001
9.5209999 2.8840001 2.4089999
9.5100002 2.8900001 2.388
9.3240004 3.0039999 0.96100003
9.3400002 2.9949999 0.94700003
9.3120003 3.0109999 0.92799997
9.29 3.0239999 0.90899998
9.2729998 3.033 0.89200002
9.2460003 3.0480001 0.87300003
9.2419996 3.05 0.85699999
9.2270002 3.059 0.83899999
9.2110004 3.0680001 0.82200003
9.1990004 3.075 0.80500001
9.1859999 3.082 0.78899997
9.1800003 3.085 0.773
9.1560001 3.099 0.755
9.1459999 3.1040001 0.73799998
9.1300001 3.1140001 0.72100002
9.1059999 3.1270001 0.704
9.1009998 3.1300001 0.68800002
9.0909996 3.1359999 0.67199999
9.0699997 3.1470001 0.65499997
9.0710001 3.1470001 0.63999999
9.0620003 3.152 0.62400001
9.0600004 3.1530001 0.60900003
9.0570002 3.155 0.59299999
9.0539999 3.1570001 0.57800001
9.059 3.154 0.56300002
9.073 3.1459999 0.54900002
9.0780001 3.1429999 0.53500003
9.0620003 3.1530001 0.51800001
9.0670004 3.1500001 0.50400001
9.0810003 3.142 0.49000001
9.073 3.1470001 0.47400001
9.0889997 3.138 0.46000001
9.0790005 3.1440001 0.44400001
9.0839996 3.141 0.42899999
9.0979996 3.1329999 0.41499999
9.0839996 3.141 0.39899999
9.0930004 3.1359999 0.38499999
9.0760002 3.1459999 0.36899999
9.4890003 2.9170001 0.248
9.5629997 2.8759999 0.219
9.5539999 2.881 0.20299999
9.5559998 2.8800001 0.18700001
9.5310001 2.895 0.17
9.5480003 2.885 0.155
9.5530005 2.882 0.139
9.5450001 2.8870001 0.123
9.5539999 2.882 0.107
9.5500002 2.885 0.090999998
9.5550003 2.882 0.075000003
9.5550003 2.882 0.059
9.5509996 2.885 0.043000001
9.5459995 2.8870001 0.027000001
9.5509996 2.885 0.011
9.5600004 2.878 2.73
9.5349998 2.892 2.704
9.5270004 2.8970001 2.684
9.5270004 2.8970001 2.6659999
9.5480003 2.885 2.6559999
9.5229998 2.9000001 2.6300001
9.5310001 2.895 2.6159999
9.5220003 2.9000001 2.596
9.5369997 2.892 2.5829999
9.5349998 2.8929999 2.5650001
9.5229998 2.9000001 2.5439999
9.5229998 2.9000001 2.527
9.5310001 2.8959999 2.5120001
9.5179996 2.9030001 2.4909999
9.5279999 2.8970001 2.477
9.5170002 2.904 2.4560001
9.5170002 2.904 2.4389999
9.5249996 2.9000001 2.425
9.5240002 2.9000001 2.4070001
9.5159998 2.905 2.388
9.5270004 2.8989999 2.3740001
9.3520002 3.006 0.995
9.3389997 3.013 0.97799999
9.3400002 3.013 0.96200001
9.3030005 3.033 0.94099998
9.2869997 3.0420001 0.92400002
9.2799997 3.046 0.90700001
9.2720003 3.05 0.89099997
9.2620001 3.0569999 0.87400001
9.2349997 3.072 0.85500002
9.2200003 3.0799999 0.838
9.21 3.086 0.82099998
9.2030001 3.0899999 0.80500001
9.1859999 3.099 0.78799999
9.1739998 3.1059999 0.77100003
9.1560001 3.1159999 0.75400001
9.1379995 3.1259999 0.73699999
9.1309996 3.1300001 0.72100002
9.1199999 3.1359999 0.70499998
9.1059999 3.145 0.68800002
9.0979996 3.1489999 0.67199999
9.0950003 3.151 0.65700001
9.0900002 3.154 0.64099997
9.0930004 3.152 0.62599999
9.0939999 3.152 0.611
9.099 3.1489999 0.59600002
9.1000004 3.148 0.58099997
9.0880003 3.155 0.565
9.1059999 3.145 0.55199999
9.0970001 3.1500001 0.53600001
9.1000004 3.1489999 0.52100003
9.1049995 3.1459999 0.50599998
9.1120005 3.142 0.491
9.1070004 3.145 0.47600001
9.1120005 3.1429999 0.461
9.1199999 3.138 0.44600001
9.1160002 3.1400001 0.43099999
9.1049995 3.1470001 0.41499999
9.5439997 2.905 0.25
9.5480003 2.9030001 0.234
9.566 2.8929999 0.219
9.5430002 2.9059999 0.20200001
9.5509996 2.901 0.18700001
9.5380001 2.908 0.17
9.552 2.901 0.155
9.5480003 2.9030001 0.139
9.5570002 2.8989999 0.123
9.5480003 2.9030001 0.107
9.5620003 2.8959999 0.090999998
9.5530005 2.901 0.075000003
9.5579996 2.898 0.059
9.5489998 2.9030001 0.043000001
9.5500002 2.9030001 0.027000001
9.5500002 2.9030001 0.011
9.5570002 2.898 2.7090001
9.533 2.9119999 2.6830001
9.5179996 2.9200001 2.661
9.526 2.9159999 2.6459999
9.526 2.9159999 2.6289999
9.526 2.9159999 2.612
9.5340004 2.9119999 2.5969999
9.5100002 2.925 2.572
9.5310001 2.914 2.5610001
9.5299997 2.914 2.5439999
9.5299997 2.914 2.527
9.5299997 2.915 2.51
9.5150003 2.9230001 2.4879999
9.5129995 2.924 2.47
9.5209999 2.9200001 2.4549999
9.5249996 2.918 2.4389999
9.5159998 2.9230001 2.4200001
9.5240002 2.9189999 2.405
9.5190001 2.921 2.3870001
9.5190001 2.9219999 2.369
9.5270004 2.9170001 2.355
9.375 3.0109999 1.029
9.3549995 3.0220001 1.01
9.3599997 3.0190001 0.995
9.3319998 3.0350001 0.97600001
9.3219995 3.04 0.95899999
9.3100004 3.0469999 0.94099998
9.2930002 3.056 0.92400002
9.2779999 3.0650001 0.90600002
9.2749996 3.0669999 0.88999999
9.2580004 3.076 0.87300003
9.2410002 3.086 0.85500002
9.2320004 3.0910001 0.83899999
9.2130003 3.1010001 0.82099998
9.2060003 3.105 0.80500001
9.1829996 3.118 0.787
9.1709995 3.125 0.76999998
9.1479998 3.138 0.75300002
9.1470003 3.138 0.73699999
9.1490002 3.1370001 0.722
9.1219997 3.152 0.704
9.1190004 3.154 0.68900001
9.118 3.154 0.67299998
9.1239996 3.152 0.65899998
9.1160002 3.1559999 0.64300001
9.1169996 3.155 0.62800002
9.1269999 3.1500001 0.61299998
9.1219997 3.1530001 0.59799999
9.1300001 3.1489999 0.583
9.1300001 3.1489999 0.56800002
9.1309996 3.148 0.55299997
9.1359997 3.145 0.53799999
9.1289997 3.1500001 0.52200001
9.1450005 3.141 0.50800002
9.1389999 3.1440001 0.493
9.1490002 3.1389999 0.47799999
9.158 3.135 0.46399999
9.1499996 3.1389999 0.44800001
9.5509996 2.918 0.458
9.5640001 2.911 0.44299999
9.5559998 2.915 0.426
9.5489998 2.9189999 0.41
9.5430002 2.9230001 0.39399999
9.5509996 2.918 0.37799999
9.552 2.918 0.36199999
9.5539999 2.9170001 0.34599999
9.5500002 2.9189999 0.33000001
9.5430002 2.924 0.31400001
9.5489998 2.9200001 0.29800001
9.5609999 2.9130001 0.28299999
9.5670004 2.9100001 0.26699999
9.5769997 2.905 0.25099999
9.566 2.911 0.235
9.5579996 2.9159999 0.219
9.5500002 2.9200001 0.20200001
9.5629997 2.9130001 0.18700001
9.5550003 2.918 0.171
9.5509996 2.9200001 0.155
9.5419998 2.925 0.138
9.5690002 2.9100001 0.123
9.5559998 2.9170001 0.107
9.5609999 2.915 0.090999998
9.5649996 2.9119999 0.075000003
9.5480003 2.9219999 0.059
9.5570002 2.9170001 0.043000001
9.5640001 2.9130001 0.027000001
9.5570002 2.9170001 0.011
9.5769997 2.905 2.6960001
9.5279999 2.9330001 2.6619999
9.5340004 2.9289999 2.6459999
9.5380001 2.927 2.631
9.5179996 2.9389999 2.6070001
9.526 2.934 2.592
9.526 2.934 2.575
9.5209999 2.937 2.556
9.5340004 2.9300001 2.543
9.5360003 2.9289999 2.527
9.5380001 2.928 2.51
9.5249996 2.9360001 2.4890001
9.5240002 2.9360001 2.471
9.5369997 2.9289999 2.4579999
9.5319996 2.9319999 2.4400001
9.5319996 2.9319999 2.4219999
9.5270004 2.9349999 2.404
9.5220003 2.937 2.385
9.5179996 2.9400001 2.3670001
9.5209999 2.938 2.3510001
9.5240002 2.937 2.335
9.5100002 2.9449999 2.3139999
9.3920002 3.0190001 1.062
9.4060001 3.0109999 1.048
9.3760004 3.0280001 1.028
9.3710003 3.0309999 1.012
9.3450003 3.0450001 0.99199998
9.3269997 3.0550001 0.97399998
9.3170004 3.0610001 0.95700002
9.3140001 3.063 0.94099998
9.2969999 3.072 0.92299998
9.2770004 3.0829999 0.90499997
9.2530003 3.096 0.88700002
9.2589998 3.0929999 0.87199998
9.2440004 3.102 0.85500002
9.2370005 3.1059999 0.838
9.2159996 3.1170001 0.82099998
9.191 3.131 0.80199999
9.1739998 3.1400001 0.78500003
9.1759996 3.1400001 0.76999998
9.1619997 3.1470001 0.75300002
9.1590004 3.1489999 0.73799998
9.1490002 3.155 0.72100002
9.1529999 3.1530001 0.70700002
9.1499996 3.154 0.69099998
9.151 3.154 0.676
9.1610003 3.1489999 0.662
9.1569996 3.1500001 0.64600003
9.1540003 3.152 0.63
9.1470003 3.1559999 0.61500001
9.1590004 3.1500001 0.60000002
9.1569996 3.151 0.58499998
9.1709995 3.1429999 0.57099998
9.1709995 3.1440001 0.55599999
9.1590004 3.1500001 0.53899997
9.1789999 3.1400001 0.52600002
9.184 3.1370001 0.51099998
9.1890001 3.1340001 0.49599999
9.2080002 3.1240001 0.48199999
9.5539999 2.934 0.49000001
9.5640001 2.9289999 0.47400001
9.5649996 2.928 0.45899999
9.5609999 2.9300001 0.442
9.5489998 2.937 0.426
9.5539999 2.934 0.41
9.5550003 2.934 0.39399999
9.5469999 2.9389999 0.37799999
9.5559998 2.934 0.36199999
9.5480003 2.938 0.34599999
9.5570002 2.9330001 0.33000001
9.5620003 2.9300001 0.31400001
9.5629997 2.9300001 0.29899999
9.5719995 2.925 0.28299999
9.5749998 2.924 0.26699999
9.5570002 2.934 0.25
9.5430002 2.941 0.234
9.5480003 2.9389999 0.21799999
9.5480003 2.9389999 0.20200001
9.5530005 2.937 0.186
9.5489998 2.9389999 0.17
9.5129995 2.9590001 0.154
9.5249996 2.9530001 0.138
9.559 2.934 0.123
9.5380001 2.9460001 0.106
9.5600004 2.934 0.090999998
9.5640001 2.931 0.075000003
9.5649996 2.931 0.059
9.5559998 2.9360001 0.043000001
9.5649996 2.931 0.027000001
9.5609999 2.934 0.011
9.5769997 2.9230001 2.6760001
9.5290003 2.95 2.642
9.5369997 2.9460001 2.628
9.5369997 2.9460001 2.6110001
9.5209999 2.9549999 2.5880001
9.533 2.948 2.575
9.533 2.948 2.5580001
9.5240002 2.9530001 2.5380001
9.533 2.9489999 2.523
9.5240002 2.954 2.503
9.5319996 2.95 2.4890001
9.5279999 2.9519999 2.47
9.5229998 2.9549999 2.4519999
9.54 2.9460001 2.4400001
9.5220003 2.9549999 2.4170001
9.526 2.9530001 2.401
9.5220003 2.9560001 2.3829999
9.5200005 2.957 2.365
9.5240002 2.9549999 2.3499999
9.5170002 2.9590001 2.3299999
9.54 2.947 2.3199999
9.5349998 2.9489999 2.302
9.5310001 2.9579999 1.34
9.5249996 2.9619999 1.322
9.5380001 2.9549999 1.308
9.526 2.9619999 1.29
9.533 2.9579999 1.275
9.5310001 2.9590001 1.258
9.5200005 2.9649999 1.24
9.54 2.954 1.227
9.533 2.9579999 1.21
9.54 2.9549999 1.1950001
9.5419998 2.954 1.179
9.5360003 2.957 1.1619999
9.5179996 2.967 1.143
9.5439997 2.9530001 1.131
9.54 2.9549999 1.114
9.427 3.017 1.082
9.4090004 3.027 1.063
9.3940001 3.0350001 1.045
9.3660002 3.0510001 1.026
9.3620005 3.053 1.0089999
9.3470001 3.0610001 0.99199998
9.335 3.0680001 0.97399998
9.3100004 3.082 0.95499998
9.3079996 3.0829999 0.94
9.2969999 3.089 0.92299998
9.2810001 3.098 0.90499997
9.2860003 3.096 0.88999999
9.2600002 3.1099999 0.87099999
9.2370005 3.122 0.85299999
9.2349997 3.1240001 0.838
9.2130003 3.1359999 0.81999999
9.2019997 3.142 0.80299997
9.184 3.152 0.78600001
9.1820002 3.1530001 0.76999998
9.1820002 3.1530001 0.755
9.1820002 3.1530001 0.73900002
9.1940002 3.1470001 0.72500002
9.1730003 3.158 0.708
9.1829996 3.1530001 0.69400001
9.184 3.152 0.67799997
9.1899996 3.1500001 0.66399997
9.1789999 3.1559999 0.64700001
9.1960001 3.1459999 0.634
9.1890001 3.1500001 0.61799997
9.1879997 3.151 0.602
9.1990004 3.145 0.588
9.2049999 3.142 0.57300001
9.2279997 3.1289999 0.56
9.2110004 3.1389999 0.54299998
9.2119999 3.138 0.528
9.5500002 2.9530001 0.537
9.5559998 2.951 0.52200001
9.5559998 2.95 0.50599998
9.5439997 2.957 0.48899999
9.5670004 2.9449999 0.47400001
9.559 2.9489999 0.458
9.5640001 2.947 0.442
9.5559998 2.951 0.426
9.5620003 2.948 0.41
9.5579996 2.951 0.39399999
9.5539999 2.9530001 0.37799999
9.5640001 2.948 0.36199999
9.5509996 2.9549999 0.34599999
9.5649996 2.947 0.33000001
9.5570002 2.9519999 0.31400001
9.5570002 2.951 0.29800001
9.5649996 2.947 0.28200001
9.559 2.951 0.266
9.5459995 2.9579999 0.25
9.5509996 2.9549999 0.234
9.5509996 2.9549999 0.21799999
9.5559998 2.9530001 0.20200001
9.552 2.9549999 0.186
9.5570002 2.9530001 0.171
9.5349998 2.964 0.154
9.54 2.9619999 0.138
9.5609999 2.951 0.123
9.5670004 2.947 0.107
9.5629997 2.95 0.090999998
9.559 2.9519999 0.075000003
9.5719995 2.9449999 0.059
9.5640001 2.95 0.043000001
9.5550003 2.954 0.027000001
9.5600004 2.9519999 0.011
9.5690002 2.9460001 2.6530001
9.5389996 2.9630001 2.6259999
9.5369997 2.964 2.608
9.5200005 2.973 2.585
9.5319996 2.967 2.572
9.5450001 2.96 2.559
9.5360003 2.9649999 2.539
9.5299997 2.9679999 2.52
9.5319996 2.9679999 2.503
9.5310001 2.9679999 2.4860001
9.5349998 2.9660001 2.47
9.526 2.971 2.45
9.5389996 2.964 2.437
9.526 2.971 2.4159999
9.5249996 2.9719999 2.3989999
9.533 2.967 2.3840001
9.5279999 2.971 2.3659999
9.5190001 2.9760001 2.346
9.5179996 2.9760001 2.329
9.526 2.9719999 2.3139999
9.5200005 2.9749999 2.296
9.5120001 2.98 2.276
9.5480003 2.964 1.801
9.54 2.9690001 1.749
9.5539999 2.961 1.72
9.5579996 2.9590001 1.704
9.54 2.9690001 1.683
9.5550003 2.961 1.67
9.5360003 2.971 1.65
9.5229998 2.9790001 1.63
9.5249996 2.9779999 1.615
9.5539999 2.9619999 1.604
9.5319996 2.974 1.5829999
9.5249996 2.9779999 1.5650001
9.5159998 2.983 1.5470001
9.5360003 2.9719999 1.535
9.5389996 2.971 1.5190001
9.5410004 2.97 1.503
9.5299997 2.9760001 1.485
9.5469999 2.967 1.472
9.54 2.97 1.454
9.5469999 2.967 1.439
9.5349998 2.974 1.42
9.5500002 2.9660001 1.4069999
9.54 2.971 1.3890001
9.5389996 2.9719999 1.372
9.5450001 2.9679999 1.357
9.5469999 2.9679999 1.341
9.5469999 2.9679999 1.325
9.5450001 2.9690001 1.308
9.5290003 2.9779999 1.289
9.5439997 2.97 1.276
9.5419998 2.971 1.2589999
9.5480003 2.9679999 1.244
9.5459995 2.9690001 1.227
9.5430002 2.97 1.211
9.5369997 2.974 1.193
9.5430002 2.971 1.178
9.5539999 2.9649999 1.164
9.5509996 2.967 1.147
9.4969997 2.9960001 1.123
9.4399996 3.0280001 1.099
9.4230003 3.0369999 1.08
9.4090004 3.0450001 1.062
9.3920002 3.0539999 1.044
9.3760004 3.063 1.026
9.3620005 3.0710001 1.0089999
9.3540001 3.075 0.99199998
9.3389997 3.0840001 0.97399998
9.3310003 3.0880001 0.95700002
9.3109999 3.099 0.93900001
9.2959995 3.1070001 0.92199999
9.2880001 3.112 0.90499997
9.2700005 3.122 0.88700002
9.2580004 3.128 0.87
9.2460003 3.135 0.85399997
9.2399998 3.138 0.83700001
9.2180004 3.151 0.81900001
9.2080002 3.1559999 0.80299997
9.2180004 3.151 0.78899997
9.2189999 3.1500001 0.773
9.2159996 3.152 0.75800002
9.217 3.151 0.74199998
9.2229996 3.148 0.72799999
9.2200003 3.1500001 0.71200001
9.21 3.155 0.69599998
9.2180004 3.152 0.68099999
9.2250004 3.148 0.66600001
9.2290001 3.1459999 0.65100002
9.217 3.152 0.63499999
9.2399998 3.1400001 0.62199998
9.2299995 3.145 0.60500002
9.2419996 3.1389999 0.59100002
9.2650003 3.1270001 0.57800001
9.2869997 3.115 0.56400001
9.5509996 2.971 0.56900001
9.5439997 2.9749999 0.55199999
9.54 2.977 0.53600001
9.5539999 2.9690001 0.52100003
9.5550003 2.9690001 0.505
9.552 2.971 0.48899999
9.5570002 2.9679999 0.47299999
9.5579996 2.9679999 0.45699999
9.5539999 2.97 0.44100001
9.5550003 2.97 0.42500001
9.573 2.96 0.41
9.5570002 2.9690001 0.39300001
9.5530005 2.971 0.377
9.5620003 2.9660001 0.36199999
9.5539999 2.971 0.34599999
9.559 2.9679999 0.33000001
9.5640001 2.9649999 0.31400001
9.5559998 2.97 0.29800001
9.5609999 2.967 0.28200001
9.5570002 2.9690001 0.266
9.5489998 2.974 0.25
9.5489998 2.974 0.234
9.5539999 2.971 0.21799999
9.559 2.9690001 0.20200001
9.5690002 2.964 0.18700001
9.5559998 2.971 0.17
9.552 2.974 0.154
9.5579996 2.97 0.139
9.566 2.9660001 0.123
9.5570002 2.971 0.107
9.5760002 2.961 0.090999998
9.5620003 2.9679999 0.075000003
9.5489998 2.9760001 0.059
9.5620003 2.9679999 0.043000001
9.585 2.957 0.027000001
9.5760002 2.961 0.011
9.573 2.9619999 2.635
9.5450001 2.9779999 2.608
9.5150003 2.994 2.5810001
9.5319996 2.9849999 2.5699999
9.5310001 2.9860001 2.552
9.5349998 2.983 2.536
9.5349998 2.984 2.5190001
9.5310001 2.9860001 2.5009999
9.5389996 2.9820001 2.4860001
9.5340004 2.984 2.4679999
9.5209999 2.9920001 2.447
9.5290003 2.987 2.4319999
9.5290003 2.9879999 2.415
9.533 2.9860001 2.3989999
9.5270004 2.9890001 2.3800001
9.5270004 2.9890001 2.3629999
9.526 2.99 2.346
9.5220003 2.9920001 2.3280001
9.5299997 2.9879999 2.313
9.533 2.9860001 2.2969999
9.5279999 2.9890001 2.279
9.5139999 2.997 2.2579999
9.5430002 2.9809999 2.2490001
9.5129995 2.9979999 2.224
9.5290003 2.9890001 2.2119999
9.526 2.9909999 2.194
9.5209999 2.994 2.1760001
9.5290003 2.9890001 2.161
9.5190001 2.9949999 2.142
9.5220003 2.993 2.1259999
9.5389996 2.984 2.1140001
9.5120001 2.9990001 2.089
9.5249996 2.9920001 2.076
9.5319996 2.9879999 2.0610001
9.5249996 2.9920001 2.043
9.5209999 2.9949999 2.0250001
9.5150003 2.9979999 2.007
9.5319996 2.9890001 1.995
9.5270004 2.9920001 1.977
9.526 2.993 1.96
9.5209999 2.9960001 1.942
9.5349998 2.9879999 1.929
9.5290003 2.9920001 1.911
9.5279999 2.9920001 1.8940001
9.5459995 2.983 1.882
9.5369997 2.987 1.863
9.5600004 2.9749999 1.852
9.5500002 2.9809999 1.8329999
9.5450001 2.983 1.8150001
9.5439997 2.984 1.798
9.5570002 2.977 1.785
9.566 2.973 1.77
9.5459995 2.984 1.749
9.5749998 2.9679999 1.739
9.5620003 2.9749999 1.72
9.5609999 2.9760001 1.7029999
9.559 2.977 1.686
9.5629997 2.9749999 1.67
9.5629997 2.9749999 1.654
9.5640001 2.9749999 1.638
9.5600004 2.977 1.62
9.5559998 2.9790001 1.603
9.5539999 2.98 1.586
9.5600004 2.977 1.571
9.5480003 2.984 1.552
9.54 2.9879999 1.534
9.5570002 2.9790001 1.521
9.5620003 2.9760001 1.506
9.5489998 2.984 1.487
9.5570002 2.9790001 1.472
9.5670004 2.974 1.4579999
9.5360003 2.9909999 1.436
9.5570002 2.98 1.423
9.5579996 2.9790001 1.4069999
9.5559998 2.98 1.39
9.5629997 2.977 1.375
9.5480003 2.9849999 1.3559999
9.5609999 2.9779999 1.342
9.5530005 2.983 1.325
9.5469999 2.9860001 1.308
9.552 2.983 1.2920001
9.552 2.984 1.276
9.552 2.984 1.26
9.5559998 2.9820001 1.244
9.5530005 2.983 1.227
9.5419998 2.9890001 1.209
9.5530005 2.984 1.1950001
9.5459995 2.987 1.178
9.5229998 3 1.158
9.4619999 3.0339999 1.133
9.4530001 3.039 1.115
9.4219999 3.0550001 1.095
9.4189997 3.0569999 1.079
9.3990002 3.0680001 1.0599999
9.3850002 3.076 1.0420001
9.3710003 3.0840001 1.025
9.3660002 3.086 1.008
9.3529997 3.0940001 0.991
9.342 3.0999999 0.97399998
9.342 3.0999999 0.958
9.3039999 3.1210001 0.93699998
9.3030005 3.1210001 0.92199999
9.2790003 3.1340001 0.903
9.2770004 3.1359999 0.88700002
9.2419996 3.155 0.86799997
9.2480001 3.151 0.85299999
9.2340002 3.1589999 0.83600003
9.2580004 3.1459999 0.82300001
9.2410002 3.155 0.80599999
9.243 3.155 0.79100001
9.2440004 3.154 0.77499998
9.2449999 3.154 0.75999999
9.2530003 3.1500001 0.745
9.2480001 3.152 0.73000002
9.2650003 3.1429999 0.71600002
9.2440004 3.155 0.69800001
9.2559996 3.148 0.68400002
9.2709999 3.1400001 0.67000002
9.2539997 3.1500001 0.653
9.2779999 3.1370001 0.63999999
9.2700005 3.141 0.62400001
9.2860003 3.1329999 0.61000001
9.5559998 2.9860001 0.61699998
9.5570002 2.9860001 0.60100001
9.5539999 2.987 0.58399999
9.559 2.9849999 0.56900001
9.5640001 2.9820001 0.55299997
9.5389996 2.9960001 0.53500003
9.5620003 2.983 0.52100003
9.5579996 2.9849999 0.505
9.5369997 2.997 0.48800001
9.5600004 2.9849999 0.47299999
9.5609999 2.984 0.45699999
9.5530005 2.9890001 0.44100001
9.5539999 2.9879999 0.42500001
9.5550003 2.9879999 0.40900001
9.5509996 2.99 0.39300001
9.5609999 2.9849999 0.377
9.5550003 2.9879999 0.361
9.5489998 2.9920001 0.345
9.5629997 2.9849999 0.33000001
9.559 2.987 0.31400001
9.5550003 2.9890001 0.29800001
9.5600004 2.9860001 0.28200001
9.552 2.9909999 0.266
9.566 2.984 0.25
9.5530005 2.9909999 0.234
9.5489998 2.993 0.21799999
9.5579996 2.9879999 0.20200001
9.5480003 2.994 0.186
9.5550003 2.99 0.17
9.5459995 2.9949999 0.154
9.5550003 2.99 0.139
9.5690002 2.983 0.123
9.5649996 2.9849999 0.107
9.5649996 2.9849999 0.090999998
9.5699997 2.983 0.075000003
9.5699997 2.9820001 0.059
9.5740004 2.98 0.043000001
9.5699997 2.9820001 0.027000001
9.5839996 2.9749999 0.012
9.5550003 2.9879999 2.8699999
9.533 3 2.845
9.5299997 3.0020001 2.826
9.5220003 3.007 2.806
9.5209999 3.007 2.7709999
9.526 3.0050001 2.7550001
9.5290003 3.003 2.7219999
9.5170002 3.01 2.7
9.526 3.0050001 2.6860001
9.5229998 3.007 2.668
9.5279999 3.0050001 2.652
9.5340004 3.0020001 2.6370001
9.5290003 3.0039999 2.618
9.592 2.971 2.622
9.5179996 3.0109999 2.5799999
9.5270004 3.006 2.566
9.526 3.006 2.5480001
9.526 3.007 2.5309999
9.5389996 3 2.5179999
9.5380001 3 2.5009999
9.5340004 3.003 2.4820001
9.5340004 3.003 2.4649999
9.533 3.003 2.448
9.533 3.0039999 2.431
9.5270004 3.007 2.4119999
9.5229998 3.0090001 2.3940001
9.5310001 3.0050001 2.3789999
9.5299997 3.006 2.362
9.5170002 3.013 2.3410001
9.5209999 3.0109999 2.325
9.5290003 3.007 2.3110001
9.5319996 3.0050001 2.2950001
9.5319996 3.0050001 2.2780001
9.5349998 3.0039999 2.2620001
9.5419998 3 2.247
9.5489998 2.9960001 2.2320001
9.5310001 3.006 2.21
9.5450001 2.9990001 2.197
9.5360003 3.0039999 2.178
9.5419998 3.0009999 2.1630001
9.5369997 3.0039999 2.145
9.5430002 3 2.1289999
9.5480003 2.9979999 2.1140001
9.5369997 3.0039999 2.0940001
9.5299997 3.0079999 2.076
9.5430002 3.0009999 2.062
9.5480003 2.9979999 2.0469999
9.5450001 3 2.03
9.5469999 2.9990001 2.013
9.5310001 3.0079999 1.993
9.5469999 2.9990001 1.98
9.5530005 2.9960001 1.965
9.5450001 3 1.946
9.552 2.997 1.931
9.552 2.997 1.915
9.5469999 3 1.897
9.5439997 3.0009999 1.88
9.5439997 3.0020001 1.863
9.5480003 3 1.847
9.5570002 2.9949999 1.8329999
9.5509996 2.9979999 1.8150001
9.5500002 2.9990001 1.798
9.5439997 3.0020001 1.78
9.5489998 2.9990001 1.765
9.5380001 3.0050001 1.7460001
9.5439997 3.003 1.7309999
9.5380001 3.006 1.7130001
9.5489998 3 1.699
9.5439997 3.003 1.681
9.5419998 3.0039999 1.664
9.54 3.0050001 1.648
9.552 2.9990001 1.6339999
9.5369997 3.0079999 1.614
9.5480003 3.0020001 1.6
9.5459995 3.003 1.5829999
9.5450001 3.0039999 1.567
9.5340004 3.0090001 1.548
9.5410004 3.006 1.533
9.5480003 3.0020001 1.518
9.5459995 3.003 1.501
9.54 3.007 1.484
9.5419998 3.006 1.4680001
9.5369997 3.0079999 1.451
9.5509996 3.0009999 1.437
9.5489998 3.0020001 1.42
9.5509996 3.0009999 1.405
9.5349998 3.01 1.385
9.5509996 3.0009999 1.372
9.5480003 3.003 1.355
9.5559998 2.9990001 1.34
9.5349998 3.01 1.321
9.5290003 3.0139999 1.303
9.5480003 3.003 1.29
9.5369997 3.0090001 1.272
9.5480003 3.0039999 1.258
9.5410004 3.007 1.2410001
9.5310001 3.013 1.223
9.5450001 3.006 1.209
9.5179996 3.0209999 1.188
9.5 3.03 1.17
9.4799995 3.0409999 1.151
9.4689999 3.0469999 1.133
9.4630003 3.05 1.1160001
9.441 3.063 1.097
9.4300003 3.0680001 1.079
9.401 3.085 1.059
9.3920002 3.089 1.0420001
9.3649998 3.1040001 1.023
9.3620005 3.1059999 1.007
9.3649998 3.1040001 0.991
9.3450003 3.115 0.97299999
9.3149996 3.132 0.954
9.3129997 3.1329999 0.93800002
9.2959995 3.142 0.92000002
9.2810001 3.1500001 0.903
9.2729998 3.155 0.88599998
9.2720003 3.1559999 0.87099999
9.2709999 3.1559999 0.85500002
9.2670002 3.158 0.83899999
9.2740002 3.155 0.824
9.2799997 3.152 0.81
9.2720003 3.1559999 0.79299998
9.2869997 3.148 0.77899998
9.2840004 3.1500001 0.764
9.2810001 3.151 0.74800003
9.283 3.1500001 0.73199999
9.283 3.1500001 0.71700001
9.2980003 3.1429999 0.70300001
9.2939997 3.1440001 0.68699998
9.2910004 3.1459999 0.671
9.3140001 3.1340001 0.65799999
9.3430004 3.119 0.64499998
9.552 3.0050001 0.648
9.5570002 3.003 0.63200003
9.5550003 3.0039999 0.616
9.5649996 3 0.60100001
9.5389996 3.013 0.583
9.5450001 3.0109999 0.56699997
9.5459995 3.01 0.551
9.5469999 3.01 0.53600001
9.5430002 3.0120001 0.51899999
9.566 2.9990001 0.505
9.5629997 3.0009999 0.48899999
9.5500002 3.0079999 0.472
9.5469999 3.01 0.456
9.5609999 3.003 0.44100001
9.54 3.0139999 0.42399999
9.5530005 3.007 0.40900001
9.5760002 2.9949999 0.39399999
9.559 3.0039999 0.377
9.5600004 3.0039999 0.361
9.5559998 3.006 0.345
9.5570002 3.0050001 0.329
9.5620003 3.003 0.31400001
9.5539999 3.007 0.29699999
9.5369997 3.017 0.28099999
9.5500002 3.0090001 0.26499999
9.5469999 3.0120001 0.249
9.5690002 3 0.234
9.5609999 3.0039999 0.21799999
9.5640001 3.003 0.20200001
9.5620003 3.0039999 0.186
9.5559998 3.007 0.17
9.5539999 3.0079999 0.154
9.5670004 3.0009999 0.139
9.5719995 2.9990001 0.123
9.5629997 3.003 0.107
9.5719995 2.9990001 0.090999998
9.5769997 2.9960001 0.075000003
9.5860004 2.9909999 0.059
9.5909996 2.9890001 0.044
9.5690002 3.0009999 0.027000001
9.5509996 3.01 0.011
9.5249996 3.0220001 2.9619999
9.566 3 2.96
9.5279999 3.0209999 2.928
9.5410004 3.0139999 2.915
9.5340004 3.017 2.895
9.5459995 3.0109999 2.882
9.5349998 3.017 2.8599999
9.54 3.0150001 2.845
9.5500002 3.0090001 2.8310001
9.5430002 3.0139999 2.8110001
9.5310001 3.02 2.789
9.5380001 3.016 2.7739999
9.5450001 3.013 2.7590001
9.5489998 3.01 2.744
9.5380001 3.016 2.7219999
9.5369997 3.017 2.7049999
9.5550003 3.0079999 2.6930001
9.5360003 3.0179999 2.6700001
9.5299997 3.0209999 2.6500001
9.5349998 3.02 2.635
9.5469999 3.013 2.622
9.5559998 3.0079999 2.6070001
9.5600004 3.006 2.592
9.5340004 3.02 2.566
9.5469999 3.0139999 2.553
9.5209999 3.0280001 2.527
9.5380001 3.0190001 2.5150001
9.5459995 3.0139999 2.5009999
9.5369997 3.0190001 2.4809999
9.5369997 3.0190001 2.464
9.5410004 3.017 2.448
9.5310001 3.023 2.428
9.5349998 3.0209999 2.4119999
9.5340004 3.0209999 2.395
9.5299997 3.0239999 2.3770001
9.5039997 3.0380001 2.352
9.533 3.0220001 2.3440001
9.5279999 3.0250001 2.325
9.5279999 3.0250001 2.3080001
9.5310001 3.0239999 2.2920001
9.5349998 3.0220001 2.277
9.5209999 3.029 2.256
9.5290003 3.0250001 2.2409999
9.5410004 3.0190001 2.2279999
9.5279999 3.026 2.207
9.5310001 3.0239999 2.191
9.5389996 3.02 2.177
9.5340004 3.023 2.1589999
9.5369997 3.0209999 2.1429999
9.533 3.0239999 2.125
9.54 3.02 2.1099999
9.5360003 3.023 2.092
9.5469999 3.017 2.0780001
9.5340004 3.0239999 2.0580001
9.5369997 3.0220001 2.0420001
9.54 3.0209999 2.026
9.5349998 3.0239999 2.0079999
9.5290003 3.027 1.99
9.5279999 3.027 1.973
9.54 3.0209999 1.96
9.5299997 3.027 1.941
9.5419998 3.02 1.927
9.5319996 3.026 1.908
9.5349998 3.0239999 1.892
9.5380001 3.023 1.876
9.5539999 3.0139999 1.864
9.5480003 3.017 1.846
9.5380001 3.023 1.827
9.5500002 3.017 1.813
9.5360003 3.0250001 1.793
9.5509996 3.016 1.78
9.5369997 3.0239999 1.761
9.5439997 3.02 1.7460001
9.5380001 3.0239999 1.728
9.5369997 3.0250001 1.711
9.5439997 3.0209999 1.696
9.5340004 3.026 1.678
9.5360003 3.0250001 1.6619999
9.5559998 3.0139999 1.65
9.5419998 3.0220001 1.63
9.5439997 3.0209999 1.614
9.5419998 3.0220001 1.598
9.5450001 3.0209999 1.582
9.5389996 3.0239999 1.564
9.5459995 3.0209999 1.549
9.5480003 3.02 1.533
9.5279999 3.0309999 1.513
9.54 3.0239999 1.499
9.5290003 3.0309999 1.4809999
9.54 3.0250001 1.466
9.5480003 3.0209999 1.452
9.5360003 3.027 1.433
9.5340004 3.0280001 1.416
9.5410004 3.0250001 1.401
9.5570002 3.016 1.388
9.5360003 3.027 1.368
9.5469999 3.0220001 1.354
9.5319996 3.03 1.335
9.5430002 3.0239999 1.321
9.5410004 3.026 1.304
9.5430002 3.0250001 1.288
9.5579996 3.016 1.275
9.5389996 3.027 1.255
9.5450001 3.0239999 1.24
9.5430002 3.0250001 1.224
9.5200005 3.0369999 1.204
9.5089998 3.0439999 1.186
9.4980001 3.05 1.168
9.4809999 3.059 1.15
9.4650002 3.0680001 1.131
9.4510002 3.075 1.113
9.4329996 3.085 1.095
9.4119997 3.096 1.076
9.3999996 3.1029999 1.058
9.4049997 3.0999999 1.043
9.3710003 3.119 1.023
9.3570004 3.1259999 1.005
9.3459997 3.132 0.98799998
9.3509998 3.1300001 0.97299999
9.3179998 3.148 0.95300001
9.3030005 3.1559999 0.93599999
9.3070002 3.154 0.921
9.2939997 3.161 0.90399998
9.2930002 3.161 0.88800001
9.3030005 3.1559999 0.87400001
9.3109999 3.152 0.85900003
9.3059998 3.155 0.84299999
9.3079996 3.154 0.82700002
9.3039999 3.1559999 0.81099999
9.3030005 3.1559999 0.796
9.3199997 3.148 0.78200001
9.3190002 3.148 0.76700002
9.3079996 3.154 0.75
9.3369999 3.1389999 0.73699999
9.3249998 3.145 0.72100002
9.3219995 3.1470001 0.70499998
9.3479996 3.1329999 0.69199997
9.5570002 3.0209999 0.69499999
9.5450001 3.0280001 0.67799997
9.5500002 3.0250001 0.66299999
9.5600004 3.0190001 0.648
9.5609999 3.0190001 0.63200003
9.5670004 3.016 0.616
9.5629997 3.0179999 0.60000002
9.573 3.013 0.58499998
9.5570002 3.0220001 0.56800002
9.5749998 3.0120001 0.55299997
9.559 3.0209999 0.53600001
9.5509996 3.026 0.51999998
9.5649996 3.0179999 0.505
9.5480003 3.027 0.48800001
9.5450001 3.029 0.47099999
9.5629997 3.0190001 0.45699999
9.573 3.0139999 0.44100001
9.5690002 3.016 0.42500001
9.5699997 3.016 0.40900001
9.5570002 3.023 0.39300001
9.5620003 3.02 0.377
9.5500002 3.027 0.36000001
9.5620003 3.0209999 0.345
9.5629997 3.02 0.329
9.5690002 3.017 0.31400001
9.5509996 3.027 0.29699999
9.5620003 3.0209999 0.28200001
9.5620003 3.0209999 0.266
9.559 3.023 0.25
9.5480003 3.029 0.233
9.5530005 3.026 0.21799999
9.5450001 3.0309999 0.20200001
9.5649996 3.02 0.186
9.5559998 3.0250001 0.17
9.552 3.027 0.154
9.5570002 3.0250001 0.138
9.5620003 3.0220001 0.123
9.5579996 3.0250001 0.107
9.5620003 3.0220001 0.090999998
9.5579996 3.0239999 0.075000003
9.5939999 3.0050001 0.059999999
9.5640001 3.0220001 0.043000001
9.559 3.0239999 0.027000001
9.559 3.0239999 0.012
9.54 3.0320001 2.983
9.5410004 3.0309999 2.9649999
9.5290003 3.0380001 2.9430001
9.5419998 3.0309999 2.9300001
9.5459995 3.029 2.914
9.5340004 3.036 2.892
9.5389996 3.033 2.8770001
9.5430002 3.0309999 2.8610001
9.5349998 3.0350001 2.8399999
9.54 3.033 2.825
9.5360003 3.0350001 2.806
9.5279999 3.04 2.7850001
9.5319996 3.0380001 2.77
9.5410004 3.033 2.7550001
9.5410004 3.033 2.7379999
9.5489998 3.029 2.724
9.533 3.0369999 2.701
9.5380001 3.0350001 2.6849999
9.533 3.0380001 2.6659999
9.5419998 3.033 2.652
9.5380001 3.036 2.6329999
9.5459995 3.0309999 2.619
9.559 3.0239999 2.6059999
9.5459995 3.0309999 2.5840001
9.5410004 3.0339999 2.566
9.5609999 3.0239999 2.5550001
9.5500002 3.03 2.5339999
9.5369997 3.0369999 2.513
9.5410004 3.0350001 2.497
9.5530005 3.0280001 2.484
9.54 3.0350001 2.4630001
9.5349998 3.0380001 2.444
9.5380001 3.036 2.428
9.5340004 3.039 2.4100001
9.533 3.039 2.3929999
9.533 3.04 2.375
9.5089998 3.053 2.3510001
9.5170002 3.049 2.3369999
9.5270004 3.043 2.323
9.526 3.0439999 2.306
9.5340004 3.04 2.2909999
9.5249996 3.0450001 2.2720001
9.5249996 3.0450001 2.2550001
9.5410004 3.036 2.243
9.5270004 3.0439999 2.2219999
9.5389996 3.0369999 2.2090001
9.552 3.0309999 2.1949999
9.5380001 3.0380001 2.175
9.5340004 3.0409999 2.1570001
9.5369997 3.039 2.141
9.5439997 3.036 2.1259999
9.5310001 3.043 2.1059999
9.5340004 3.0409999 2.0899999
9.5459995 3.0350001 2.076
9.5240002 3.0469999 2.0539999
9.5270004 3.046 2.0380001
9.5430002 3.0369999 2.0250001
9.5340004 3.0420001 2.006
9.5410004 3.0380001 1.992
9.5319996 3.0439999 1.972
9.5299997 3.0439999 1.956
9.5459995 3.036 1.943
9.5410004 3.039 1.925
9.5310001 3.0439999 1.906
9.5340004 3.043 1.89
9.5410004 3.039 1.875
9.5270004 3.0469999 1.8559999
9.552 3.0339999 1.845
9.5240002 3.0480001 1.822
9.5229998 3.049 1.8049999
9.5299997 3.046 1.79
9.5500002 3.0350001 1.778
9.5319996 3.0450001 1.758
9.5389996 3.0409999 1.743
9.5419998 3.04 1.727
9.54 3.0409999 1.71
9.5380001 3.0420001 1.694
9.5410004 3.04 1.678
9.5389996 3.0409999 1.661
9.5380001 3.0420001 1.6440001
9.5360003 3.043 1.627
9.5389996 3.0420001 1.612
9.533 3.046 1.594
9.54 3.0420001 1.579
9.5419998 3.0409999 1.563
9.54 3.0420001 1.5470001
9.5469999 3.0380001 1.5319999
9.54 3.0420001 1.5140001
9.5480003 3.0380001 1.499
9.5410004 3.0420001 1.4809999
9.5469999 3.039 1.466
9.5550003 3.0350001 1.452
9.5349998 3.046 1.432
9.533 3.0469999 1.415
9.552 3.036 1.402
9.5500002 3.0380001 1.386
9.5349998 3.046 1.367
9.5340004 3.0469999 1.35
9.552 3.0369999 1.337
9.5500002 3.0380001 1.321
9.54 3.043 1.303
9.5380001 3.0450001 1.286
9.5360003 3.046 1.27
9.5419998 3.043 1.255
9.5439997 3.0420001 1.239
9.54 3.0439999 1.222
9.5229998 3.0539999 1.2029999
9.5010004 3.066 1.184
9.5050001 3.0639999 1.168
9.4860001 3.0739999 1.149
9.4700003 3.0829999 1.131
9.4499998 3.0940001 1.112
9.4350004 3.102 1.094
9.4370003 3.1010001 1.0779999
9.408 3.1159999 1.059
9.3929996 3.1240001 1.041
9.3769999 3.1329999 1.023
9.3610001 3.142 1.005
9.3540001 3.1459999 0.98799998
9.3369999 3.155 0.97000003
9.3389997 3.154 0.95499998
9.3310003 3.158 0.93800002
9.3540001 3.1459999 0.926
9.335 3.1559999 0.90799999
9.3590002 3.1429999 0.89499998
9.3360004 3.1559999 0.87699997
9.349 3.1489999 0.86299998
9.3360004 3.1559999 0.84500003
9.3509998 3.148 0.83200002
9.3500004 3.1489999 0.81599998
9.3610001 3.1429999 0.801
9.3529997 3.1470001 0.78500003
9.3500004 3.1489999 0.76899999
9.3599997 3.1440001 0.755
9.3839998 3.131 0.741
9.4139996 3.115 0.72899997
9.5530005 3.0409999 0.72600001
9.5629997 3.036 0.71100003
9.5679998 3.033 0.69599998
9.5480003 3.0439999 0.67799997
9.5579996 3.039 0.66299999
9.5500002 3.043 0.64600003
9.559 3.0380001 0.63099998
9.5690002 3.033 0.616
9.5579996 3.039 0.59899998
9.5539999 3.0409999 0.583
9.5500002 3.043 0.56699997
9.5690002 3.033 0.55199999
9.5389996 3.05 0.53399998
9.5620003 3.0369999 0.51999998
9.559 3.039 0.50400001
9.5640001 3.036 0.48800001
9.5609999 3.0380001 0.472
9.5620003 3.0380001 0.456
9.552 3.043 0.44
9.5539999 3.0420001 0.42399999
9.573 3.0320001 0.40900001
9.5690002 3.0339999 0.39300001
9.5790005 3.03 0.37799999
9.5570002 3.0409999 0.361
9.5450001 3.0480001 0.34400001
9.559 3.0409999 0.329
9.5509996 3.0450001 0.31299999
9.5559998 3.0420001 0.29699999
9.5430002 3.049 0.28099999
9.552 3.0439999 0.26499999
9.5530005 3.0439999 0.249
9.54 3.0510001 0.233
9.5629997 3.039 0.21799999
9.5740004 3.033 0.20200001
9.5550003 3.0439999 0.186
9.5640001 3.039 0.17
9.5600004 3.0409999 0.154
9.5559998 3.043 0.138
9.5690002 3.036 0.123
9.5480003 3.0480001 0.107
9.5550003 3.0439999 0.090999998
9.5620003 3.04 0.075000003
9.566 3.0380001 0.059
9.5790005 3.0309999 0.044
9.566 3.0380001 0.028000001
9.5489998 3.0480001 0.012
9.54 3.05 2.9790001
9.5480003 3.046 2.9649999
9.5450001 3.0480001 2.9460001
9.533 3.0539999 2.924
9.533 3.0539999 2.9070001
9.5249996 3.059 2.8859999
9.5340004 3.0539999 2.872
9.526 3.0580001 2.852
