ply
format ascii 1.0
comment PCL generated
element vertex 782
property float x
property float y
property float z
element camera 1
property float view_px
property float view_py
property float view_pz
property float x_axisx
property float x_axisy
property float x_axisz
property float y_axisx
property float y_axisy
property float y_axisz
property float z_axisx
property float z_axisy
property float z_axisz
property float focal
property float scalex
property float scaley
property float centerx
property float centery
property int viewportx
property int viewporty
property float k1
property float k2
end_header
16.175001 2.6760001 0.022500001
16.257435 2.6783845 0.033717953
16.317616 2.6795385 0.024461541
16.164001 2.7449782 0.054936159
16.262321 2.7172859 0.074964285
16.335052 2.7515757 0.047021747
16.160788 2.8560719 0.052321423
16.350859 2.8510556 0.05152221
16.418589 2.8909411 0.053705886
15.416699 2.9842999 0.082500003
16.170237 2.948 0.052157894
16.224716 2.961143 0.058714285
16.362192 2.9110959 0.052095231
16.42766 2.9513495 0.050329901
15.377897 3.0425515 0.026428565
15.430555 3.0541923 0.070903853
15.5 3.0220001 0.045000002
16.178537 3.0481949 0.048024382
16.217125 3.0552499 0.068625003
16.428326 3.0501821 0.049333364
15.252809 3.124387 0.048032261
15.356465 3.1207075 0.046487808
15.430999 3.1179233 0.074192308
16.179029 3.1490266 0.049081083
16.2085 3.1240001 0.035
16.349455 3.1556942 0.050779637
16.419081 3.1142693 0.054038469
16.178833 3.2444329 0.051133342
16.34103 3.2499211 0.04932582
16.185461 3.3233078 0.037153851
16.243193 3.3446345 0.051707324
16.325378 3.3291621 0.033837836
16.2285 3.4060001 0.0155
16.174395 2.776391 0.12973914
16.260891 2.7658505 0.13136169
16.320139 2.7819545 0.12622729
16.162785 2.8443518 0.15643242
16.245001 2.8114998 0.17795455
16.341471 2.8506331 0.14734446
16.411249 2.8900001 0.15437499
15.351379 2.9682074 0.14339656
15.444354 2.9747405 0.15499996
15.512751 2.9829998 0.18525
16.15485 2.9486365 0.14851515
16.360525 2.9096844 0.14957896
16.424988 2.9489596 0.15148005
15.303 3.0639999 0.197
15.468387 3.0437901 0.13445161
15.513409 3.0582595 0.1797778
16.170977 3.0509527 0.14757141
16.422148 3.0498247 0.15069437
15.252666 3.1244998 0.1430278
15.344278 3.1264398 0.14692
15.454131 3.1240218 0.14439131
15.520055 3.117944 0.17527778
16.173107 3.1487148 0.14460716
16.347828 3.1552219 0.15096828
16.420567 3.1204596 0.15527028
16.180832 3.2436006 0.14186668
16.250134 3.2574782 0.15332615
16.3281 3.2382247 0.13167351
16.197001 3.319 0.102
16.243252 3.30425 0.1055
16.171221 2.8729689 0.24118745
16.248833 2.8684618 0.24761535
16.343473 2.8831131 0.23945284
16.412334 2.8924167 0.25241667
15.360343 2.9760568 0.2401143
15.451384 2.9719033 0.24761291
15.53977 2.9808936 0.25791487
15.602 2.997 0.29800001
16.160624 2.9516006 0.24846672
16.260401 2.9117 0.26949999
16.344959 2.9153752 0.24866667
16.424454 2.949086 0.25068274
16.5522 2.9300001 0.28560001
16.659 2.9190001 0.29100001
16.865749 2.9297502 0.29799998
16.95825 2.9512501 0.29725
15.336166 3.0502331 0.25456667
15.560922 3.0466211 0.24266666
15.606182 3.0562725 0.29045457
16.166252 3.0505681 0.24272731
16.42033 3.0520325 0.24909791
16.9925 3.0220001 0.29799998
17.048294 3.0460002 0.25258821
15.287399 3.1274002 0.2102
15.348325 3.1304054 0.2452703
15.44847 3.132823 0.24638236
15.555795 3.1237926 0.24788676
15.614333 3.1215835 0.28350002
16.173386 3.149333 0.24179488
16.247114 3.1688573 0.26057145
16.342827 3.1492157 0.24549021
16.423916 3.1230845 0.24648932
16.983 3.118 0.29300001
17.070066 3.1373789 0.26279312
17.257566 3.1324503 0.2515167
16.176001 3.2046669 0.22
16.2311 3.2167995 0.2115
16.3085 3.2090001 0.20900001
16.054001 2.8942499 0.30449998
16.179445 2.8892224 0.34144443
16.246536 2.8913019 0.3476744
16.344704 2.8946302 0.34907413
16.415169 2.8975005 0.33733332
15.2487 2.9679999 0.3346
15.361638 2.9764547 0.32918182
15.456908 2.9751518 0.34160602
15.550804 2.9754629 0.34837309
15.635234 2.9811394 0.3557674
15.747313 2.9504373 0.322
15.84831 2.9409237 0.31415388
15.949908 2.9236364 0.31390911
16.046301 2.9177999 0.3091
16.171499 2.9383001 0.34587499
16.254515 2.9110317 0.35464516
16.35631 2.9136667 0.35383332
16.42581 2.9478686 0.34711209
16.555584 2.9258335 0.30508333
16.657635 2.9269087 0.30354548
16.747669 2.9305 0.30316669
16.84454 2.9357693 0.30569232
16.964922 2.9629617 0.34519231
17.051069 2.9664085 0.35019723
17.149797 2.966464 0.35285503
17.231632 2.9749141 0.32491431
15.381859 3.0365717 0.3157143
15.436714 3.0552144 0.36721429
15.5835 3.0019999 0.33999997
15.652934 3.0479634 0.34824389
15.705 3.0869999 0.39449999
16.083 3.0090001 0.30700001
16.163725 3.0508494 0.35187498
16.422581 3.051089 0.35142577
16.963118 3.0391762 0.35194117
17.179028 3.0483565 0.37457144
17.229408 3.0462377 0.32740676
15.383666 3.1278331 0.3105
15.448803 3.1344147 0.34726834
15.552757 3.1373336 0.34642422
15.655414 3.124696 0.35385719
15.711168 3.1143336 0.38983333
16.17408 3.1342397 0.34935999
16.243801 3.138778 0.35251111
16.349022 3.1379576 0.34770215
16.421093 3.1245372 0.35440737
16.970335 3.1389999 0.36514291
17.048574 3.1444521 0.3455714
17.155359 3.1348357 0.35531145
17.222687 3.1276245 0.324
16.189083 2.8885 0.44516668
16.242643 2.8927505 0.44342864
16.344202 2.8956664 0.43520004
16.407001 2.8969998 0.41750002
15.492001 2.9809999 0.42199999
15.557816 2.9803953 0.44048846
15.65081 2.9805167 0.45125866
15.720387 2.9860001 0.45909667
16.180153 2.9428716 0.45264098
16.249226 2.914 0.45077786
16.349598 2.9111731 0.45292309
16.420614 2.949574 0.44987121
16.879068 2.9815338 0.47453335
16.956099 2.9720972 0.44888526
17.052662 2.9688625 0.45031247
17.1304 2.9800999 0.42539999
15.481637 3.0388184 0.42136368
15.521772 3.0555906 0.46736363
15.678217 3.0252142 0.41757146
15.745487 3.0505416 0.45528138
15.806 3.0799999 0.49599999
16.171724 3.0491745 0.44674999
16.42174 3.0518682 0.44834346
16.863653 3.0500438 0.46378264
16.9181 3.0513999 0.42160001
17.085211 3.0440001 0.48370832
17.127989 3.0477631 0.43680263
15.488111 3.131778 0.41966668
15.543667 3.1373079 0.45282048
15.643934 3.1427667 0.44726664
15.746159 3.1279261 0.45389715
15.817 3.1240001 0.49399999
16.176207 3.136862 0.44793108
16.246353 3.1408916 0.45372975
16.34868 3.1413655 0.44863421
16.420444 3.125963 0.45166662
16.877764 3.136143 0.47519049
16.949156 3.1433909 0.44884786
17.054859 3.1394467 0.45580363
17.128002 3.1259282 0.43266073
16.184502 2.8958001 0.54689997
16.241287 2.8947859 0.5480715
16.33975 2.8972499 0.53350002
15.591001 2.9867141 0.52157146
15.65429 2.9811947 0.54729265
15.749535 2.9811339 0.54993343
15.812701 2.9893997 0.57159996
16.177265 2.935395 0.55163157
16.24955 2.9148448 0.5475862
16.35174 2.9158032 0.54734844
16.418818 2.9520102 0.55106121
16.605 2.9909999 0.59600002
16.785 2.98 0.58412504
16.856249 2.9751849 0.55349231
16.954823 2.972054 0.55412328
17.029282 2.9783957 0.5349766
15.573668 3.0429444 0.52800006
15.618611 3.0466111 0.5677222
15.779333 3.0377917 0.52116674
15.831475 3.0474386 0.56169492
16.172773 3.049129 0.54745162
16.42098 3.0485299 0.5482499
16.766317 3.0576317 0.57057905
16.81477 3.0346155 0.53023076
16.985401 3.0491335 0.58960003
17.034664 3.0482211 0.54245257
15.575055 3.1357777 0.52211118
15.64186 3.1458836 0.55446512
15.755359 3.1473331 0.54469234
15.834339 3.1289489 0.55516952
16.175034 3.1350999 0.54686683
16.248636 3.1413896 0.55019504
16.352137 3.1426361 0.54815912
16.421078 3.1241534 0.54709214
16.779156 3.1328464 0.57961541
16.84794 3.1476274 0.55164707
16.955584 3.1475089 0.55509096
17.033508 3.1307867 0.53768843
16.198 2.8989999 0.66949999
16.218287 2.893286 0.64828575
16.341999 2.8970001 0.63999999
15.681701 2.987 0.62239999
15.753415 2.9847674 0.64490694
15.847935 2.9849784 0.65158695
15.915601 2.9940002 0.68500006
16.171637 2.9369574 0.64821267
16.250774 2.9164999 0.64984846
16.351616 2.9179258 0.64876473
16.418478 2.9539394 0.64780736
16.599001 2.997 0.62199998
16.636 2.9903333 0.67366666
16.760519 2.9789784 0.65913045
16.851957 2.9752717 0.64891416
16.93611 2.9769626 0.63925916
15.665681 3.0472002 0.63928002
15.722 3.0337498 0.67449999
15.869999 3.0369272 0.63196367
15.921859 3.05036 0.66805989
16.169769 3.0471158 0.64042306
16.420452 3.050741 0.65052992
16.594999 3.0076001 0.67060006
16.676067 3.0464003 0.66733336
16.727501 3.027 0.6330834
16.862499 3.0219998 0.6735
16.945702 3.049521 0.64906108
15.667964 3.1361852 0.63155562
15.743379 3.1519728 0.65772969
15.857836 3.1408129 0.64012504
15.930113 3.1335998 0.66802859
16.037001 3.128 0.699
16.17379 3.1359732 0.64813155
16.250431 3.1481366 0.64934099
16.352318 3.1473172 0.64824396
16.421227 3.1270924 0.65375376
16.680998 3.1335557 0.67044443
16.750401 3.1473553 0.65111113
16.853376 3.1518126 0.65116674
16.941725 3.1314108 0.6435889
16.230499 2.89675 0.71950001
15.776143 2.991143 0.72700006
15.849363 2.9882734 0.74422735
15.94183 2.9894857 0.75728571
16.055601 2.9845998 0.7608
16.176678 2.9383242 0.749946
16.249069 2.9172761 0.74974132
16.350206 2.921118 0.74766171
16.416721 2.9546318 0.7477544
16.656693 2.9868813 0.75795239
16.754137 2.9778466 0.75006163
16.843046 2.9813786 0.74227285
15.689 3.085 0.704
15.754857 3.0480573 0.74779993
15.853444 3.006778 0.7536667
15.964787 3.0393858 0.73605287
16.017841 3.0514739 0.77478945
16.16832 3.043591 0.74313641
16.395 3.04 0.76999998
16.420788 3.0515113 0.74759316
16.574249 3.0374999 0.78375006
16.636038 3.0320401 0.74003994
16.731251 3.006 0.73275
16.856239 3.0490615 0.75015432
16.903833 3.05 0.70416665
15.761352 3.1431351 0.74145949
15.850115 3.1559141 0.75062859
15.956779 3.14854 0.74507999
16.022482 3.1372612 0.77086955
16.165363 3.1329398 0.75042427
16.256168 3.1515479 0.75302392
16.352259 3.1493261 0.74825579
16.423208 3.1275325 0.75011283
16.5874 3.1230001 0.77780002
16.653709 3.1476052 0.75173682
16.747812 3.1542292 0.74681258
16.851833 3.1364226 0.7461924
15.871555 2.9929998 0.82300007
15.954129 2.9900265 0.85189468
16.03105 2.98685 0.85769999
16.174366 2.9416821 0.85156816
16.247629 2.921808 0.84683573
16.352409 2.9268634 0.84800005
16.417528 2.9527631 0.8445999
16.571472 2.9874709 0.86223543
16.649986 2.9834335 0.84946668
16.747583 2.9812672 0.84711671
16.810143 2.9847143 0.8095715
15.855998 3.0397937 0.84647048
15.955061 3.0134377 0.84393758
16.037466 3.031167 0.84933329
16.168386 3.0246925 0.85369229
16.418674 3.0559719 0.84571826
16.545666 3.0232668 0.84999996
16.645666 3.0095003 0.85433334
16.767187 3.0494609 0.85436821
16.809666 3.0485556 0.81072217
15.794 3.1470001 0.80000001
15.848159 3.1494474 0.84155256
15.947183 3.160394 0.8488788
16.055208 3.1453965 0.84408617
16.144346 3.1358457 0.85546154
16.243315 3.1531701 0.8519268
16.34985 3.1528265 0.85106546
16.424091 3.1283042 0.84708935
16.556858 3.1479142 0.85394281
16.640606 3.158587 0.84943473
16.752203 3.1410246 0.85065848
16.810333 3.1275554 0.80988896
15.977468 2.9921334 0.93586671
16.045906 2.9898753 0.95253122
16.172182 2.9453862 0.95274997
16.253 2.9256377 0.95273936
16.351454 2.9297724 0.94903034
16.424055 2.9584732 0.95185965
16.554689 2.9867644 0.94860792
16.64749 2.9845853 0.94873607
16.714182 2.9840908 0.91672736
15.884125 3.068125 0.90799999
15.941901 3.0382004 0.94680011
16.046499 3.0169997 0.94483334
16.151199 3.0105 0.95760006
16.399 3.023 0.98399997
16.430651 3.026891 0.94450009
16.5467 3.0062001 0.95470011
16.665758 3.0413766 0.96149188
16.717949 3.0462897 0.91760534
15.891429 3.1404288 0.90842867
15.948026 3.155422 0.94886678
16.043589 3.1619489 0.94710267
16.146214 3.1540473 0.94845235
16.245623 3.1585143 0.9474594
16.348898 3.1586001 0.95022017
16.444328 3.151051 0.94979507
16.545418 3.1641629 0.95123255
16.656073 3.1448624 0.95452499
16.713638 3.1298637 0.91636366
16.052908 2.991909 1.0290909
16.17366 2.9467735 1.0545661
16.253998 2.9286509 1.0511745
16.351242 2.932379 1.0469241
16.436974 2.9721777 1.0488632
16.553091 2.9886665 1.0483519
16.618546 2.9907272 1.0216365
15.978071 3.0525715 1.0230715
16.043407 3.0361848 1.0599629
16.137463 3.0095384 1.0466924
16.455788 3.0097368 1.0554737
16.570135 3.0437262 1.0716666
16.622982 3.050827 1.0242498
15.982928 3.143929 1.0194287
16.046524 3.1594779 1.0538697
16.148197 3.1616116 1.0473334
16.247023 3.1578135 1.0511163
16.346096 3.1573098 1.0504524
16.4496 3.1685002 1.0476499
16.558125 3.1514223 1.0571693
16.623388 3.1392579 1.0215807
16.170715 2.9433022 1.1498302
16.254156 2.9334307 1.1484768
16.351603 2.9368455 1.1473804
16.435999 2.9730966 1.1479031
16.518667 2.9882503 1.1274168
16.065931 3.0610719 1.1312857
16.135237 3.0337646 1.1721764
16.469772 3.0365913 1.167091
16.531208 3.0498109 1.1312263
16.078573 3.155143 1.1241907
16.14064 3.1620557 1.1554724
16.24688 3.1690495 1.1447318
16.357746 3.1748207 1.1447436
16.45878 3.1585927 1.1573519
16.524963 3.1367929 1.1317737
16.141001 3.2 1.161
16.234446 3.2096667 1.1527778
16.368946 3.2252219 1.1775001
16.406 3.2409999 1.183
16.172398 2.9429471 1.2497106
16.250252 2.9308507 1.2488085
16.357927 2.9406664 1.2490119
16.417612 2.9727592 1.2476484
16.156343 3.0488944 1.2524475
16.430296 3.0499778 1.2487004
16.163336 3.1557226 1.2441666
16.247561 3.1742945 1.2553235
16.355249 3.1716502 1.2516501
16.426437 3.1408644 1.2511754
16.3605 3.2145 1.202
16.17392 2.9469998 1.345
16.251451 2.9338331 1.3506669
16.359636 2.9369493 1.3439165
16.409737 2.9712448 1.3502001
16.165342 3.0480568 1.3446856
16.396 3.0517499 1.35
16.412828 3.0495324 1.3489997
16.167953 3.155488 1.3511163
16.256124 3.1766567 1.3446562
16.354166 3.1716905 1.3529285
16.414469 3.1364815 1.3490845
16.174345 2.9508853 1.4460571
16.251144 2.9355135 1.4484572
16.357965 2.9413037 1.4486786
16.408976 2.9738684 1.4452369
16.169622 3.0513747 1.4432751
16.397667 3.039 1.4423335
16.410507 3.0485945 1.4484501
16.169538 3.1615384 1.4456666
16.250973 3.1798379 1.4515945
16.356287 3.1768095 1.4544762
16.411263 3.1406248 1.4485418
16.173813 2.9560623 1.5515935
16.24844 2.9420233 1.5488369
16.36009 2.9448636 1.5487956
16.411209 2.9737103 1.5469472
16.16621 3.0505581 1.5492326
16.39625 3.0344999 1.5645
16.410961 3.05053 1.5496991
16.163704 3.1598639 1.5492046
16.248165 3.1825557 1.5536389
16.354256 3.1776927 1.5496669
16.41415 3.1385758 1.5509174
16.229 3.2019999 1.584
16.170841 2.9600799 1.6545999
16.24378 2.9462249 1.6467249
16.357353 2.9491463 1.6509374
16.409542 2.9765141 1.6480538
16.164114 3.0516286 1.6526855
16.396999 3.0409999 1.6585
16.40992 3.0477912 1.6485462
16.164314 3.161732 1.6496096
16.24678 3.1835625 1.6491876
16.35195 3.1787803 1.6515852
16.413374 3.1411109 1.6504446
16.169333 3.2063332 1.6628332
16.235001 3.2035 1.6684999
16.309999 3.2 1.689
16.174551 2.9620342 1.7488276
16.251049 2.95135 1.7489754
16.356087 2.9541335 1.7521776
16.408501 2.9791 1.7432334
16.163975 3.0490835 1.7488059
16.397287 3.0491431 1.7637143
16.407867 3.0506542 1.7486173
16.161999 3.1590002 1.7504545
16.248999 3.1871474 1.747
16.350513 3.1853511 1.7515677
16.412193 3.144676 1.7479479
16.170572 3.2077146 1.7535713
16.236 3.207 1.753
16.170002 2.9634585 1.8479583
16.250999 2.9542387 1.8485236
16.357618 2.96208 1.8463005
16.40608 2.9800403 1.8550402
16.160557 3.0489445 1.8493887
16.396547 3.0293639 1.8512729
16.407728 3.0498953 1.8502103
16.166075 3.1600759 1.8501498
16.244669 3.1898789 1.8505759
16.349277 3.1855252 1.8472747
16.411734 3.1477895 1.8485557
16.168859 3.2077146 1.8525716
16.2435 3.2075 1.8385
16.178051 2.9648092 1.9478573
16.250595 2.9588437 1.9491562
16.355286 2.9629185 1.9509188
16.404438 2.9807196 1.9494398
16.16107 3.0455954 1.9508566
16.395267 3.0411336 1.9418
16.407141 3.051764 1.9513059
16.162907 3.1602564 1.9516275
16.250032 3.192719 1.9472189
16.362949 3.1851058 1.9491055
16.408463 3.1484377 1.951813
16.170126 3.2072499 1.9516251
16.262573 3.2042856 1.9504286
16.389999 3.2060001 1.931
16.400999 3.204 1.989
16.17959 2.9667273 2.0446362
16.248808 2.9645805 2.0490644
16.361139 2.9694211 2.0484035
16.4056 2.9822998 2.05
16.15975 3.0493057 2.0509446
16.39571 3.038167 2.0523334
16.405544 3.0553074 2.0498002
16.159742 3.1666603 2.0536594
16.258333 3.1961427 2.0417619
16.367884 3.1803238 2.0515001
16.408026 3.1502271 2.047894
16.155998 3.2116251 2.0696249
16.249054 3.2046669 2.0585556
16.337858 3.2027142 2.0512857
16.405668 3.2036667 2.0446668
16.178812 2.9721248 2.1491249
16.241892 2.9688382 2.1469188
16.357924 2.9720397 2.149627
16.404217 2.9859285 2.1514287
16.155708 3.0468042 2.1492438
16.39612 3.0483596 2.15096
16.405439 3.0481312 2.150377
16.156134 3.1585338 2.1480336
16.245573 3.1969998 2.1305714
16.376951 3.1696336 2.1505857
16.407589 3.1490955 2.1462543
16.164 3.2105784 2.1546316
16.241335 3.2052596 2.1546669
16.341881 3.2031767 2.1554704
16.403334 3.2030001 2.1396666
16.176208 2.9740424 2.2547498
16.246 2.9747314 2.2505367
16.360754 2.9768891 2.2527335
16.405003 2.9841666 2.2426667
16.156576 3.0482497 2.25125
16.394932 3.0378621 2.2572415
16.404707 3.052907 2.2458708
16.148407 3.1521251 2.2409692
16.383896 3.1617956 2.2459183
16.406107 3.1516545 2.2508545
16.167723 3.2108617 2.2515516
16.249891 3.2083514 2.2514598
16.342001 3.2037895 2.2535791
16.4046 3.2056005 2.2507999
16.168667 2.8906665 2.3852222
16.2274 2.892 2.3871002
16.163902 2.9473996 2.3496168
16.252001 2.9431131 2.3514504
16.352844 2.9757452 2.3486865
16.405499 2.9872501 2.3525
16.097 3.0309999 2.3540001
16.139751 3.0509005 2.3507004
16.393911 3.0464449 2.3522222
16.403976 3.0501249 2.3503747
16.139277 3.1455865 2.3493795
16.391125 3.1561248 2.3470001
16.403982 3.1425772 2.3473463
16.157837 3.2474887 2.3468373
16.260418 3.2489352 2.342484
16.338665 3.2208054 2.3528337
16.411501 3.2067502 2.3382499
16.179701 3.3216 2.3854001
16.258646 3.3153529 2.3827646
16.301001 3.3110001 2.378
16.1625 2.7940001 2.4959998
16.214001 2.7950001 2.497
16.164175 2.8531585 2.4514127
16.258665 2.8578484 2.4555349
16.305168 2.8636665 2.4533334
16.148588 2.9458482 2.4446092
16.286781 2.9375365 2.4508777
16.332672 2.9681382 2.4458966
16.404667 2.9823337 2.4625001
16.151257 3.0493021 2.4503257
16.295334 3.0093334 2.4583335
16.387459 3.0406201 2.4533801
16.403055 3.058105 2.4491048
16.146233 3.1478076 2.4505389
16.394878 3.1510491 2.4443903
16.404284 3.1460259 2.4504733
16.144051 3.2480752 2.4548995
16.292824 3.2542143 2.4437859
16.331821 3.2330906 2.4526913
16.403334 3.2033336 2.4513335
16.159393 3.3534784 2.45487
16.275845 3.350805 2.4486206
16.305143 3.3444288 2.4698572
16.17275 3.4158335 2.4829168
16.254103 3.4125001 2.4856002
16.155001 2.6989999 2.5969999
16.162689 2.7636065 2.5553603
16.252478 2.764631 2.5610595
16.307999 2.7674999 2.579
16.147865 2.8462451 2.545022
16.281662 2.8427765 2.5446115
16.301235 2.8438237 2.5456469
16.144182 2.9473598 2.5441601
16.281132 2.949111 2.5547113
16.34491 2.9821365 2.5476139
16.404203 2.9854 2.5368001
16.152372 3.0510871 2.5482395
16.287251 3.0118752 2.55075
16.382019 3.0419841 2.5551612
16.402548 3.0531816 2.5441515
16.14538 3.1451385 2.5472071
16.394131 3.1431053 2.547843
16.403936 3.1494043 2.5518508
16.148676 3.2512908 2.5535805
16.280382 3.2457144 2.5506668
16.336826 3.2350574 2.5495961
16.403 3.2037499 2.55725
16.144741 3.3526123 2.5526133
16.29158 3.3509536 2.543
16.303757 3.3489463 2.555325
16.157692 3.4490809 2.5524697
16.272892 3.4502397 2.5491686
16.307533 3.4280002 2.5668666
16.169546 3.5169089 2.5854545
16.246836 3.5139999 2.5847778
16.306 3.51 2.598
16.16094 2.6634169 2.6653752
16.250547 2.6694636 2.6679132
16.302999 2.6889999 2.6949999
16.150702 2.7407031 2.6439841
16.275789 2.7444699 2.6451471
16.301666 2.72 2.6433334
16.146441 2.8474886 2.6531394
16.277699 2.8424056 2.6511302
16.302666 2.8303335 2.6050003
16.159483 2.9586298 2.6454446
16.24939 2.9786341 2.6432931
16.351786 2.9933219 2.6440713
16.402 2.9913335 2.6270001
16.152287 3.0516729 2.6526732
16.268116 3.011059 2.656647
16.377686 3.0375421 2.655277
16.4025 3.0620775 2.639962
16.145216 3.1471472 2.6517315
16.393084 3.1478803 2.6533391
16.402317 3.1534092 2.6479547
16.151249 3.2273998 2.6520503
16.252651 3.2351251 2.6475747
16.359018 3.2207499 2.6481042
16.402334 3.2099998 2.6776667
16.149405 3.3525312 2.6450627
16.288504 3.3521926 2.6543078
16.305162 3.3586504 2.6400926
16.146532 3.443912 2.6521175
16.290089 3.4553716 2.6441429
16.305281 3.4458482 2.6542828
16.15728 3.5505595 2.64694
16.273167 3.5512657 2.6503675
16.303812 3.5421252 2.6594999
16.168665 3.6118889 2.6785555
16.249647 3.6171768 2.6877646
16.288 3.717 2.684
16.163151 2.5738502 2.7660756
16.251415 2.5755212 2.7720628
16.146568 2.6396983 2.7422638
16.27416 2.6438427 2.7440922
16.301289 2.6572862 2.7698572
16.145319 2.7519205 2.7547197
16.277241 2.7499135 2.7466428
16.3025 2.7360001 2.73
16.150562 2.8204374 2.730875
16.247999 2.8176506 2.7314997
16.168798 2.9904501 2.7570503
16.244844 2.9929068 2.7440937
16.346418 2.9952917 2.7437921
16.150501 3.0478637 2.7493179
16.255186 3.0152965 2.7563705
16.376368 3.0390785 2.7498138
16.402374 3.0808749 2.773875
16.143658 3.14979 2.7514999
16.391586 3.1453707 2.753257
16.403652 3.1605999 2.734
16.159744 3.2184882 2.7526276
16.251558 3.2265 2.7497356
16.364038 3.2194591 2.7496207
16.407888 3.2103333 2.7443333
16.152601 3.3862 2.7192001
16.253584 3.3764169 2.7212503
16.30175 3.3870001 2.7154999
16.15464 3.4492564 2.7477438
16.282125 3.4496002 2.7484004
16.304514 3.4527416 2.7386773
16.144951 3.5491221 2.7467318
16.292513 3.5585382 2.7478719
16.303898 3.5435619 2.7538748
16.157478 3.6498408 2.7471817
16.271475 3.6516125 2.7468121
16.302603 3.6400003 2.7660003
16.170401 3.7168 2.7804
16.25432 3.7175198 2.7738795
16.3055 3.7129998 2.7614999
16.159536 2.4805002 2.8726072
16.245852 2.4770746 2.879741
16.150852 2.5403185 2.8406966
16.265383 2.5460896 2.846992
16.299999 2.5195 2.8575001
16.138931 2.6500459 2.8507502
16.280537 2.6478813 2.8481324
16.301498 2.6359999 2.8564999
16.151539 2.7273846 2.8354616
16.250698 2.7250304 2.8317876
16.198 2.8269999 2.8210001
16.158251 2.9946249 2.8504999
16.244919 2.9960003 2.8397503
16.331667 2.9953334 2.8489997
16.154404 3.0449634 2.8490367
16.249184 3.0128636 2.8540909
16.374825 3.0394528 2.8498085
16.402 3.0673337 2.8843334
16.143845 3.1468008 2.8463116
16.391573 3.1456282 2.8517177
16.403891 3.1481111 2.8380001
16.154934 3.2205777 2.8483334
16.257957 3.2426877 2.8535204
16.366274 3.2247899 2.8493545
16.412001 3.2279999 2.858
16.159454 3.4785459 2.8180001
16.256701 3.4789498 2.8266006
16.302 3.4836669 2.8086667
16.150814 3.5502386 2.8488574
16.277168 3.5501664 2.8567779
16.306107 3.5606756 2.8367031
16.143223 3.6476126 2.8453867
16.291588 3.6537828 2.8421957
16.304253 3.6457446 2.8542559
16.080999 3.7720001 2.8989999
16.15485 3.7554002 2.8504503
16.27079 3.7489681 2.8487186
16.3032 3.73 2.8746002
16.168402 3.8124001 2.888
16.248068 3.8125339 2.8871336
16.301001 3.8010001 2.882
16.163761 2.3855238 2.9843335
16.241417 2.3831668 2.9866672
16.152163 2.4420958 2.9428215
16.259012 2.4477112 2.9520423
16.301498 2.4545 2.987
16.136047 2.5512383 2.9515007
16.280245 2.5480244 2.947439
16.149099 2.6366773 2.9399357
16.256893 2.631649 2.9354055
16.311001 2.6159999 2.9070001
16.145573 2.9964287 2.9399998
16.259335 2.9966667 2.9246669
16.310001 2.9955001 2.9260001
16.154257 3.0380266 2.9482803
16.250282 3.0165966 2.952281
16.371166 3.0378633 2.9487512
16.402668 3.0773335 2.9760003
16.139017 3.1500003 2.9502249
16.389986 3.1500504 2.9539626
16.401558 3.1352224 2.933778
16.156593 3.2280848 2.9509575
16.251694 3.2557435 2.9522822
16.354113 3.2350142 2.9508708
16.403334 3.2136667 2.9230001
16.157169 3.5820832 2.9227502
16.267 3.5809288 2.915643
16.302 3.589 2.914
16.151115 3.6487427 2.9519713
16.281137 3.648216 2.9502158
16.305864 3.6570337 2.9352665
16.142399 3.7512403 2.9493999
16.292179 3.7584403 2.94012
16.306316 3.7370248 2.9620731
16.079 3.846 2.9760001
16.155596 3.8490238 2.9499998
16.269768 3.8487442 2.9478836
16.304001 3.8411999 2.964467
16.167715 3.9077144 2.9898574
16.259666 3.9102001 2.9858
16.302 3.905 2.9920001
0 0 0 1 0 0 0 1 0 0 0 1 0 0 0 0 0 782 1 0 0
