ply
format ascii 1.0
comment PCL generated
element vertex 1915
property float x
property float y
property float z
element camera 0
property float view_px
property float view_py
property float view_pz
property float x_axisx
property float x_axisy
property float x_axisz
property float y_axisx
property float y_axisy
property float y_axisz
property float z_axisx
property float z_axisy
property float z_axisz
property float focal
property float scalex
property float scaley
property float centerx
property float centery
property int viewportx
property int viewporty
property float k1
property float k2
end_header
4.1329999 -1.663 1.3430001
4.1350002 -1.664 1.336
4.1220002 -1.659 1.323
4.1300001 -1.6619999 1.317
4.1230001 -1.66 1.307
4.1259999 -1.661 1.299
4.1279998 -1.661 1.291
4.1339998 -1.664 1.285
4.1139998 -1.656 1.27
4.1279998 -1.661 1.266
4.118 -1.658 1.255
4.1329999 -1.664 1.251
4.131 -1.663 1.242
4.1290002 -1.6619999 1.233
4.118 -1.658 1.222
4.1240001 -1.66 1.215
4.1259999 -1.661 1.207
4.1100001 -1.655 1.194
4.1170001 -1.6569999 1.188
4.131 -1.663 1.184
4.1300001 -1.6619999 1.175
4.1230001 -1.66 1.165
4.1329999 -1.664 1.16
4.1259999 -1.661 1.149
4.1370001 -1.666 1.1440001
4.1209998 -1.659 1.132
4.1220002 -1.659 1.124
4.1290002 -1.6619999 1.117
4.1300001 -1.663 1.109
4.1269999 -1.6619999 1.1
4.1209998 -1.659 1.091
4.132 -1.663 1.085
4.1290002 -1.6619999 1.076
4.1220002 -1.659 1.066
4.119 -1.658 1.057
4.1290002 -1.6619999 1.052
4.1090002 -1.654 1.038
4.1240001 -1.66 1.034
4.1209998 -1.659 1.025
4.1230001 -1.66 1.018
4.1199999 -1.659 1.0089999
4.1220002 -1.66 1.001
4.1360002 -1.665 0.99599999
4.125 -1.661 0.986
4.1170001 -1.658 0.97600001
4.1329999 -1.664 0.97100002
4.1199999 -1.659 0.95999998
4.1170001 -1.658 0.95200002
4.1139998 -1.6569999 0.94300002
4.1209998 -1.659 0.93599999
4.1269999 -1.6619999 0.92900002
4.1139998 -1.6569999 0.91900003
4.125 -1.661 0.91299999
4.1269999 -1.6619999 0.90499997
4.1329999 -1.664 0.89899999
4.125 -1.661 0.889
4.1259999 -1.6619999 0.88099998
4.1230001 -1.66 0.87199998
4.1199999 -1.659 0.86400002
4.131 -1.663 0.85799998
4.1269999 -1.6619999 0.84899998
4.1199999 -1.659 0.83999997
4.1389999 -1.6670001 0.83600003
4.1220002 -1.66 0.824
4.1360002 -1.665 0.81900001
4.1370001 -1.666 0.81099999
4.1259999 -1.6619999 0.801
4.1230001 -1.66 0.792
4.1199999 -1.659 0.78399998
4.1209998 -1.66 0.77600002
4.1339998 -1.665 0.77100003
4.1350002 -1.665 0.76300001
4.1279998 -1.663 0.75400001
4.1350002 -1.665 0.74699998
4.118 -1.658 0.736
4.152 -1.6720001 0.73400003
4.138 -1.666 0.72299999
4.132 -1.664 0.71399999
4.119 -1.659 0.704
4.1339998 -1.665 0.699
4.1350002 -1.665 0.69099998
4.1259999 -1.6619999 0.68199998
4.1279998 -1.663 0.67400002
4.1290002 -1.663 0.667
4.1350002 -1.665 0.66000003
4.118 -1.658 0.64899999
4.1420002 -1.668 0.64499998
4.1329999 -1.665 0.63599998
4.152 -1.6720001 0.63
4.1350002 -1.666 0.62
4.132 -1.664 0.61199999
4.1329999 -1.665 0.60399997
4.1430001 -1.669 0.597
4.1350002 -1.665 0.588
4.131 -1.664 0.57999998
4.132 -1.664 0.57200003
4.119 -1.659 0.56300002
4.1339998 -1.665 0.55699998
4.1300001 -1.664 0.54799998
4.145 -1.67 0.54299998
4.1409998 -1.668 0.53399998
4.1329999 -1.665 0.52499998
4.1290002 -1.663 0.51700002
4.1389999 -1.6670001 0.50999999
4.1399999 -1.668 0.50300002
4.145 -1.67 0.495
4.132 -1.665 0.486
4.138 -1.6670001 0.479
4.138 -1.6670001 0.47099999
4.125 -1.6619999 0.46200001
4.1440001 -1.669 0.456
4.1300001 -1.664 0.447
4.1370001 -1.6670001 0.44
4.1269999 -1.663 0.43099999
4.1430001 -1.669 0.42500001
4.1329999 -1.665 0.41600001
4.1389999 -1.6670001 0.40799999
4.1360002 -1.666 0.40000001
4.1259999 -1.6619999 0.39199999
4.1339998 -1.665 0.38499999
4.132 -1.665 0.377
4.1240001 -1.661 0.368
4.1430001 -1.669 0.36199999
4.125 -1.6619999 0.35299999
4.1370001 -1.6670001 0.34599999
4.1479998 -1.671 0.33899999
4.1409998 -1.668 0.331
4.1440001 -1.67 0.32300001
4.1479998 -1.671 0.31600001
4.145 -1.67 0.30700001
4.1409998 -1.668 0.29899999
4.152 -1.673 0.292
4.1550002 -1.674 0.285
4.1430001 -1.669 0.27599999
4.1240001 -1.6619999 0.26699999
4.152 -1.673 0.26100001
4.1529999 -1.673 0.25299999
4.1630001 -1.677 0.24600001
4.1630001 -1.677 0.23800001
4.1370001 -1.6670001 0.229
4.1430001 -1.669 0.222
4.1339998 -1.666 0.213
4.1389999 -1.668 0.206
4.1209998 -1.661 0.197
4.1300001 -1.664 0.19
4.1290002 -1.664 0.182
4.1209998 -1.661 0.17399999
4.138 -1.668 0.167
4.1469998 -1.671 0.16
4.131 -1.664 0.15099999
4.1479998 -1.6720001 0.14399999
4.1399999 -1.668 0.13600001
4.1339998 -1.666 0.12800001
4.1350002 -1.666 0.12
4.158 -1.676 0.113
4.1539998 -1.674 0.105
4.1399999 -1.669 0.097000003
4.145 -1.67 0.090000004
4.1420002 -1.669 0.082000002
4.1360002 -1.6670001 0.074000001
4.1459999 -1.671 0.066
4.1300001 -1.664 0.057999998
4.1490002 -1.6720001 0.050999999
4.1409998 -1.669 0.043000001
4.1890001 -1.676 2.598
4.125 -1.651 2.5480001
4.1399999 -1.6569999 2.4849999
4.1389999 -1.656 2.474
4.1209998 -1.649 2.454
4.1240001 -1.65 2.4449999
4.1090002 -1.6440001 2.4260001
4.1209998 -1.649 2.4230001
4.1100001 -1.645 2.4070001
4.1059999 -1.643 2.395
4.1009998 -1.641 2.382
4.1160002 -1.647 2.381
4.1259999 -1.651 2.3770001
4.1090002 -1.6440001 2.3570001
4.1040001 -1.643 2.3440001
4.1360002 -1.655 2.3529999
4.1360002 -1.655 2.342
4.1209998 -1.649 2.3239999
4.1100001 -1.645 2.3080001
4.1230001 -1.65 2.306
4.098 -1.64 2.2820001
4.119 -1.649 2.2839999
4.1230001 -1.65 2.276
4.1199999 -1.649 2.2650001
4.1069999 -1.6440001 2.2479999
4.1269999 -1.652 2.2490001
4.1269999 -1.652 2.2390001
4.118 -1.648 2.2249999
4.1220002 -1.65 2.2179999
4.1370001 -1.656 2.2160001
4.1240001 -1.651 2.2
4.1339998 -1.655 2.1949999
4.1160002 -1.647 2.1760001
4.1129999 -1.646 2.165
4.1259999 -1.651 2.1619999
4.1209998 -1.65 2.1500001
4.125 -1.651 2.142
4.1300001 -1.653 2.1359999
4.1269999 -1.652 2.125
4.1220002 -1.65 2.1129999
4.1500001 -1.661 2.1170001
4.1259999 -1.652 2.096
4.1279998 -1.652 2.0869999
4.1199999 -1.649 2.0739999
4.1220002 -1.65 2.0650001
4.1279998 -1.652 2.059
4.1220002 -1.65 2.046
4.1259999 -1.651 2.039
4.1129999 -1.646 2.0239999
4.1220002 -1.65 2.0190001
4.131 -1.653 2.0139999
4.1339998 -1.655 2.006
4.1269999 -1.652 1.993
4.1389999 -1.6569999 1.989
4.1350002 -1.655 1.978
4.1100001 -1.645 1.957
4.1259999 -1.652 1.956
4.1079998 -1.6440001 1.938
4.125 -1.651 1.937
4.1100001 -1.645 1.921
4.1129999 -1.646 1.913
4.1209998 -1.649 1.9069999
4.1240001 -1.651 1.899
4.1269999 -1.652 1.892
4.1209998 -1.65 1.88
4.1290002 -1.653 1.874
4.132 -1.654 1.867
4.1300001 -1.653 1.857
4.132 -1.654 1.848
4.1129999 -1.647 1.831
4.1139998 -1.647 1.822
4.1199999 -1.649 1.816
4.1220002 -1.65 1.808
4.118 -1.649 1.7970001
4.1170001 -1.648 1.788
4.1110001 -1.646 1.776
4.1139998 -1.647 1.7690001
4.105 -1.643 1.756
4.112 -1.646 1.75
4.1220002 -1.65 1.7460001
4.1209998 -1.65 1.7359999
4.1110001 -1.646 1.723
4.1139998 -1.647 1.716
4.1259999 -1.652 1.711
4.1199999 -1.649 1.7
4.1139998 -1.647 1.689
4.125 -1.652 1.6849999
4.1279998 -1.653 1.677
4.1259999 -1.652 1.6670001
4.1329999 -1.655 1.6619999
4.119 -1.649 1.647
4.1259999 -1.652 1.641
4.1199999 -1.65 1.63
4.1350002 -1.656 1.627
4.1160002 -1.648 1.6109999
4.132 -1.654 1.608
4.1209998 -1.65 1.595
4.1199999 -1.65 1.586
4.1399999 -1.658 1.585
4.125 -1.652 1.571
4.1139998 -1.647 1.558
4.112 -1.647 1.549
4.1230001 -1.651 1.544
4.1220002 -1.65 1.535
4.1240001 -1.651 1.527
4.131 -1.654 1.521
4.1160002 -1.648 1.507
4.118 -1.649 1.499
4.1160002 -1.648 1.49
4.1230001 -1.651 1.484
4.1199999 -1.65 1.474
4.1269999 -1.653 1.4680001
4.1290002 -1.653 1.46
4.1240001 -1.651 1.45
4.1220002 -1.65 1.4400001
4.1110001 -1.646 1.428
4.118 -1.649 1.4220001
4.1149998 -1.648 1.413
4.118 -1.649 1.405
4.1110001 -1.646 1.3940001
4.118 -1.649 1.388
4.1160002 -1.648 1.3789999
4.118 -1.649 1.3710001
4.1290002 -1.653 1.3660001
4.1220002 -1.651 1.3559999
4.1110001 -1.646 1.344
4.1220002 -1.651 1.339
4.1110001 -1.646 1.327
4.1269999 -1.653 1.323
4.1240001 -1.652 1.314
4.1259999 -1.653 1.307
4.1240001 -1.652 1.2970001
4.1259999 -1.652 1.29
4.1240001 -1.652 1.281
4.1170001 -1.649 1.27
4.1110001 -1.646 1.26
4.1199999 -1.65 1.255
4.132 -1.655 1.25
4.138 -1.6569999 1.243
4.1269999 -1.653 1.232
4.125 -1.652 1.223
4.1090002 -1.646 1.21
4.1199999 -1.65 1.205
4.118 -1.649 1.196
4.119 -1.65 1.188
4.1170001 -1.649 1.179
4.119 -1.65 1.171
4.1339998 -1.656 1.1670001
4.132 -1.655 1.158
4.125 -1.652 1.148
4.118 -1.649 1.138
4.1279998 -1.654 1.133
4.1209998 -1.651 1.123
4.132 -1.655 1.117
4.1290002 -1.654 1.108
4.1129999 -1.648 1.096
4.1370001 -1.6569999 1.094
4.1209998 -1.651 1.082
4.132 -1.655 1.076
4.1290002 -1.654 1.067
4.1220002 -1.651 1.057
4.1240001 -1.652 1.05
4.125 -1.653 1.0420001
4.1360002 -1.6569999 1.036
4.1329999 -1.656 1.028
4.1300001 -1.654 1.0190001
4.1230001 -1.651 1.0089999
4.1430001 -1.659 1.005
4.1300001 -1.654 0.99400002
4.1370001 -1.6569999 0.98799998
4.1339998 -1.656 0.97899997
4.1170001 -1.649 0.96700001
4.1329999 -1.655 0.96200001
4.1339998 -1.656 0.95499998
4.1209998 -1.651 0.94400001
4.132 -1.655 0.93800002
4.1300001 -1.654 0.92900002
4.1220002 -1.651 0.92000002
4.118 -1.65 0.91100001
4.138 -1.658 0.90700001
4.1350002 -1.6569999 0.89899999
4.1279998 -1.654 0.889
4.1160002 -1.649 0.87800002
4.1329999 -1.656 0.87400001
4.1059999 -1.645 0.86000001
4.132 -1.655 0.85799998
4.1430001 -1.66 0.852
4.125 -1.653 0.83999997
4.131 -1.655 0.833
4.125 -1.653 0.824
4.1269999 -1.653 0.81599998
4.1399999 -1.659 0.81099999
4.131 -1.655 0.801
4.131 -1.655 0.79299998
4.1269999 -1.654 0.78500003
4.1329999 -1.656 0.778
4.1420002 -1.659 0.77100003
4.1230001 -1.652 0.75999999
4.151 -1.663 0.75700003
4.1279998 -1.654 0.745
4.1469998 -1.661 0.74000001
4.1259999 -1.653 0.72899997
4.1279998 -1.654 0.72100002
4.1430001 -1.66 0.71600002
4.1440001 -1.66 0.708
4.1259999 -1.653 0.69700003
4.118 -1.65 0.68800002
4.1420002 -1.659 0.68400002
4.138 -1.658 0.67500001
4.1300001 -1.655 0.66600001
4.1370001 -1.658 0.65899998
4.1409998 -1.659 0.65200001
4.1440001 -1.66 0.64499998
4.1479998 -1.6619999 0.63700002
4.131 -1.655 0.62699997
4.125 -1.653 0.61799997
4.138 -1.658 0.61199999
4.1259999 -1.653 0.602
4.1389999 -1.658 0.59600002
4.1430001 -1.66 0.58899999
4.1230001 -1.652 0.57800001
4.1290002 -1.654 0.57099998
4.1399999 -1.659 0.565
4.1399999 -1.659 0.55699998
4.1370001 -1.658 0.54900002
4.1329999 -1.656 0.54100001
4.1350002 -1.6569999 0.53299999
4.1389999 -1.659 0.52600002
4.1350002 -1.6569999 0.51700002
4.1360002 -1.658 0.50999999
4.1370001 -1.658 0.50199997
4.138 -1.658 0.49399999
4.1440001 -1.661 0.48699999
4.158 -1.666 0.48100001
4.1139998 -1.649 0.46799999
4.1279998 -1.655 0.46200001
4.1500001 -1.663 0.456
4.1329999 -1.6569999 0.447
4.1440001 -1.661 0.44
4.1300001 -1.655 0.43099999
4.1389999 -1.659 0.42399999
4.1350002 -1.6569999 0.41600001
4.132 -1.656 0.40799999
4.1409998 -1.66 0.40099999
4.125 -1.653 0.391
4.1440001 -1.661 0.38499999
4.158 -1.6670001 0.37900001
4.1409998 -1.66 0.36899999
4.1409998 -1.66 0.361
4.1329999 -1.6569999 0.35299999
4.151 -1.664 0.347
4.1240001 -1.653 0.33700001
4.1430001 -1.661 0.33000001
4.1350002 -1.658 0.322
4.1259999 -1.654 0.31400001
4.1409998 -1.66 0.30700001
4.1360002 -1.658 0.29899999
4.145 -1.661 0.292
4.138 -1.659 0.28299999
4.1329999 -1.6569999 0.27500001
4.138 -1.659 0.26800001
4.1290002 -1.655 0.259
4.152 -1.664 0.25299999
4.1430001 -1.661 0.245
4.1230001 -1.653 0.236
4.1409998 -1.66 0.229
4.1589999 -1.6670001 0.222
4.1409998 -1.66 0.214
4.1360002 -1.658 0.206
4.1399999 -1.66 0.198
4.145 -1.6619999 0.191
4.1430001 -1.661 0.183
4.1459999 -1.6619999 0.175
4.151 -1.664 0.167
4.1339998 -1.6569999 0.15899999
4.1329999 -1.6569999 0.15099999
4.1529999 -1.665 0.14399999
4.1479998 -1.663 0.13600001
4.1339998 -1.6569999 0.12800001
4.1430001 -1.661 0.121
4.152 -1.665 0.113
4.1479998 -1.663 0.105
4.1430001 -1.661 0.097000003
4.1469998 -1.663 0.090000004
4.1399999 -1.66 0.082000002
4.1469998 -1.663 0.074000001
4.1490002 -1.664 0.066
4.1409998 -1.66 0.057999998
4.1399999 -1.66 0.050999999
4.1430001 -1.661 0.043000001
4.1859999 -1.666 2.8840001
4.2030001 -1.673 2.8729999
4.1789999 -1.664 2.813
4.1880002 -1.6670001 2.7980001
4.1890001 -1.6670001 2.7869999
4.1690001 -1.659 2.763
4.145 -1.65 2.737
4.1599998 -1.656 2.7360001
4.1269999 -1.643 2.704
4.1669998 -1.659 2.7190001
4.1329999 -1.645 2.6860001
4.1760001 -1.6619999 2.704
4.1690001 -1.66 2.6889999
4.151 -1.652 2.6659999
4.145 -1.65 2.652
4.1300001 -1.6440001 2.632
4.1669998 -1.659 2.645
4.132 -1.645 2.612
4.151 -1.653 2.6140001
4.099 -1.632 2.5710001
4.1350002 -1.646 2.5829999
4.1220002 -1.641 2.5650001
4.1100001 -1.636 2.5469999
4.1170001 -1.6390001 2.5409999
4.1160002 -1.6390001 2.53
4.1110001 -1.637 2.517
4.119 -1.64 2.5120001
4.1339998 -1.646 2.51
4.125 -1.642 2.4949999
4.1259999 -1.643 2.4849999
4.1220002 -1.641 2.4719999
4.138 -1.647 2.4719999
4.1259999 -1.643 2.4549999
4.1209998 -1.641 2.4419999
4.1300001 -1.6440001 2.437
4.1240001 -1.642 2.424
4.1389999 -1.648 2.4219999
4.1259999 -1.643 2.405
4.1139998 -1.638 2.388
4.125 -1.643 2.3840001
4.1240001 -1.642 2.3740001
4.131 -1.645 2.368
4.1240001 -1.642 2.3540001
4.138 -1.648 2.352
4.1209998 -1.641 2.3329999
4.1230001 -1.642 2.3239999
4.131 -1.645 2.319
4.138 -1.648 2.312
4.1240001 -1.642 2.2950001
4.1240001 -1.642 2.2850001
4.1360002 -1.647 2.2820001
4.1199999 -1.641 2.2639999
4.1370001 -1.647 2.263
4.119 -1.64 2.244
4.1230001 -1.642 2.2360001
4.125 -1.643 2.227
4.1300001 -1.645 2.22
4.1339998 -1.646 2.2130001
4.1290002 -1.6440001 2.201
4.1160002 -1.6390001 2.184
4.1149998 -1.6390001 2.174
4.1160002 -1.6390001 2.165
4.1079998 -1.636 2.151
4.1199999 -1.641 2.148
4.125 -1.643 2.141
4.1170001 -1.6390001 2.1270001
4.1279998 -1.6440001 2.1229999
4.1240001 -1.642 2.112
4.1269999 -1.643 2.1040001
4.1259999 -1.643 2.0940001
4.1209998 -1.641 2.082
4.1160002 -1.6390001 2.0699999
4.1110001 -1.637 2.0580001
4.119 -1.64 2.053
4.118 -1.64 2.043
4.1170001 -1.6390001 2.033
4.112 -1.637 2.0209999
4.1230001 -1.642 2.0179999
4.1230001 -1.642 2.0079999
4.1090002 -1.636 1.992
4.1110001 -1.637 1.984
4.1220002 -1.642 1.98
4.1129999 -1.638 1.966
4.1199999 -1.641 1.961
4.1160002 -1.6390001 1.95
4.1149998 -1.6390001 1.9400001
4.118 -1.64 1.932
4.1170001 -1.64 1.923
4.1160002 -1.6390001 1.913
4.119 -1.641 1.905
4.1139998 -1.638 1.8940001
4.112 -1.638 1.8839999
4.1199999 -1.641 1.878
4.119 -1.64 1.869
4.1220002 -1.642 1.8609999
4.1030002 -1.6339999 1.8430001
4.1149998 -1.6390001 1.84
4.1090002 -1.637 1.8279999
4.1079998 -1.636 1.819
4.1149998 -1.6390001 1.813
4.118 -1.64 1.8049999
4.1339998 -1.647 1.803
4.1149998 -1.6390001 1.786
4.1139998 -1.6390001 1.776
4.1170001 -1.64 1.7690001
4.112 -1.638 1.758
4.1149998 -1.6390001 1.75
4.1090002 -1.637 1.739
4.1030002 -1.6339999 1.727
4.119 -1.641 1.725
4.1209998 -1.642 1.717
4.1290002 -1.645 1.711
4.1230001 -1.642 1.7
4.1170001 -1.64 1.689
4.1110001 -1.637 1.678
4.118 -1.64 1.6720001
4.1160002 -1.64 1.6619999
4.1149998 -1.6390001 1.653
4.1170001 -1.64 1.645
4.1290002 -1.645 1.641
4.118 -1.64 1.628
4.112 -1.638 1.617
4.1230001 -1.643 1.613
4.1170001 -1.64 1.601
4.1240001 -1.643 1.595
4.118 -1.64 1.584
4.1209998 -1.641 1.577
4.119 -1.641 1.567
4.1300001 -1.645 1.563
4.1020002 -1.6339999 1.544
4.118 -1.64 1.541
4.1199999 -1.641 1.533
4.131 -1.646 1.529
4.125 -1.643 1.518
4.118 -1.64 1.506
4.112 -1.638 1.4960001
4.119 -1.641 1.49
4.1170001 -1.64 1.4809999
4.1199999 -1.641 1.473
4.1129999 -1.6390001 1.462
4.1160002 -1.64 1.454
4.1129999 -1.6390001 1.4450001
4.1199999 -1.642 1.439
4.105 -1.635 1.425
4.125 -1.643 1.423
4.1230001 -1.643 1.414
4.1209998 -1.642 1.405
4.1230001 -1.643 1.397
4.1209998 -1.642 1.388
4.118 -1.641 1.3789999
4.1209998 -1.642 1.3710001
4.1209998 -1.642 1.363
4.1030002 -1.635 1.348
4.1230001 -1.643 1.347
4.1160002 -1.64 1.336
4.1230001 -1.643 1.33
4.119 -1.641 1.3200001
4.131 -1.646 1.3150001
4.1240001 -1.643 1.3049999
4.118 -1.641 1.295
4.1240001 -1.643 1.288
4.1350002 -1.648 1.283
4.1160002 -1.64 1.2690001
4.1220002 -1.642 1.262
4.1160002 -1.64 1.252
4.118 -1.641 1.245
4.1149998 -1.64 1.2359999
4.1220002 -1.642 1.229
4.1240001 -1.643 1.222
4.1170001 -1.64 1.211
4.1230001 -1.643 1.205
4.1300001 -1.645 1.198
4.1360002 -1.648 1.192
4.1290002 -1.645 1.182
4.1269999 -1.6440001 1.173
4.1129999 -1.6390001 1.161
4.1350002 -1.648 1.158
4.1230001 -1.643 1.147
4.125 -1.6440001 1.1390001
4.1220002 -1.643 1.13
4.1279998 -1.645 1.124
4.1220002 -1.642 1.114
4.1370001 -1.648 1.11
4.1069999 -1.637 1.0930001
4.1220002 -1.643 1.089
4.1199999 -1.642 1.08
4.1350002 -1.648 1.076
4.132 -1.647 1.067
4.1339998 -1.647 1.0599999
4.1399999 -1.65 1.053
4.145 -1.652 1.046
4.1339998 -1.647 1.035
4.1230001 -1.643 1.024
4.1370001 -1.649 1.02
4.1199999 -1.642 1.007
4.1360002 -1.649 1.003
4.1279998 -1.645 0.99299997
4.1259999 -1.6440001 0.98500001
4.1279998 -1.645 0.977
4.1339998 -1.648 0.97000003
4.1300001 -1.646 0.96100003
4.1269999 -1.645 0.95200002
4.119 -1.642 0.94300002
4.1350002 -1.648 0.93800002
4.131 -1.646 0.92900002
4.1230001 -1.643 0.91900003
4.1459999 -1.653 0.91600001
4.1350002 -1.648 0.90600002
4.1160002 -1.64 0.89399999
4.1220002 -1.643 0.88700002
4.132 -1.647 0.88099998
4.132 -1.647 0.87300003
4.1389999 -1.65 0.866
4.1350002 -1.648 0.85799998
4.1360002 -1.649 0.85000002
4.1339998 -1.648 0.84100002
4.1300001 -1.646 0.833
4.131 -1.647 0.82499999
4.1409998 -1.651 0.81900001
4.1329999 -1.647 0.80900002
4.1399999 -1.65 0.80299997
4.1240001 -1.6440001 0.792
4.1370001 -1.649 0.78600001
4.1389999 -1.65 0.778
4.1360002 -1.649 0.76999998
4.1459999 -1.653 0.764
4.1339998 -1.648 0.75400001
4.1300001 -1.646 0.745
4.1479998 -1.653 0.74000001
4.131 -1.647 0.72899997
4.151 -1.655 0.72500002
4.1360002 -1.649 0.71399999
4.1329999 -1.648 0.70599997
4.1469998 -1.653 0.69999999
4.1469998 -1.653 0.69199997
4.1259999 -1.645 0.68099999
4.1329999 -1.648 0.67400002
4.1399999 -1.65 0.667
4.1209998 -1.643 0.65600002
4.1399999 -1.65 0.65100002
4.1269999 -1.645 0.64200002
4.1479998 -1.653 0.63700002
4.1350002 -1.648 0.62699997
4.1360002 -1.649 0.61900002
4.1279998 -1.646 0.61000001
4.132 -1.647 0.60299999
4.1370001 -1.649 0.59600002
4.1560001 -1.6569999 0.59100002
4.1360002 -1.649 0.57999998
4.1279998 -1.646 0.57099998
4.1300001 -1.646 0.56300002
4.1339998 -1.648 0.55599999
4.1300001 -1.647 0.54799998
4.1440001 -1.652 0.542
4.132 -1.648 0.53200001
4.1279998 -1.646 0.52399999
4.1350002 -1.649 0.51700002
4.1490002 -1.654 0.51099998
4.1440001 -1.652 0.50199997
4.131 -1.647 0.493
4.1409998 -1.651 0.486
4.1469998 -1.654 0.479
4.1329999 -1.648 0.47
4.1350002 -1.649 0.46200001
4.1300001 -1.647 0.454
4.1469998 -1.653 0.44800001
4.1500001 -1.655 0.44
4.151 -1.655 0.433
4.1430001 -1.652 0.42399999
4.1389999 -1.651 0.41600001
4.131 -1.647 0.40700001
4.1399999 -1.651 0.40000001
4.1360002 -1.65 0.39199999
4.145 -1.653 0.38499999
4.1409998 -1.652 0.377
4.1409998 -1.651 0.36899999
4.151 -1.655 0.36199999
4.1339998 -1.649 0.35299999
4.1269999 -1.646 0.345
4.1440001 -1.653 0.338
4.145 -1.653 0.33000001
4.1399999 -1.651 0.322
4.1589999 -1.659 0.31600001
4.1459999 -1.653 0.30700001
4.1370001 -1.65 0.29899999
4.1440001 -1.653 0.29100001
4.1399999 -1.651 0.28299999
4.1529999 -1.656 0.27599999
4.1360002 -1.65 0.26800001
4.1409998 -1.652 0.25999999
4.1409998 -1.652 0.252
4.1440001 -1.653 0.245
4.1370001 -1.65 0.237
4.1430001 -1.653 0.229
4.1339998 -1.649 0.221
4.1339998 -1.649 0.213
4.1430001 -1.652 0.206
4.1300001 -1.647 0.197
4.1399999 -1.651 0.19
4.1360002 -1.65 0.182
4.1539998 -1.6569999 0.175
4.1360002 -1.65 0.167
4.1490002 -1.655 0.15899999
4.1440001 -1.653 0.15099999
4.1539998 -1.6569999 0.14399999
4.145 -1.653 0.13600001
4.132 -1.648 0.12800001
4.1329999 -1.648 0.12
4.151 -1.656 0.113
4.151 -1.656 0.105
4.1550002 -1.6569999 0.097000003
4.1570001 -1.658 0.090000004
4.1290002 -1.647 0.081
4.151 -1.656 0.074000001
4.1479998 -1.655 0.066
4.1589999 -1.659 0.059
4.1539998 -1.6569999 0.050999999
4.1459999 -1.654 0.043000001
4.145 -1.642 2.964
4.152 -1.6440001 2.9579999
4.1669998 -1.65 2.9579999
4.1589999 -1.647 2.9400001
4.165 -1.649 2.934
4.1700001 -1.651 2.9260001
4.1500001 -1.643 2.901
4.1599998 -1.647 2.8970001
4.171 -1.652 2.8940001
4.1230001 -1.633 2.849
4.1570001 -1.646 2.862
4.1220002 -1.632 2.8269999
4.1459999 -1.642 2.8329999
4.1279998 -1.635 2.809
4.1459999 -1.642 2.8110001
4.1209998 -1.632 2.783
4.1329999 -1.637 2.78
4.1230001 -1.633 2.7620001
4.1170001 -1.63 2.7479999
4.1269999 -1.635 2.744
4.1290002 -1.635 2.7349999
4.1259999 -1.6339999 2.7219999
4.119 -1.631 2.707
4.118 -1.631 2.6960001
4.138 -1.6390001 2.698
4.1170001 -1.631 2.674
4.1230001 -1.633 2.668
4.132 -1.636 2.6619999
4.1290002 -1.635 2.6500001
4.1170001 -1.631 2.632
4.1300001 -1.636 2.6300001
4.1259999 -1.6339999 2.6170001
4.1209998 -1.632 2.6029999
4.1279998 -1.635 2.598
4.1240001 -1.633 2.5840001
4.1290002 -1.635 2.5769999
4.1290002 -1.635 2.5669999
4.1240001 -1.6339999 2.5539999
4.118 -1.631 2.54
4.1209998 -1.632 2.5309999
4.112 -1.6289999 2.516
4.1240001 -1.633 2.513
4.125 -1.6339999 2.503
4.1160002 -1.63 2.487
4.1160002 -1.63 2.477
4.1220002 -1.633 2.471
4.1090002 -1.628 2.4530001
4.1240001 -1.633 2.4519999
4.1149998 -1.63 2.437
4.1110001 -1.6289999 2.424
4.1110001 -1.628 2.414
4.1069999 -1.627 2.402
4.1110001 -1.628 2.3940001
4.1100001 -1.628 2.3840001
4.1100001 -1.628 2.3740001
4.0999999 -1.624 2.358
4.1300001 -1.636 2.3659999
4.1220002 -1.633 2.3510001
4.1160002 -1.63 2.3380001
4.1149998 -1.63 2.3280001
4.1279998 -1.635 2.325
4.1269999 -1.635 2.3139999
4.1220002 -1.633 2.302
4.118 -1.631 2.29
4.1199999 -1.632 2.2809999
4.1160002 -1.631 2.2690001
4.112 -1.6289999 2.2579999
4.119 -1.632 2.2509999
4.1160002 -1.631 2.24
4.118 -1.631 2.2309999
4.1209998 -1.633 2.224
4.1079998 -1.627 2.207
4.1030002 -1.626 2.1949999
4.1110001 -1.6289999 2.1889999
4.1030002 -1.625 2.1760001
4.0939999 -1.622 2.161
4.1059999 -1.627 2.158
4.1129999 -1.63 2.1530001
4.1040001 -1.626 2.138
4.112 -1.6289999 2.1329999
4.1160002 -1.63 2.125
4.119 -1.632 2.1170001
4.1100001 -1.628 2.1029999
4.1170001 -1.631 2.098
4.112 -1.6289999 2.086
4.1160002 -1.631 2.0780001
4.119 -1.632 2.0699999
4.131 -1.637 2.0669999
4.1009998 -1.625 2.0420001
4.1160002 -1.631 2.0409999
4.1199999 -1.632 2.033
4.1059999 -1.627 2.017
4.1090002 -1.628 2.01
4.1079998 -1.628 2
4.1069999 -1.627 1.99
4.1149998 -1.63 1.985
4.118 -1.632 1.977
4.1209998 -1.633 1.969
4.1199999 -1.633 1.959
4.119 -1.632 1.95
4.1100001 -1.628 1.936
4.0999999 -1.625 1.9220001
4.1240001 -1.6339999 1.925
4.1100001 -1.6289999 1.909
4.1090002 -1.628 1.899
4.1209998 -1.633 1.896
4.1199999 -1.632 1.886
4.1230001 -1.6339999 1.878
4.1300001 -1.636 1.872
4.1069999 -1.627 1.853
4.1149998 -1.63 1.847
4.1129999 -1.63 1.8380001
4.1160002 -1.631 1.83
4.1110001 -1.6289999 1.819
4.1090002 -1.628 1.809
4.125 -1.635 1.807
4.1069999 -1.627 1.79
4.1139998 -1.63 1.784
4.1199999 -1.633 1.778
4.1069999 -1.628 1.763
4.1149998 -1.63 1.758
4.1090002 -1.628 1.7460001
4.1199999 -1.633 1.742
4.119 -1.632 1.733
4.1170001 -1.632 1.723
4.1199999 -1.633 1.716
4.132 -1.637 1.711
4.1259999 -1.635 1.7
4.1110001 -1.6289999 1.6849999
4.1220002 -1.6339999 1.681
4.1160002 -1.631 1.67
4.119 -1.632 1.6619999
4.1220002 -1.633 1.655
4.1199999 -1.633 1.645
4.118 -1.632 1.636
4.112 -1.63 1.624
4.1059999 -1.627 1.613
4.1220002 -1.6339999 1.6109999
4.1199999 -1.633 1.601
4.1009998 -1.625 1.585
4.1170001 -1.632 1.5829999
4.119 -1.633 1.575
4.1220002 -1.6339999 1.567
4.1069999 -1.628 1.553
4.1139998 -1.63 1.5470001
4.1209998 -1.633 1.541
4.131 -1.637 1.536
4.1170001 -1.632 1.522
4.1149998 -1.631 1.513
4.1129999 -1.63 1.5039999
4.119 -1.633 1.497
4.1170001 -1.632 1.488
4.1240001 -1.635 1.482
4.1139998 -1.631 1.47
4.125 -1.635 1.465
4.1100001 -1.6289999 1.451
4.1230001 -1.6339999 1.448
4.1230001 -1.6339999 1.439
4.1209998 -1.633 1.4299999
4.1100001 -1.6289999 1.4170001
4.1259999 -1.635 1.414
4.1100001 -1.6289999 1.4
4.112 -1.63 1.393
4.1149998 -1.631 1.385
4.1170001 -1.632 1.377
4.119 -1.633 1.37
4.1209998 -1.6339999 1.362
4.1279998 -1.636 1.3559999
4.1300001 -1.637 1.348
4.1230001 -1.635 1.337
4.1259999 -1.636 1.33
4.118 -1.633 1.319
4.1290002 -1.637 1.314
4.119 -1.633 1.302
4.1160002 -1.632 1.293
4.118 -1.633 1.286
4.1300001 -1.637 1.281
4.119 -1.633 1.2690001
4.1209998 -1.6339999 1.261
4.119 -1.633 1.252
4.125 -1.635 1.2460001
4.118 -1.633 1.2359999
4.125 -1.635 1.229
4.1220002 -1.6339999 1.22
4.1329999 -1.638 1.215
4.1079998 -1.6289999 1.2
4.1240001 -1.635 1.196
4.1170001 -1.632 1.1849999
4.1269999 -1.636 1.1799999
4.1110001 -1.63 1.168
4.131 -1.638 1.165
4.1240001 -1.635 1.155
4.1259999 -1.636 1.147
4.131 -1.638 1.14
4.125 -1.635 1.13
4.132 -1.638 1.124
4.1230001 -1.635 1.113
4.1259999 -1.636 1.1059999
4.119 -1.633 1.096
4.1290002 -1.637 1.09
4.1259999 -1.636 1.081
4.1329999 -1.6390001 1.075
4.1420002 -1.642 1.069
4.145 -1.643 1.062
4.1149998 -1.632 1.046
4.1220002 -1.6339999 1.04
4.1269999 -1.637 1.033
4.1430001 -1.643 1.029
4.1090002 -1.6289999 1.012
4.1240001 -1.635 1.008
4.1389999 -1.641 1.003
4.1360002 -1.64 0.99400002
4.1240001 -1.635 0.98299998
4.1209998 -1.6339999 0.97500002
4.1279998 -1.637 0.96799999
4.1199999 -1.6339999 0.958
4.1170001 -1.633 0.949
4.1139998 -1.631 0.94099998
4.1279998 -1.637 0.93599999
4.152 -1.646 0.93300003
4.145 -1.6440001 0.92400002
4.1360002 -1.64 0.91399997
4.1209998 -1.6339999 0.90200001
4.132 -1.6390001 0.89700001
4.1240001 -1.636 0.88700002
4.1350002 -1.64 0.88099998
4.131 -1.638 0.87199998
4.132 -1.6390001 0.86400002
4.1370001 -1.641 0.85799998
4.131 -1.638 0.84799999
4.1269999 -1.637 0.83899999
4.132 -1.6390001 0.83200002
4.138 -1.641 0.82599998
4.131 -1.6390001 0.81599998
4.1329999 -1.6390001 0.80900002
4.138 -1.641 0.80199999
4.1339998 -1.64 0.79299998
4.1399999 -1.642 0.78600001
4.1409998 -1.642 0.778
4.1420002 -1.643 0.76999998
4.1389999 -1.641 0.76200002
4.1430001 -1.643 0.755
4.1459999 -1.6440001 0.74699998
4.1389999 -1.641 0.73799998
4.1350002 -1.64 0.72899997
4.1529999 -1.647 0.72500002
4.1209998 -1.6339999 0.71100003
4.1409998 -1.643 0.70700002
4.1360002 -1.64 0.69800001
4.1370001 -1.641 0.69
4.1350002 -1.64 0.68199998
4.1399999 -1.642 0.67500001
4.132 -1.6390001 0.66600001
4.1329999 -1.6390001 0.65799999
4.1440001 -1.6440001 0.65200001
4.1490002 -1.646 0.64499998
4.1279998 -1.637 0.63300002
4.1360002 -1.64 0.62699997
4.1430001 -1.643 0.62
4.1170001 -1.633 0.60799998
4.1399999 -1.642 0.60399997
4.1490002 -1.646 0.597
4.1389999 -1.642 0.588
4.1420002 -1.643 0.57999998
4.1350002 -1.64 0.57200003
4.132 -1.6390001 0.56300002
4.132 -1.6390001 0.55500001
4.1350002 -1.64 0.54799998
4.1430001 -1.6440001 0.54100001
4.1300001 -1.638 0.53200001
4.1479998 -1.645 0.52600002
4.1500001 -1.646 0.51800001
4.132 -1.6390001 0.50800002
4.1149998 -1.633 0.49900001
4.152 -1.647 0.495
4.1490002 -1.646 0.48699999
4.1350002 -1.641 0.47799999
4.131 -1.6390001 0.46900001
4.1370001 -1.641 0.46200001
4.151 -1.647 0.456
4.1430001 -1.6440001 0.447
4.1490002 -1.646 0.44
4.1440001 -1.6440001 0.43200001
4.158 -1.65 0.42500001
4.1539998 -1.648 0.417
4.132 -1.64 0.40700001
4.1329999 -1.64 0.39899999
4.138 -1.642 0.39199999
4.1620002 -1.651 0.38600001
4.1490002 -1.646 0.377
4.1459999 -1.645 0.36899999
4.1399999 -1.643 0.361
4.1550002 -1.649 0.354
4.1430001 -1.6440001 0.34599999
4.1389999 -1.642 0.33700001
4.138 -1.642 0.33000001
4.1479998 -1.646 0.32300001
4.145 -1.645 0.315
4.1370001 -1.642 0.30599999
4.151 -1.647 0.29899999
4.1409998 -1.643 0.29100001
4.132 -1.64 0.28299999
4.1420002 -1.643 0.27599999
4.152 -1.647 0.26800001
4.1329999 -1.64 0.259
4.1350002 -1.641 0.252
4.1440001 -1.6440001 0.245
4.1490002 -1.646 0.237
4.1329999 -1.64 0.228
4.1370001 -1.642 0.221
4.1550002 -1.649 0.214
4.1490002 -1.646 0.206
4.151 -1.647 0.198
4.1469998 -1.646 0.19
4.1420002 -1.6440001 0.182
4.1469998 -1.646 0.175
4.138 -1.642 0.167
4.1350002 -1.641 0.15899999
4.131 -1.6390001 0.15099999
4.1440001 -1.645 0.14399999
4.1560001 -1.649 0.13600001
4.1539998 -1.648 0.12800001
4.1490002 -1.647 0.121
4.1409998 -1.6440001 0.113
4.1409998 -1.6440001 0.105
4.1479998 -1.646 0.097000003
4.1490002 -1.647 0.089000002
4.1490002 -1.647 0.082000002
4.1440001 -1.645 0.074000001
4.1560001 -1.649 0.066
4.145 -1.645 0.057999998
4.151 -1.647 0.050999999
4.1440001 -1.645 0.043000001
4.125 -1.625 2.97
4.125 -1.625 2.9590001
4.1360002 -1.63 2.9560001
4.1269999 -1.626 2.938
4.1269999 -1.626 2.927
4.131 -1.627 2.918
4.131 -1.628 2.908
4.131 -1.627 2.8959999
4.1350002 -1.6289999 2.888
4.1139998 -1.6210001 2.8629999
4.1350002 -1.6289999 2.8670001
4.1409998 -1.631 2.8599999
4.1300001 -1.627 2.8410001
4.132 -1.628 2.832
4.132 -1.628 2.8210001
4.1269999 -1.626 2.8069999
4.1170001 -1.622 2.789
4.119 -1.623 2.779
4.1279998 -1.626 2.7750001
4.1170001 -1.622 2.757
4.1209998 -1.624 2.7490001
4.1199999 -1.623 2.7379999
4.132 -1.628 2.7349999
4.1129999 -1.6210001 2.7119999
4.1209998 -1.624 2.707
4.1220002 -1.624 2.6960001
4.118 -1.623 2.6830001
4.1269999 -1.626 2.6789999
4.1170001 -1.622 2.6619999
4.1220002 -1.624 2.654
4.112 -1.62 2.638
4.125 -1.625 2.635
4.1230001 -1.624 2.6229999
4.1160002 -1.622 2.609
4.1069999 -1.618 2.5929999
4.119 -1.623 2.5899999
4.119 -1.623 2.5799999
4.119 -1.623 2.569
4.112 -1.62 2.5539999
4.1209998 -1.624 2.55
4.1300001 -1.627 2.5450001
4.1220002 -1.624 2.53
4.1220002 -1.624 2.52
4.1160002 -1.622 2.506
4.1139998 -1.6210001 2.4949999
4.1059999 -1.618 2.48
4.1129999 -1.6210001 2.474
4.1100001 -1.62 2.4619999
4.1129999 -1.6210001 2.454
4.1079998 -1.619 2.441
4.098 -1.615 2.425
4.1059999 -1.618 2.4189999
4.1009998 -1.6160001 2.4070001
4.1139998 -1.6210001 2.404
4.105 -1.618 2.3889999
4.1129999 -1.6210001 2.3840001
4.1170001 -1.622 2.3759999
4.1090002 -1.619 2.362
4.1209998 -1.624 2.359
4.1240001 -1.625 2.3510001
4.1209998 -1.624 2.339
4.1040001 -1.617 2.3199999
4.112 -1.6210001 2.3139999
4.112 -1.62 2.3039999
4.119 -1.623 2.299
4.1069999 -1.618 2.2820001
4.1059999 -1.618 2.2720001
4.1220002 -1.625 2.2709999
4.105 -1.618 2.2520001
4.1209998 -1.624 2.2509999
4.125 -1.626 2.244
4.1079998 -1.619 2.2249999
4.112 -1.62 2.217
4.1069999 -1.619 2.2049999
4.099 -1.615 2.191
4.1100001 -1.62 2.187
4.112 -1.6210001 2.1789999
4.1090002 -1.62 2.168
4.0999999 -1.6160001 2.154
4.112 -1.6210001 2.1500001
4.1110001 -1.6210001 2.1400001
4.1110001 -1.62 2.131
4.1139998 -1.622 2.1229999
4.105 -1.618 2.109
4.1040001 -1.618 2.099
4.112 -1.6210001 2.0929999
4.1149998 -1.622 2.086
4.1059999 -1.618 2.072
4.105 -1.618 2.062
4.1040001 -1.618 2.052
4.099 -1.6160001 2.04
4.1149998 -1.622 2.039
4.118 -1.623 2.0309999
4.112 -1.6210001 2.0190001
4.1079998 -1.619 2.0079999
4.1110001 -1.6210001 2
4.1059999 -1.619 1.988
4.1139998 -1.622 1.982
4.1170001 -1.623 1.975
4.0939999 -1.614 1.955
4.1020002 -1.617 1.949
4.105 -1.618 1.942
4.112 -1.6210001 1.936
4.1110001 -1.6210001 1.926
4.1139998 -1.622 1.919
4.1220002 -1.625 1.913
4.112 -1.6210001 1.899
4.1110001 -1.6210001 1.89
4.1139998 -1.622 1.882
4.1209998 -1.625 1.876
4.1240001 -1.626 1.869
4.1100001 -1.62 1.853
4.1129999 -1.622 1.845
4.112 -1.6210001 1.836
4.1110001 -1.6210001 1.826
4.1090002 -1.62 1.817
4.1209998 -1.625 1.813
4.1110001 -1.6210001 1.799
4.1139998 -1.622 1.7920001
4.1209998 -1.625 1.786
4.112 -1.6210001 1.773
4.1220002 -1.625 1.7690001
4.1240001 -1.626 1.761
4.1160002 -1.623 1.748
4.1300001 -1.628 1.745
4.1259999 -1.627 1.735
4.1240001 -1.626 1.725
4.1100001 -1.62 1.71
4.1129999 -1.6210001 1.702
4.1199999 -1.624 1.697
4.118 -1.624 1.687
4.1209998 -1.625 1.679
4.1149998 -1.622 1.668
4.118 -1.623 1.66
4.1290002 -1.628 1.656
4.1269999 -1.627 1.647
4.1129999 -1.622 1.632
4.1149998 -1.623 1.624
4.1269999 -1.627 1.62
4.112 -1.6210001 1.6059999
4.1100001 -1.6210001 1.596
4.1209998 -1.625 1.592
4.1240001 -1.626 1.584
4.118 -1.624 1.573
4.1160002 -1.623 1.564
4.118 -1.624 1.556
4.1209998 -1.625 1.549
4.1230001 -1.626 1.541
4.1300001 -1.6289999 1.535
4.1149998 -1.623 1.521
4.1220002 -1.625 1.5140001
4.1160002 -1.623 1.5039999
4.1220002 -1.626 1.497
4.1160002 -1.623 1.487
4.1230001 -1.626 1.4809999
4.1209998 -1.625 1.471
4.1230001 -1.626 1.464
4.1170001 -1.624 1.4529999
4.119 -1.624 1.4450001
4.1079998 -1.62 1.433
4.1279998 -1.628 1.431
4.1129999 -1.622 1.4170001
4.1009998 -1.617 1.405
4.0999999 -1.617 1.396
4.1199999 -1.625 1.3940001
4.1259999 -1.627 1.388
4.1199999 -1.625 1.377
4.1220002 -1.626 1.37
4.1240001 -1.627 1.362
4.1129999 -1.622 1.35
4.1149998 -1.623 1.342
4.1129999 -1.622 1.3329999
4.1279998 -1.628 1.33
4.112 -1.622 1.316
4.1110001 -1.622 1.308
4.1220002 -1.626 1.302
4.1110001 -1.622 1.291
4.1209998 -1.626 1.286
4.1059999 -1.62 1.273
4.125 -1.627 1.27
4.1240001 -1.627 1.261
4.1300001 -1.6289999 1.255
4.1230001 -1.626 1.245
4.1209998 -1.626 1.2359999
4.1269999 -1.628 1.229
4.125 -1.627 1.22
4.1220002 -1.626 1.211
4.1240001 -1.627 1.2029999
4.125 -1.627 1.196
4.1279998 -1.628 1.188
4.1389999 -1.633 1.183
4.1230001 -1.626 1.17
4.1209998 -1.625 1.161
4.1230001 -1.626 1.153
4.1240001 -1.627 1.146
4.131 -1.6289999 1.1390001
4.1440001 -1.635 1.135
4.125 -1.627 1.1210001
4.1269999 -1.628 1.114
4.1329999 -1.63 1.107
4.1220002 -1.626 1.096
4.1269999 -1.628 1.089
4.1300001 -1.6289999 1.082
4.1230001 -1.626 1.072
4.138 -1.632 1.067
4.131 -1.6289999 1.057
4.1100001 -1.6210001 1.044
4.1339998 -1.631 1.0420001
4.131 -1.63 1.033
4.1329999 -1.63 1.025
4.1430001 -1.635 1.02
4.1220002 -1.626 1.007
4.131 -1.63 1.001
4.1259999 -1.628 0.991
4.1090002 -1.6210001 0.97899997
4.1230001 -1.627 0.97399998
4.1339998 -1.631 0.96899998
4.132 -1.63 0.95999998
4.1329999 -1.63 0.95200002
4.1290002 -1.6289999 0.94300002
4.1350002 -1.631 0.93699998
4.1399999 -1.633 0.93000001
4.1339998 -1.631 0.92000002
4.1269999 -1.628 0.91100001
4.1199999 -1.625 0.90100002
4.1459999 -1.636 0.89899999
4.1389999 -1.633 0.889
4.1209998 -1.626 0.87699997
4.1290002 -1.6289999 0.87099999
4.1259999 -1.628 0.86299998
4.1279998 -1.6289999 0.85500002
4.125 -1.628 0.84600002
4.131 -1.63 0.83999997
4.132 -1.63 0.83200002
4.1329999 -1.631 0.824
4.1350002 -1.632 0.81599998
4.131 -1.63 0.80800003
4.1339998 -1.631 0.80000001
4.1420002 -1.6339999 0.79400003
4.112 -1.623 0.77999997
4.1420002 -1.6339999 0.778
4.132 -1.63 0.76800001
4.1409998 -1.6339999 0.76200002
4.1360002 -1.632 0.75300002
4.1490002 -1.637 0.74699998
4.1420002 -1.6339999 0.73799998
4.1339998 -1.631 0.72899997
4.1420002 -1.6339999 0.722
4.1389999 -1.633 0.71399999
4.138 -1.633 0.70599997
4.1269999 -1.6289999 0.69599998
4.1389999 -1.633 0.69
4.1409998 -1.6339999 0.68199998
4.1550002 -1.64 0.67699999
4.1479998 -1.637 0.66799998
4.1409998 -1.6339999 0.65899998
4.1290002 -1.6289999 0.64899999
4.1490002 -1.637 0.64399999
4.1209998 -1.626 0.63200003
4.1300001 -1.63 0.625
4.1409998 -1.6339999 0.61900002
4.1469998 -1.637 0.61199999
4.1360002 -1.632 0.60299999
4.1430001 -1.635 0.59600002
4.1440001 -1.636 0.588
4.1459999 -1.636 0.58099997
4.138 -1.633 0.57200003
4.1290002 -1.6289999 0.56199998
4.1479998 -1.637 0.55699998
4.1479998 -1.637 0.54900002
4.1490002 -1.638 0.542
4.1430001 -1.635 0.53299999
4.1360002 -1.632 0.52399999
4.1350002 -1.632 0.51599997
4.1399999 -1.6339999 0.509
4.1440001 -1.636 0.50199997
4.1430001 -1.635 0.49399999
4.1370001 -1.633 0.48500001
4.1430001 -1.635 0.47799999
4.158 -1.641 0.472
4.1370001 -1.633 0.46200001
4.1370001 -1.633 0.454
4.1420002 -1.635 0.447
4.1370001 -1.633 0.43799999
4.1430001 -1.635 0.43099999
4.1430001 -1.635 0.42300001
4.1389999 -1.6339999 0.41499999
4.1529999 -1.6390001 0.40900001
4.1399999 -1.6339999 0.40000001
4.1360002 -1.633 0.391
4.1399999 -1.6339999 0.384
4.1389999 -1.6339999 0.37599999
4.1399999 -1.6339999 0.36899999
4.1350002 -1.633 0.36000001
4.1440001 -1.636 0.35299999
4.1230001 -1.628 0.34400001
4.1459999 -1.637 0.338
4.1420002 -1.635 0.33000001
4.1430001 -1.635 0.322
4.1490002 -1.638 0.315
4.1620002 -1.643 0.308
4.1490002 -1.638 0.29899999
4.158 -1.641 0.292
4.1550002 -1.64 0.28400001
4.1339998 -1.632 0.27500001
4.1290002 -1.63 0.26699999
4.1290002 -1.63 0.259
4.1420002 -1.635 0.252
4.1370001 -1.633 0.244
4.1570001 -1.641 0.237
4.1560001 -1.641 0.229
4.1290002 -1.63 0.22
4.1440001 -1.636 0.213
4.1350002 -1.633 0.205
4.1440001 -1.636 0.198
4.1409998 -1.635 0.19
4.1339998 -1.632 0.182
4.1459999 -1.637 0.175
4.1339998 -1.632 0.16599999
4.138 -1.6339999 0.15899999
4.1409998 -1.635 0.15099999
4.1329999 -1.632 0.14300001
4.1339998 -1.632 0.13500001
4.131 -1.631 0.12800001
4.1490002 -1.638 0.12
4.1440001 -1.636 0.113
4.1539998 -1.64 0.105
4.131 -1.631 0.097000003
4.1409998 -1.635 0.089000002
4.1389999 -1.6339999 0.081
4.1479998 -1.638 0.074000001
4.131 -1.631 0.066
4.1490002 -1.638 0.057999998
4.131 -1.631 0.050000001
4.152 -1.6390001 0.043000001
4.118 -1.614 2.974
4.119 -1.615 2.9630001
4.1129999 -1.612 2.948
4.1209998 -1.615 2.9430001
4.1209998 -1.6160001 2.9319999
4.1149998 -1.613 2.9159999
4.118 -1.614 2.9070001
4.1209998 -1.615 2.8989999
4.1149998 -1.613 2.8840001
4.1139998 -1.613 2.872
4.1209998 -1.615 2.8659999
4.119 -1.615 2.8540001
4.1160002 -1.613 2.8410001
4.1329999 -1.62 2.8410001
4.1139998 -1.612 2.8169999
4.1240001 -1.6160001 2.813
4.1199999 -1.615 2.8
4.1220002 -1.6160001 2.79
4.1059999 -1.609 2.7690001
4.1129999 -1.612 2.763
4.1100001 -1.6109999 2.75
4.1110001 -1.6109999 2.74
4.1040001 -1.609 2.7249999
4.1129999 -1.612 2.72
4.112 -1.612 2.7090001
4.1240001 -1.617 2.707
4.1170001 -1.614 2.691
4.1170001 -1.614 2.681
4.1059999 -1.609 2.6630001
4.1139998 -1.613 2.658
4.1059999 -1.61 2.642
4.1040001 -1.609 2.631
4.105 -1.609 2.6210001
4.1129999 -1.613 2.6159999
4.1110001 -1.612 2.6040001
4.1230001 -1.617 2.6010001
4.1199999 -1.615 2.589
4.0999999 -1.608 2.566
4.1160002 -1.614 2.566
4.1079998 -1.6109999 2.55
4.1199999 -1.615 2.5480001
4.1030002 -1.608 2.527
4.112 -1.612 2.523
4.1090002 -1.6109999 2.51
4.1199999 -1.6160001 2.507
4.1090002 -1.6109999 2.49
4.1129999 -1.613 2.4820001
4.1129999 -1.613 2.4719999
4.105 -1.61 2.457
4.105 -1.609 2.447
4.1129999 -1.613 2.4419999
4.105 -1.609 2.427
4.1209998 -1.6160001 2.427
4.1170001 -1.614 2.414
4.112 -1.612 2.402
4.112 -1.612 2.392
4.1090002 -1.6109999 2.3800001
4.1079998 -1.6109999 2.3699999
4.1079998 -1.6109999 2.3599999
4.112 -1.612 2.352
4.1079998 -1.6109999 2.3399999
4.1030002 -1.609 2.3269999
4.119 -1.615 2.3269999
4.119 -1.615 2.3169999
4.1020002 -1.609 2.2969999
4.1139998 -1.613 2.2939999
4.118 -1.615 2.2869999
4.1129999 -1.613 2.2739999
4.1090002 -1.6109999 2.2620001
4.1040001 -1.609 2.25
4.1079998 -1.6109999 2.2420001
4.1110001 -1.612 2.2349999
4.118 -1.615 2.2290001
4.118 -1.615 2.2190001
4.1100001 -1.6109999 2.2049999
4.119 -1.615 2.2
4.1009998 -1.608 2.181
4.1040001 -1.609 2.1730001
4.1129999 -1.613 2.168
4.1230001 -1.617 2.164
4.1069999 -1.61 2.1459999
4.1059999 -1.61 2.1359999
4.118 -1.615 2.1329999
4.1209998 -1.6160001 2.125
4.1160002 -1.614 2.1129999
4.1110001 -1.612 2.1010001
4.1059999 -1.61 2.089
4.1100001 -1.612 2.082
4.1090002 -1.6109999 2.072
4.1030002 -1.609 2.059
4.1069999 -1.6109999 2.052
4.119 -1.615 2.049
4.1129999 -1.613 2.036
4.112 -1.613 2.027
4.1160002 -1.614 2.0190001
4.118 -1.615 2.0109999
4.1059999 -1.61 1.9960001
4.1090002 -1.6109999 1.988
4.112 -1.613 1.98
4.1030002 -1.609 1.967
4.1100001 -1.612 1.961
4.1170001 -1.615 1.955
4.125 -1.618 1.95
4.1110001 -1.612 1.934
4.1139998 -1.614 1.926
4.1129999 -1.613 1.9170001
4.112 -1.613 1.9069999
4.1149998 -1.614 1.899
4.105 -1.61 1.886
4.1209998 -1.6160001 1.8839999
4.1069999 -1.6109999 1.868
4.1139998 -1.614 1.863
4.1090002 -1.612 1.851
4.1199999 -1.6160001 1.847
4.1149998 -1.614 1.836
4.1220002 -1.617 1.83
4.1160002 -1.615 1.819
4.119 -1.6160001 1.811
4.1139998 -1.614 1.799
4.1160002 -1.615 1.7920001
4.1149998 -1.614 1.7819999
4.1020002 -1.609 1.767
4.1129999 -1.613 1.763
4.1110001 -1.613 1.7539999
4.1199999 -1.6160001 1.749
4.1240001 -1.618 1.742
4.1199999 -1.6160001 1.7309999
4.1139998 -1.614 1.72
4.1129999 -1.613 1.71
4.1149998 -1.614 1.702
4.1139998 -1.614 1.693
4.1209998 -1.6160001 1.687
4.1110001 -1.612 1.674
4.1079998 -1.6109999 1.664
4.112 -1.613 1.6569999
4.1139998 -1.614 1.649
4.1300001 -1.62 1.647
4.1240001 -1.618 1.636
4.118 -1.615 1.624
4.1160002 -1.615 1.615
4.1230001 -1.617 1.609
4.1079998 -1.612 1.595
4.1110001 -1.613 1.587
4.1139998 -1.614 1.579
4.1199999 -1.6160001 1.573
4.119 -1.6160001 1.564
4.1300001 -1.62 1.5599999
4.1149998 -1.614 1.545
4.1350002 -1.622 1.544
4.1199999 -1.6160001 1.53
4.1220002 -1.617 1.522
4.1199999 -1.617 1.513
4.118 -1.6160001 1.5039999
4.1160002 -1.615 1.494
4.1230001 -1.618 1.488
4.1279998 -1.62 1.4809999
4.119 -1.6160001 1.47
4.1129999 -1.614 1.459
4.1199999 -1.6160001 1.4529999
4.1220002 -1.617 1.4450001
4.1110001 -1.613 1.433
4.1129999 -1.614 1.425
4.125 -1.618 1.42
4.118 -1.6160001 1.41
4.1290002 -1.62 1.405
4.1230001 -1.618 1.3940001
4.1110001 -1.613 1.382
4.1269999 -1.619 1.3789999
4.1290002 -1.62 1.3710001
4.118 -1.6160001 1.359
4.1199999 -1.617 1.351
4.1230001 -1.618 1.344
4.1199999 -1.617 1.335
4.131 -1.6210001 1.33
4.1160002 -1.615 1.316
4.1220002 -1.618 1.3099999
4.1160002 -1.615 1.3
4.1139998 -1.614 1.291
4.1290002 -1.62 1.2869999
4.1259999 -1.619 1.278
4.1110001 -1.613 1.265
4.118 -1.6160001 1.2589999
4.1240001 -1.618 1.252
4.1129999 -1.614 1.2410001
4.1279998 -1.62 1.237
4.1209998 -1.617 1.227
4.1279998 -1.62 1.22
4.1300001 -1.6210001 1.212
4.132 -1.6210001 1.205
4.125 -1.619 1.194
4.1399999 -1.625 1.191
4.138 -1.624 1.182
4.1220002 -1.617 1.169
4.132 -1.6210001 1.163
4.1209998 -1.617 1.152
4.131 -1.6210001 1.147
4.1199999 -1.617 1.136
4.1290002 -1.62 1.13
4.1350002 -1.623 1.123
4.1350002 -1.623 1.115
4.132 -1.6210001 1.1059999
4.1290002 -1.62 1.097
4.1350002 -1.623 1.091
4.1420002 -1.625 1.084
4.125 -1.619 1.072
4.132 -1.6210001 1.0650001
4.1240001 -1.619 1.0549999
4.1209998 -1.618 1.046
4.1100001 -1.613 1.035
4.125 -1.619 1.031
4.1360002 -1.623 1.025
4.1329999 -1.622 1.016
4.1339998 -1.623 1.0089999
4.1269999 -1.62 0.99900001
4.119 -1.617 0.98900002
4.138 -1.624 0.98500001
4.1269999 -1.62 0.97500002
4.138 -1.624 0.96899998
4.125 -1.619 0.958
4.1259999 -1.62 0.94999999
4.1329999 -1.622 0.94400001
4.1290002 -1.6210001 0.935
4.1389999 -1.625 0.92900002
4.1329999 -1.622 0.92000002
4.1350002 -1.623 0.912
4.1269999 -1.62 0.90200001
4.1290002 -1.6210001 0.89499998
4.1500001 -1.6289999 0.89099997
4.1300001 -1.6210001 0.87900001
4.1370001 -1.624 0.87199998
4.1300001 -1.6210001 0.86299998
4.1329999 -1.622 0.85500002
4.1399999 -1.625 0.84899998
4.1290002 -1.6210001 0.83899999
4.1420002 -1.626 0.833
4.1389999 -1.625 0.82499999
4.1329999 -1.622 0.815
4.138 -1.624 0.80800003
4.1350002 -1.623 0.80000001
4.1459999 -1.627 0.79400003
4.1370001 -1.624 0.78399998
4.1409998 -1.626 0.77700001
4.138 -1.624 0.76899999
4.158 -1.632 0.764
4.138 -1.625 0.75300002
4.1430001 -1.627 0.74599999
4.138 -1.625 0.73699999
4.1389999 -1.625 0.72899997
4.1290002 -1.6210001 0.71899998
4.1479998 -1.628 0.71499997
4.145 -1.628 0.70599997
4.1479998 -1.6289999 0.699
4.132 -1.622 0.68800002
4.1389999 -1.625 0.68199998
4.1529999 -1.63 0.676
4.1430001 -1.626 0.66600001
4.1339998 -1.623 0.65700001
4.138 -1.625 0.64999998
4.1409998 -1.626 0.64200002
4.1370001 -1.624 0.634
4.1570001 -1.632 0.62900001
4.125 -1.62 0.616
4.1360002 -1.624 0.61000001
4.1409998 -1.626 0.60299999
4.1269999 -1.62 0.59299999
4.1440001 -1.627 0.588
4.1440001 -1.627 0.57999998
4.1479998 -1.6289999 0.57300001
4.1399999 -1.626 0.56400001
4.1409998 -1.626 0.55599999
4.1370001 -1.624 0.54699999
4.1389999 -1.625 0.54000002
4.1360002 -1.624 0.53200001
4.1529999 -1.631 0.52600002
4.1370001 -1.624 0.51599997
4.138 -1.625 0.50800002
4.158 -1.633 0.50300002
4.1479998 -1.6289999 0.49399999
4.1469998 -1.628 0.486
4.138 -1.625 0.477
4.125 -1.62 0.46799999
4.1339998 -1.623 0.461
4.1570001 -1.632 0.456
4.138 -1.625 0.44600001
4.138 -1.625 0.43799999
4.1440001 -1.628 0.43099999
4.151 -1.63 0.42399999
4.138 -1.625 0.41499999
4.1370001 -1.625 0.40700001
4.1560001 -1.632 0.40099999
4.1479998 -1.6289999 0.39199999
4.145 -1.628 0.384
4.1500001 -1.63 0.377
4.1290002 -1.622 0.36700001
4.1500001 -1.63 0.361
4.1329999 -1.623 0.352
4.1479998 -1.6289999 0.34599999
4.1350002 -1.624 0.33700001
4.1529999 -1.631 0.33000001
4.1420002 -1.627 0.322
4.1469998 -1.6289999 0.31400001
4.1409998 -1.627 0.30599999
4.138 -1.625 0.29800001
4.1360002 -1.624 0.28999999
4.1350002 -1.624 0.28200001
4.1389999 -1.626 0.27500001
4.1669998 -1.637 0.26899999
4.1490002 -1.63 0.25999999
4.1420002 -1.627 0.252
4.1630001 -1.635 0.245
4.1409998 -1.627 0.236
4.1420002 -1.627 0.229
4.1389999 -1.626 0.221
4.1350002 -1.624 0.213
4.1529999 -1.631 0.206
4.1440001 -1.628 0.198
4.158 -1.6339999 0.191
4.1360002 -1.625 0.182
4.152 -1.631 0.175
4.151 -1.631 0.167
4.1420002 -1.627 0.15899999
4.164 -1.636 0.152
4.1550002 -1.632 0.14399999
4.1430001 -1.627 0.13600001
4.1459999 -1.6289999 0.12800001
4.1469998 -1.6289999 0.12
4.1469998 -1.6289999 0.113
4.1430001 -1.628 0.105
4.152 -1.631 0.097000003
4.1469998 -1.6289999 0.089000002
4.138 -1.626 0.081
4.1240001 -1.62 0.072999999
4.1339998 -1.624 0.066
4.1430001 -1.628 0.057999998
4.1329999 -1.624 0.050000001
4.164 -1.636 0.043000001
4.1090002 -1.602 2.9660001
4.1139998 -1.604 2.9579999
4.1030002 -1.6 2.9389999
4.1230001 -1.608 2.9430001
4.1170001 -1.605 2.927
4.1040001 -1.601 2.9070001
4.1139998 -1.605 2.9030001
4.1069999 -1.602 2.8870001
4.1059999 -1.601 2.875
4.1139998 -1.605 2.8699999
4.1139998 -1.604 2.859
4.118 -1.6059999 2.8510001
4.112 -1.604 2.836
4.1139998 -1.605 2.826
4.112 -1.604 2.8139999
4.0890002 -1.595 2.7880001
4.112 -1.604 2.793
4.1069999 -1.602 2.779
4.112 -1.604 2.7709999
4.1079998 -1.602 2.7579999
4.1090002 -1.603 2.7479999
4.105 -1.601 2.7349999
4.098 -1.598 2.7190001
4.1100001 -1.603 2.717
4.119 -1.6059999 2.7119999
4.099 -1.599 2.688
4.0999999 -1.599 2.678
4.1100001 -1.603 2.675
4.1040001 -1.601 2.6600001
4.1170001 -1.6059999 2.658
4.1149998 -1.605 2.6459999
4.1090002 -1.603 2.632
4.0929999 -1.597 2.612
4.1220002 -1.608 2.619
4.1020002 -1.6 2.596
4.1100001 -1.603 2.5910001
4.1100001 -1.603 2.5810001
4.1059999 -1.602 2.5680001
4.1110001 -1.604 2.5610001
4.1149998 -1.605 2.553
4.119 -1.607 2.5450001
4.1110001 -1.604 2.53
4.1230001 -1.608 2.527
4.112 -1.604 2.51
4.1040001 -1.601 2.4949999
4.1160002 -1.6059999 2.493
4.1199999 -1.607 2.4849999
4.1199999 -1.607 2.4749999
4.1040001 -1.601 2.4549999
4.112 -1.604 2.45
4.112 -1.604 2.4400001
4.1069999 -1.602 2.427
4.1110001 -1.604 2.4189999
4.1149998 -1.605 2.4119999
4.119 -1.607 2.404
4.1110001 -1.604 2.3889999
4.1110001 -1.604 2.3800001
4.099 -1.599 2.3629999
4.1149998 -1.605 2.362
4.1149998 -1.605 2.352
4.1059999 -1.602 2.3369999
4.1020002 -1.6 2.325
4.1059999 -1.602 2.3169999
4.1009998 -1.6 2.3050001
4.1090002 -1.603 2.3
4.1129999 -1.604 2.2920001
4.1209998 -1.608 2.2869999
4.1199999 -1.607 2.277
4.1110001 -1.604 2.2620001
4.1149998 -1.605 2.2539999
4.1100001 -1.603 2.2420001
4.1220002 -1.608 2.2390001
4.118 -1.6059999 2.227
4.1079998 -1.603 2.2119999
4.1030002 -1.601 2.2
4.1040001 -1.601 2.191
4.1240001 -1.609 2.1919999
4.112 -1.604 2.1760001
4.1209998 -1.608 2.171
4.1079998 -1.603 2.155
4.1170001 -1.6059999 2.1500001
4.1209998 -1.608 2.1429999
4.119 -1.607 2.132
4.1020002 -1.601 2.1140001
4.1110001 -1.604 2.109
4.1220002 -1.609 2.105
4.1090002 -1.603 2.089
4.1170001 -1.6059999 2.0840001
4.1059999 -1.602 2.069
4.1149998 -1.6059999 2.0639999
4.1170001 -1.607 2.056
4.125 -1.61 2.05
4.1230001 -1.609 2.04
4.119 -1.607 2.029
4.1230001 -1.609 2.0209999
4.1160002 -1.6059999 2.0090001
4.1129999 -1.605 1.998
4.119 -1.607 1.992
4.1110001 -1.604 1.978
4.1220002 -1.608 1.975
4.1129999 -1.605 1.961
4.1199999 -1.608 1.955
4.1020002 -1.601 1.938
4.1139998 -1.605 1.934
4.1170001 -1.6059999 1.926
4.1160002 -1.6059999 1.9170001
4.119 -1.607 1.909
4.1220002 -1.608 1.901
4.125 -1.61 1.8940001
4.1149998 -1.6059999 1.88
4.118 -1.607 1.872
4.1079998 -1.603 1.859
4.1290002 -1.6109999 1.859
4.1059999 -1.602 1.84
4.1170001 -1.607 1.836
4.1160002 -1.6059999 1.826
4.1279998 -1.6109999 1.822
4.1220002 -1.609 1.811
4.1160002 -1.6059999 1.799
4.1149998 -1.6059999 1.79
4.1220002 -1.609 1.784
4.1090002 -1.603 1.7690001
4.132 -1.613 1.771
4.119 -1.607 1.756
4.1170001 -1.607 1.7460001
4.1030002 -1.601 1.7309999
4.1139998 -1.6059999 1.727
4.1209998 -1.608 1.721
4.1199999 -1.608 1.712
4.1100001 -1.604 1.699
4.112 -1.605 1.691
4.1149998 -1.6059999 1.683
4.1259999 -1.6109999 1.679
4.125 -1.61 1.67
4.119 -1.608 1.659
4.1259999 -1.61 1.653
4.1110001 -1.605 1.638
4.118 -1.607 1.632
4.1300001 -1.612 1.628
