ply
format ascii 1.0
comment PCL generated
element vertex 1936
property float x
property float y
property float z
element camera 0
property float view_px
property float view_py
property float view_pz
property float x_axisx
property float x_axisy
property float x_axisz
property float y_axisx
property float y_axisy
property float y_axisz
property float z_axisx
property float z_axisy
property float z_axisz
property float focal
property float scalex
property float scaley
property float centerx
property float centery
property int viewportx
property int viewporty
property float k1
property float k2
end_header
0.47600001 10.584 0.59799999
0.47299999 10.591 0.59399998
0.47499999 10.586 0.58700001
0.472 10.595 0.58200002
0.46799999 10.608 0.57800001
0.47099999 10.599 0.57099998
0.47600001 10.586 0.56199998
0.47499999 10.589 0.55699998
0.47400001 10.591 0.551
0.47499999 10.589 0.54400003
0.472 10.597 0.54000002
0.47299999 10.595 0.53299999
0.479 10.578 0.52399999
0.47400001 10.595 0.52100003
0.47799999 10.582 0.51200002
0.47799999 10.583 0.50700003
0.47499999 10.593 0.50199997
0.47600001 10.588 0.495
0.47499999 10.592 0.49000001
0.47799999 10.583 0.48199999
0.477 10.586 0.477
0.479 10.581 0.47
0.472 10.603 0.46700001
0.47400001 10.597 0.46000001
0.47600001 10.593 0.454
0.47499999 10.595 0.44800001
0.479 10.583 0.44
0.47499999 10.595 0.43599999
0.48199999 10.574 0.42699999
0.47499999 10.597 0.42399999
0.479 10.585 0.41600001
0.47400001 10.601 0.412
0.47400001 10.599 0.40599999
0.477 10.592 0.39899999
0.48100001 10.581 0.39199999
0.47299999 10.604 0.389
0.47799999 10.589 0.38100001
0.479 10.586 0.37400001
0.47799999 10.59 0.36899999
0.47600001 10.595 0.36300001
0.479 10.586 0.35600001
0.47799999 10.592 0.35100001
0.484 10.574 0.34299999
0.48100001 10.583 0.338
0.479 10.59 0.333
0.48199999 10.58 0.32499999
0.48100001 10.585 0.31999999
0.47999999 10.587 0.31400001
0.479 10.591 0.30899999
0.47799999 10.595 0.303
0.484 10.575 0.29499999
0.48199999 10.583 0.28999999
0.484 10.577 0.28299999
0.48300001 10.58 0.278
0.48100001 10.586 0.27200001
0.48500001 10.574 0.26499999
0.479 10.593 0.26100001
0.47999999 10.59 0.255
0.49000001 10.561 0.24600001
0.48100001 10.587 0.243
0.486 10.574 0.235
0.48300001 10.582 0.23
0.48300001 10.583 0.22400001
0.486 10.574 0.21799999
0.486 10.576 0.212
0.48899999 10.565 0.205
0.48300001 10.585 0.20100001
0.48199999 10.587 0.19499999
0.48300001 10.585 0.189
0.47999999 10.595 0.184
0.486 10.577 0.176
0.48300001 10.587 0.171
0.479 10.598 0.16599999
0.48800001 10.573 0.15800001
0.48300001 10.588 0.153
0.48199999 10.59 0.148
0.48500001 10.581 0.141
0.48500001 10.583 0.13500001
0.48500001 10.584 0.12899999
0.486 10.579 0.123
0.48699999 10.578 0.117
0.484 10.588 0.112
0.484 10.586 0.106
0.48300001 10.592 0.1
0.48699999 10.579 0.093999997
0.48500001 10.586 0.088
0.491 10.568 0.081
0.48800001 10.578 0.075999998
0.48800001 10.576 0.07
0.48300001 10.594 0.064999998
0.48699999 10.58 0.057999998
0.48899999 10.574 0.052000001
0.49000001 10.571 0.046
0.48899999 10.577 0.039999999
0.48899999 10.577 0.034000002
0.484 10.592 0.028999999
0.49000001 10.575 0.023
0.54000002 10.261 2.4920001
0.54100001 10.258 2.48
0.54299998 10.252 2.4660001
0.54100001 10.259 2.464
0.542 10.256 2.4519999
0.53899997 10.264 2.45
0.53899997 10.265 2.441
0.54100001 10.261 2.4289999
0.53799999 10.268 2.427
0.53600001 10.276 2.424
0.54100001 10.262 2.404
0.542 10.258 2.391
0.53799999 10.27 2.3929999
0.54000002 10.267 2.381
0.537 10.275 2.3789999
0.53600001 10.278 2.3729999
0.53399998 10.286 2.3710001
0.53500003 10.283 2.3599999
0.528 10.304 2.369
0.53100002 10.296 2.3529999
0.52899998 10.3 2.348
0.52999997 10.298 2.3380001
0.52700001 10.307 2.336
0.52700001 10.308 2.329
0.52399999 10.319 2.329
0.52399999 10.319 2.3199999
0.51700002 10.338 2.3269999
0.51999998 10.331 2.312
0.51999998 10.331 2.3039999
0.51599997 10.344 2.306
0.51499999 10.347 2.299
0.514 10.35 2.293
0.51499999 10.347 2.2820001
0.51300001 10.354 2.279
0.51300001 10.355 2.2709999
0.50800002 10.37 2.2739999
0.50700003 10.374 2.2690001
0.50700003 10.374 2.26
0.50400001 10.381 2.2579999
0.50199997 10.389 2.2550001
0.50099999 10.393 2.2490001
0.498 10.401 2.247
0.49599999 10.408 2.244
0.495 10.411 2.2379999
0.49900001 10.401 2.2219999
0.49399999 10.416 2.224
0.491 10.425 2.223
0.48899999 10.431 2.2190001
0.491 10.425 2.2060001
0.48899999 10.432 2.2019999
0.48500001 10.443 2.2019999
0.48500001 10.443 2.194
0.48199999 10.454 2.1930001
0.48199999 10.454 2.1849999
0.48199999 10.454 2.1760001
0.48100001 10.457 2.171
0.477 10.471 2.1719999
0.477 10.471 2.164
0.472 10.485 2.165
0.47400001 10.48 2.1530001
0.477 10.472 2.1389999
0.47 10.493 2.1459999
0.46900001 10.495 2.1389999
0.46599999 10.506 2.138
0.46799999 10.501 2.1259999
0.465 10.51 2.1240001
0.46000001 10.523 2.125
0.46200001 10.519 2.1140001
0.461 10.522 2.1070001
0.458 10.531 2.105
0.454 10.544 2.1059999
0.458 10.533 2.0899999
0.45500001 10.541 2.0869999
0.454 10.546 2.082
0.45300001 10.549 2.076
0.44999999 10.559 2.075
0.45300001 10.55 2.0610001
0.44600001 10.57 2.066
0.44600001 10.57 2.0569999
0.44499999 10.575 2.052
0.442 10.583 2.049
0.44100001 10.589 2.0450001
0.442 10.585 2.0339999
0.44299999 10.583 2.0250001
0.44400001 10.58 2.0150001
0.44100001 10.588 2.0120001
0.44299999 10.583 2.0009999
0.43799999 10.598 2.0020001
0.442 10.588 1.987
0.43799999 10.598 1.9859999
0.43900001 10.596 1.976
0.435 10.608 1.976
0.44100001 10.591 1.957
0.44 10.596 1.952
0.44 10.596 1.944
0.44 10.597 1.936
0.44299999 10.589 1.924
0.44 10.597 1.921
0.43900001 10.6 1.915
0.44 10.598 1.906
0.44100001 10.597 1.897
0.43799999 10.606 1.8940001
0.44299999 10.591 1.878
0.43099999 10.625 1.89
0.43799999 10.605 1.87
0.43900001 10.604 1.862
0.43900001 10.604 1.854
0.44299999 10.593 1.84
0.44100001 10.597 1.835
0.44100001 10.601 1.829
0.442 10.597 1.819
0.44299999 10.594 1.809
0.442 10.598 1.804
0.44100001 10.601 1.798
0.44100001 10.6 1.79
0.442 10.598 1.781
0.44400001 10.593 1.77
0.44600001 10.589 1.761
0.44600001 10.588 1.752
0.447 10.587 1.744
0.44499999 10.593 1.74
0.44100001 10.604 1.738
0.44499999 10.594 1.725
0.44499999 10.592 1.717
0.44100001 10.604 1.716
0.44999999 10.579 1.694
0.44800001 10.586 1.691
0.44600001 10.592 1.686
0.44499999 10.595 1.681
0.44299999 10.601 1.676
0.44600001 10.592 1.664
0.45199999 10.576 1.648
0.44600001 10.593 1.65
0.447 10.593 1.642
0.44600001 10.594 1.635
0.442 10.607 1.6339999
0.447 10.592 1.619
0.44600001 10.597 1.615
0.44800001 10.591 1.604
0.44600001 10.597 1.6
0.44800001 10.592 1.59
0.44299999 10.607 1.59
0.449 10.589 1.574
0.454 10.575 1.5599999
0.44999999 10.587 1.558
0.449 10.59 1.552
0.447 10.597 1.549
0.44800001 10.594 1.54
0.45300001 10.581 1.526
0.449 10.592 1.524
0.44999999 10.59 1.516
0.45100001 10.589 1.508
0.45300001 10.583 1.498
0.45300001 10.581 1.49
0.449 10.595 1.49
0.45100001 10.589 1.48
0.454 10.579 1.4680001
0.45500001 10.577 1.46
0.45100001 10.588 1.4579999
0.45199999 10.587 1.45
0.45300001 10.584 1.442
0.45300001 10.586 1.436
0.449 10.598 1.434
0.449 10.599 1.428
0.45100001 10.593 1.418
0.44999999 10.595 1.4119999
0.449 10.598 1.406
0.44800001 10.601 1.4
0.447 10.604 1.395
0.45100001 10.594 1.383
0.454 10.586 1.373
0.449 10.602 1.373
0.449 10.6 1.365
0.45199999 10.593 1.355
0.44800001 10.606 1.353
0.44800001 10.606 1.347
0.45100001 10.598 1.336
0.44999999 10.601 1.331
0.447 10.61 1.327
0.45199999 10.595 1.314
0.44800001 10.608 1.313
0.449 10.606 1.3049999
0.45300001 10.594 1.293
0.44499999 10.618 1.296
0.449 10.607 1.284
0.449 10.606 1.277
0.456 10.587 1.263
0.45300001 10.596 1.2589999
0.449 10.607 1.257
0.45199999 10.598 1.247
0.45500001 10.59 1.237
0.449 10.61 1.238
0.456 10.59 1.223
0.456 10.587 1.215
0.45300001 10.598 1.2130001
0.45699999 10.587 1.202
0.45500001 10.593 1.197
0.45699999 10.586 1.188
0.45300001 10.599 1.186
0.45500001 10.595 1.178
0.45300001 10.601 1.173
0.454 10.599 1.166
0.45500001 10.595 1.158
0.45300001 10.603 1.154
0.45500001 10.597 1.145
0.45500001 10.597 1.138
0.45699999 10.591 1.1289999
0.45899999 10.584 1.12
0.45699999 10.592 1.117
0.45500001 10.599 1.112
0.45500001 10.599 1.1059999
0.45199999 10.609 1.103
0.46000001 10.585 1.087
0.45199999 10.609 1.089
0.45500001 10.6 1.08
0.45899999 10.59 1.069
0.456 10.597 1.0650001
0.456 10.598 1.059
0.45300001 10.606 1.0549999
0.456 10.599 1.046
0.46000001 10.586 1.035
0.46000001 10.588 1.029
0.46200001 10.582 1.021
0.45699999 10.596 1.0190001
0.461 10.585 1.0089999
0.463 10.579 1
0.46599999 10.572 0.99199998
0.463 10.581 0.98799998
0.46399999 10.577 0.98000002
0.461 10.588 0.977
0.46599999 10.573 0.96600002
0.46700001 10.569 0.95899999
0.46700001 10.571 0.95300001
0.46599999 10.575 0.94700003
0.47299999 10.554 0.935
0.46799999 10.569 0.93300003
0.47999999 10.531 0.91500002
0.48199999 10.527 0.90799999
0.47999999 10.534 0.903
0.47499999 10.549 0.90100002
0.47499999 10.548 0.89499998
0.47499999 10.549 0.889
0.47499999 10.55 0.88300002
0.472 10.56 0.87900001
0.472 10.561 0.87300003
0.46900001 10.57 0.87
0.46599999 10.579 0.866
0.47400001 10.556 0.85299999
0.47099999 10.564 0.84899998
0.47299999 10.559 0.84100002
0.47400001 10.556 0.83399999
0.47099999 10.565 0.82999998
0.46599999 10.581 0.82800001
0.46900001 10.572 0.81999999
0.47099999 10.567 0.81199998
0.46599999 10.582 0.81
0.47 10.569 0.80000001
0.46900001 10.575 0.79500002
0.46799999 10.578 0.79000002
0.463 10.592 0.787
0.463 10.593 0.78100002
0.44600001 10.644 0.78799999
0.45899999 10.607 0.77200001
0.463 10.593 0.76200002
0.463 10.595 0.75599998
0.46399999 10.592 0.74900001
0.45899999 10.606 0.74599999
0.465 10.589 0.736
0.461 10.603 0.73299998
0.46200001 10.598 0.72600001
0.46700001 10.584 0.71600002
0.46700001 10.585 0.70999998
0.46700001 10.586 0.704
0.463 10.598 0.70099998
0.463 10.599 0.69499999
0.461 10.604 0.69
0.47 10.576 0.67699999
0.46399999 10.595 0.67500001
0.46599999 10.591 0.66799998
0.465 10.594 0.662
0.46399999 10.596 0.65700001
0.46900001 10.583 0.648
0.461 10.607 0.64700001
0.46900001 10.583 0.63499999
0.46700001 10.59 0.63099998
0.46599999 10.594 0.625
0.46599999 10.594 0.61900002
0.46599999 10.595 0.61299998
0.46599999 10.593 0.60699999
0.46399999 10.602 0.602
0.465 10.599 0.59600002
0.465 10.597 0.58899999
0.46599999 10.596 0.583
0.46399999 10.6 0.57700002
0.46399999 10.602 0.57200003
0.46599999 10.595 0.56400001
0.46399999 10.603 0.55900002
0.465 10.6 0.55299997
0.46700001 10.595 0.546
0.47299999 10.578 0.53600001
0.46900001 10.59 0.53200001
0.46900001 10.588 0.52600002
0.46799999 10.594 0.52100003
0.47 10.585 0.51300001
0.46900001 10.589 0.50800002
0.46900001 10.589 0.50199997
0.47099999 10.586 0.495
0.47099999 10.585 0.48899999
0.46700001 10.599 0.48500001
0.46799999 10.595 0.47799999
0.472 10.583 0.47099999
0.47099999 10.585 0.465
0.465 10.605 0.46200001
0.46799999 10.596 0.454
0.47400001 10.578 0.44499999
0.46700001 10.599 0.44299999
0.472 10.584 0.43399999
0.47099999 10.589 0.42899999
0.472 10.587 0.42300001
0.47099999 10.588 0.417
0.47 10.593 0.41100001
0.47099999 10.591 0.405
0.472 10.588 0.39899999
0.47499999 10.58 0.39199999
0.46900001 10.596 0.38800001
0.47600001 10.575 0.37900001
0.46700001 10.604 0.377
0.472 10.588 0.36899999
0.47099999 10.592 0.36300001
0.47 10.596 0.35699999
0.47400001 10.585 0.34999999
0.472 10.591 0.345
0.47299999 10.588 0.338
0.47299999 10.589 0.333
0.47600001 10.579 0.32499999
0.47 10.597 0.322
0.47600001 10.58 0.31400001
0.47499999 10.584 0.308
0.472 10.593 0.303
0.47499999 10.584 0.296
0.47099999 10.599 0.292
0.47400001 10.588 0.285
0.47400001 10.587 0.278
0.47600001 10.583 0.27200001
0.47099999 10.598 0.26800001
0.47600001 10.584 0.25999999
0.48100001 10.57 0.25299999
0.47600001 10.584 0.248
0.477 10.58 0.242
0.48100001 10.569 0.235
0.479 10.578 0.23
0.48199999 10.569 0.223
0.47600001 10.587 0.219
0.479 10.577 0.212
0.48100001 10.571 0.206
0.477 10.585 0.20100001
0.47799999 10.58 0.19400001
0.47600001 10.587 0.189
0.48300001 10.568 0.182
0.479 10.58 0.177
0.47400001 10.593 0.17200001
0.47799999 10.582 0.16500001
0.472 10.602 0.16
0.47799999 10.583 0.153
0.477 10.587 0.147
0.479 10.582 0.141
0.47799999 10.584 0.13500001
0.479 10.583 0.12899999
0.48199999 10.573 0.123
0.48300001 10.572 0.117
0.484 10.568 0.111
0.479 10.584 0.106
0.48100001 10.577 0.098999999
0.47799999 10.586 0.093999997
0.47799999 10.587 0.088
0.48100001 10.578 0.082000002
0.48199999 10.575 0.075999998
0.47999999 10.583 0.07
0.47999999 10.584 0.064000003
0.484 10.57 0.057999998
0.484 10.572 0.052000001
0.48100001 10.582 0.046
0.48300001 10.574 0.039999999
0.48300001 10.575 0.034000002
0.48199999 10.578 0.028999999
0.48300001 10.578 0.023
0.53799999 10.248 2.4820001
0.542 10.238 2.4649999
0.537 10.254 2.4690001
0.53299999 10.264 2.4690001
0.537 10.255 2.4519999
0.53899997 10.248 2.437
0.537 10.255 2.434
0.53799999 10.252 2.4230001
0.537 10.256 2.4170001
0.54000002 10.249 2.402
0.537 10.256 2.4000001
0.53600001 10.261 2.395
0.53399998 10.268 2.392
0.53299999 10.27 2.3859999
0.52999997 10.28 2.385
0.53100002 10.275 2.372
0.52899998 10.283 2.3699999
0.52899998 10.282 2.3599999
0.52499998 10.294 2.362
0.52600002 10.294 2.3529999
0.523 10.301 2.3499999
0.523 10.302 2.342
0.523 10.302 2.3329999
0.51499999 10.326 2.3440001
0.51999998 10.311 2.3239999
0.514 10.33 2.3299999
0.51200002 10.337 2.3269999
0.514 10.331 2.313
0.51300001 10.334 2.3069999
0.51099998 10.342 2.3050001
0.50999999 10.345 2.299
0.50599998 10.356 2.299
0.50599998 10.356 2.2909999
0.50199997 10.368 2.2909999
0.50400001 10.364 2.28
0.505 10.361 2.2679999
0.49900001 10.38 2.2739999
0.50400001 10.364 2.2539999
0.50199997 10.373 2.2520001
0.495 10.391 2.2579999
0.49599999 10.391 2.2490001
0.491 10.404 2.2509999
0.495 10.393 2.233
0.49000001 10.408 2.237
0.491 10.407 2.227
0.48800001 10.414 2.224
0.48699999 10.418 2.2190001
0.48699999 10.419 2.211
0.48300001 10.431 2.211
0.48500001 10.425 2.1989999
0.484 10.429 2.1930001
0.48199999 10.434 2.1889999
0.48500001 10.426 2.174
0.479 10.444 2.1789999
0.47499999 10.456 2.1789999
0.472 10.465 2.177
0.47299999 10.462 2.1670001
0.46900001 10.476 2.168
0.47400001 10.463 2.151
0.47099999 10.47 2.148
0.47 10.474 2.142
0.46900001 10.479 2.1370001
0.465 10.49 2.1359999
0.465 10.491 2.1289999
0.461 10.504 2.1289999
0.45699999 10.514 2.128
0.458 10.512 2.119
0.45300001 10.526 2.1199999
0.456 10.52 2.1070001
0.456 10.519 2.099
0.45100001 10.535 2.1010001
0.44999999 10.539 2.096
0.44999999 10.538 2.0869999
0.44600001 10.55 2.0869999
0.449 10.541 2.072
0.44499999 10.554 2.072
0.44499999 10.555 2.0650001
0.44299999 10.561 2.0599999
0.43900001 10.574 2.0610001
0.43799999 10.577 2.0550001
0.433 10.59 2.0550001
0.43799999 10.577 2.0380001
0.43599999 10.584 2.0350001
0.43799999 10.579 2.023
0.43399999 10.59 2.0220001
0.43399999 10.592 2.0150001
0.43599999 10.585 2.003
0.43700001 10.584 1.994
0.43599999 10.586 1.987
0.43599999 10.586 1.979
0.43099999 10.602 1.9809999
0.433 10.598 1.97
0.43599999 10.59 1.957
0.435 10.591 1.95
0.43700001 10.587 1.9400001
0.43200001 10.603 1.941
0.428 10.614 1.9400001
0.433 10.599 1.923
0.43399999 10.596 1.913
0.43599999 10.592 1.903
0.43399999 10.599 1.899
0.44 10.581 1.881
0.43599999 10.593 1.88
0.44100001 10.579 1.864
0.435 10.598 1.867
0.43799999 10.587 1.853
0.43000001 10.612 1.86
0.43399999 10.602 1.846
0.43700001 10.594 1.8329999
0.433 10.604 1.831
0.43599999 10.597 1.8200001
0.43599999 10.597 1.812
0.43399999 10.602 1.807
0.433 10.607 1.802
0.435 10.602 1.7920001
0.43900001 10.589 1.777
0.43700001 10.596 1.773
0.43900001 10.591 1.762
0.435 10.602 1.761
0.43799999 10.594 1.749
0.43799999 10.595 1.742
0.44100001 10.585 1.729
0.43799999 10.596 1.727
0.435 10.604 1.724
0.44100001 10.586 1.706
0.43599999 10.602 1.7079999
0.442 10.584 1.6900001
0.43700001 10.599 1.691
0.44100001 10.589 1.678
0.433 10.612 1.683
0.43900001 10.596 1.6670001
0.43200001 10.616 1.67
0.44100001 10.591 1.649
0.44 10.594 1.6440001
0.43399999 10.612 1.646
0.43599999 10.606 1.635
0.43799999 10.6 1.624
0.43599999 10.607 1.6210001
0.43399999 10.612 1.6160001
0.44299999 10.586 1.595
0.44299999 10.588 1.589
0.43900001 10.6 1.5880001
0.44100001 10.595 1.5779999
0.44299999 10.589 1.568
0.43900001 10.601 1.566
0.44100001 10.595 1.556
0.44299999 10.59 1.546
0.447 10.579 1.533
0.43399999 10.619 1.546
0.442 10.593 1.526
0.44299999 10.591 1.518
0.44400001 10.588 1.5089999
0.43900001 10.605 1.51
0.44100001 10.599 1.5
0.44400001 10.592 1.489
0.442 10.596 1.484
0.44600001 10.587 1.472
0.44800001 10.58 1.462
0.44299999 10.594 1.462
0.442 10.599 1.457
0.447 10.583 1.442
0.43799999 10.611 1.448
0.442 10.599 1.436
0.44299999 10.598 1.428
0.44600001 10.588 1.416
0.44 10.608 1.418
0.44400001 10.596 1.406
0.44600001 10.59 1.396
0.447 10.589 1.3890001
0.44400001 10.596 1.385
0.44600001 10.593 1.376
0.44400001 10.597 1.3710001
0.44 10.611 1.37
0.44400001 10.597 1.357
0.44299999 10.602 1.352
0.44499999 10.595 1.342
0.442 10.606 1.34
0.44400001 10.6 1.331
0.44499999 10.597 1.322
0.442 10.608 1.3200001
0.442 10.607 1.313
0.44499999 10.599 1.303
0.44 10.612 1.301
0.44 10.612 1.294
0.44100001 10.612 1.2869999
0.44999999 10.585 1.2690001
0.44499999 10.6 1.268
0.447 10.593 1.2589999
0.44400001 10.605 1.257
0.43599999 10.627 1.2589999
0.447 10.594 1.239
0.44 10.617 1.2410001
0.44400001 10.605 1.23
0.44499999 10.602 1.222
0.44800001 10.595 1.212
0.447 10.599 1.207
0.44800001 10.595 1.199
0.44800001 10.597 1.192
0.447 10.6 1.187
0.449 10.593 1.178
0.447 10.599 1.173
0.44800001 10.596 1.165
0.44800001 10.598 1.159
0.45199999 10.587 1.148
0.45100001 10.591 1.143
0.449 10.595 1.138
0.44999999 10.593 1.131
0.44800001 10.6 1.127
0.449 10.598 1.119
0.45100001 10.592 1.1109999
0.447 10.603 1.108
0.45300001 10.585 1.095
0.45300001 10.587 1.089
0.45100001 10.593 1.084
0.45300001 10.587 1.075
0.45100001 10.592 1.071
0.44600001 10.609 1.0700001
0.447 10.605 1.062
0.44999999 10.599 1.053
0.45199999 10.593 1.045
0.44600001 10.612 1.044
0.45199999 10.592 1.031
0.458 10.574 1.0190001
0.45199999 10.593 1.018
0.45199999 10.594 1.012
0.45500001 10.585 1.003
0.454 10.587 0.99699998
0.461 10.567 0.98400003
0.45699999 10.582 0.98199999
0.45699999 10.581 0.97600001
0.45699999 10.581 0.96899998
0.46000001 10.574 0.96100003
0.45899999 10.575 0.954
0.45899999 10.577 0.949
0.461 10.57 0.94
0.47400001 10.532 0.92199999
0.477 10.525 0.91399997
0.479 10.518 0.90499997
0.48100001 10.512 0.89700001
0.47299999 10.537 0.898
0.472 10.542 0.89300001
0.46700001 10.556 0.89099997
0.46700001 10.557 0.88499999
0.46599999 10.558 0.87900001
0.46599999 10.558 0.87300003
0.46399999 10.564 0.86799997
0.46399999 10.565 0.86199999
0.463 10.57 0.85699999
0.46399999 10.567 0.85000002
0.45500001 10.593 0.85100001
0.463 10.571 0.838
0.465 10.564 0.82999998
0.461 10.576 0.82700002
0.463 10.572 0.81999999
0.461 10.577 0.815
0.46599999 10.563 0.80500001
0.463 10.572 0.801
0.47 10.552 0.78899997
0.463 10.572 0.78899997
0.46000001 10.582 0.78500003
0.454 10.6 0.78299999
0.447 10.621 0.78200001
0.45699999 10.593 0.76899999
0.45500001 10.598 0.764
0.461 10.582 0.75300002
0.45699999 10.594 0.75
0.45500001 10.599 0.745
0.461 10.584 0.73500001
0.456 10.596 0.73199999
0.461 10.583 0.722
0.45699999 10.594 0.71899998
0.46200001 10.582 0.70999998
0.45199999 10.613 0.71100003
0.458 10.594 0.69999999
0.45899999 10.59 0.69300002
0.458 10.594 0.68800002
0.456 10.6 0.68300003
0.458 10.595 0.67500001
0.45500001 10.604 0.671
0.454 10.608 0.66600001
0.463 10.582 0.65399998
0.463 10.581 0.648
0.45199999 10.614 0.648
0.45699999 10.599 0.639
0.45500001 10.606 0.634
0.46000001 10.591 0.625
0.458 10.597 0.62
0.46399999 10.581 0.611
0.46599999 10.574 0.60299999
0.461 10.591 0.60000002
0.46200001 10.587 0.59299999
0.46000001 10.593 0.588
0.45899999 10.598 0.583
0.463 10.585 0.57499999
0.461 10.592 0.56999999
0.458 10.6 0.565
0.463 10.588 0.55699998
0.463 10.588 0.551
0.46000001 10.596 0.546
0.465 10.58 0.537
0.46000001 10.597 0.53399998
0.461 10.594 0.52700001
0.456 10.609 0.52399999
0.46200001 10.593 0.51499999
0.461 10.596 0.509
0.461 10.595 0.50300002
0.46200001 10.592 0.49599999
0.465 10.584 0.48899999
0.46599999 10.583 0.48300001
0.46700001 10.579 0.47600001
0.46599999 10.583 0.47099999
0.46200001 10.595 0.46599999
0.46399999 10.59 0.46000001
0.463 10.593 0.454
0.461 10.6 0.449
0.46599999 10.585 0.44100001
0.463 10.593 0.43599999
0.46000001 10.603 0.43099999
0.45699999 10.614 0.42699999
0.46399999 10.592 0.41800001
0.46799999 10.581 0.41
0.46900001 10.577 0.403
0.46599999 10.588 0.39899999
0.461 10.603 0.39500001
0.46599999 10.588 0.38699999
0.465 10.592 0.38100001
0.46599999 10.589 0.375
0.461 10.603 0.37099999
0.46599999 10.589 0.36300001
0.46700001 10.587 0.35600001
0.46900001 10.581 0.34999999
0.46700001 10.588 0.345
0.46599999 10.59 0.33899999
0.47 10.58 0.33199999
0.46599999 10.59 0.32699999
0.46700001 10.588 0.32100001
0.46700001 10.589 0.315
0.46900001 10.584 0.308
0.47299999 10.57 0.301
0.46900001 10.583 0.296
0.472 10.576 0.289
0.46900001 10.583 0.28400001
0.46700001 10.59 0.27900001
0.472 10.577 0.27200001
0.46599999 10.595 0.26699999
0.47 10.582 0.25999999
0.47499999 10.569 0.25299999
0.47099999 10.581 0.248
0.46700001 10.592 0.243
0.47099999 10.582 0.236
0.477 10.564 0.229
0.47299999 10.575 0.22400001
0.477 10.562 0.21699999
0.47299999 10.576 0.212
0.47799999 10.562 0.205
0.47 10.586 0.20100001
0.47099999 10.583 0.19499999
0.47299999 10.579 0.18799999
0.47299999 10.578 0.182
0.47099999 10.585 0.177
0.47099999 10.585 0.171
0.47299999 10.58 0.16500001
0.46900001 10.59 0.15899999
0.472 10.581 0.153
0.47400001 10.578 0.147
0.47600001 10.571 0.14
0.47799999 10.566 0.134
0.47499999 10.575 0.12899999
0.47400001 10.578 0.123
0.47499999 10.577 0.117
0.47099999 10.589 0.112
0.47299999 10.583 0.106
0.47499999 10.576 0.098999999
0.47600001 10.573 0.093000002
0.47400001 10.58 0.088
0.47400001 10.581 0.082000002
0.477 10.571 0.075999998
0.47799999 10.57 0.07
0.47799999 10.571 0.064000003
0.47999999 10.563 0.057999998
0.48100001 10.562 0.052000001
0.479 10.567 0.046
0.48199999 10.559 0.039999999
0.48100001 10.562 0.034000002
0.484 10.553 0.028000001
0.48300001 10.559 0.022
0.54100001 10.225 2.4630001
0.54000002 10.229 2.457
0.53799999 10.233 2.4519999
0.53799999 10.234 2.444
0.537 10.238 2.4389999
0.53799999 10.235 2.427
0.53799999 10.235 2.418
0.53799999 10.236 2.411
0.53500003 10.246 2.4100001
0.53100002 10.257 2.411
0.53399998 10.25 2.3959999
0.52899998 10.263 2.398
0.52899998 10.265 2.391
0.52600002 10.272 2.3889999
0.528 10.269 2.3770001
0.52499998 10.277 2.375
0.528 10.27 2.3610001
0.52700001 10.274 2.355
0.523 10.284 2.355
0.51899999 10.296 2.3559999
0.51700002 10.304 2.3529999
0.51599997 10.308 2.348
0.51599997 10.306 2.3380001
0.51300001 10.316 2.3380001
0.51300001 10.317 2.3299999
0.51200002 10.32 2.323
0.51200002 10.32 2.3150001
0.50800002 10.331 2.3150001
0.50800002 10.331 2.3069999
0.50300002 10.347 2.3099999
0.505 10.343 2.299
0.50099999 10.355 2.299
0.50400001 10.344 2.2820001
0.5 10.359 2.2850001
0.498 10.363 2.28
0.49900001 10.363 2.2709999
0.495 10.375 2.2720001
0.49200001 10.382 2.2690001
0.48699999 10.399 2.273
0.49200001 10.385 2.2539999
0.491 10.387 2.247
0.493 10.383 2.2349999
0.486 10.401 2.2409999
0.484 10.409 2.2390001
0.48699999 10.401 2.224
0.47799999 10.428 2.2360001
0.47799999 10.428 2.227
0.479 10.424 2.2160001
0.477 10.432 2.2130001
0.47400001 10.439 2.21
0.47799999 10.428 2.194
0.472 10.447 2.1989999
0.472 10.448 2.191
0.47099999 10.45 2.1849999
0.47 10.455 2.1789999
0.46399999 10.471 2.1830001
0.46399999 10.472 2.175
0.461 10.481 2.1730001
0.46700001 10.466 2.154
0.46399999 10.472 2.1500001
0.465 10.472 2.142
0.458 10.491 2.1470001
0.458 10.491 2.1389999
0.45699999 10.495 2.1329999
0.458 10.495 2.1240001
0.45199999 10.51 2.1270001
0.45100001 10.514 2.1210001
0.44999999 10.517 2.115
0.447 10.527 2.1129999
0.45100001 10.517 2.099
0.449 10.522 2.0929999
0.447 10.529 2.0899999
0.447 10.529 2.082
0.43900001 10.554 2.0899999
0.43799999 10.556 2.0829999
0.43599999 10.564 2.0799999
0.43700001 10.559 2.069
0.43599999 10.563 2.063
0.43700001 10.56 2.053
0.43200001 10.576 2.0550001
0.43099999 10.581 2.05
0.42699999 10.592 2.049
0.42899999 10.585 2.0369999
0.43099999 10.581 2.0250001
0.433 10.576 2.0139999
0.42899999 10.587 2.013
0.428 10.59 2.007
0.43000001 10.586 1.997
0.43200001 10.581 1.985
0.42899999 10.589 1.982
0.42699999 10.596 1.978
0.42699999 10.595 1.97
0.42399999 10.603 1.967
0.42500001 10.602 1.9579999
0.426 10.598 1.948
0.428 10.595 1.938
0.428 10.596 1.9299999
0.428 10.596 1.9220001
0.42699999 10.598 1.915
0.43000001 10.59 1.903
0.428 10.597 1.899
0.426 10.602 1.8940001
0.43399999 10.58 1.873
0.43000001 10.591 1.872
0.428 10.597 1.868
0.428 10.6 1.8609999
0.42500001 10.608 1.858
0.42500001 10.607 1.85
0.428 10.601 1.839
0.43200001 10.589 1.824
0.42899999 10.597 1.821
0.43200001 10.591 1.809
0.433 10.587 1.8
0.428 10.602 1.8
0.435 10.581 1.781
0.43000001 10.596 1.7819999
0.43000001 10.599 1.775
0.428 10.604 1.771
0.43399999 10.587 1.7539999
0.42899999 10.603 1.755
0.435 10.584 1.737
0.43599999 10.583 1.729
0.43000001 10.6 1.73
0.43000001 10.6 1.723
0.43000001 10.602 1.716
0.43000001 10.601 1.7079999
0.43200001 10.596 1.698
0.43200001 10.595 1.6900001
0.43399999 10.591 1.6799999
0.43099999 10.599 1.677
0.43399999 10.591 1.665
0.435 10.588 1.656
0.42899999 10.606 1.658
0.43099999 10.601 1.648
0.43599999 10.588 1.6339999
0.43799999 10.583 1.624
0.43799999 10.581 1.615
0.433 10.598 1.617
0.433 10.597 1.609
0.43200001 10.601 1.604
0.428 10.614 1.603
0.43399999 10.596 1.586
0.433 10.599 1.58
0.433 10.601 1.574
0.433 10.601 1.567
0.43700001 10.59 1.554
0.43900001 10.583 1.543
0.43399999 10.597 1.543
0.433 10.603 1.539
0.43900001 10.583 1.522
0.43700001 10.592 1.5190001
0.43700001 10.592 1.511
0.43700001 10.591 1.5039999
0.43399999 10.601 1.502
0.44499999 10.569 1.479
0.43700001 10.593 1.484
0.43700001 10.592 1.476
0.433 10.605 1.475
0.433 10.605 1.4680001
0.435 10.6 1.4579999
0.43799999 10.593 1.448
0.435 10.602 1.4450001
0.44 10.588 1.431
0.43599999 10.599 1.429
0.43900001 10.59 1.418
0.435 10.602 1.416
0.43799999 10.594 1.406
0.43599999 10.601 1.402
0.43599999 10.602 1.395
0.43399999 10.606 1.39
0.43799999 10.596 1.378
0.43700001 10.598 1.373
0.43399999 10.607 1.369
0.44 10.591 1.355
0.43900001 10.596 1.35
0.43399999 10.61 1.349
0.43099999 10.62 1.347
0.43900001 10.596 1.33
0.43399999 10.611 1.329
0.44100001 10.59 1.313
0.435 10.607 1.314
0.43399999 10.612 1.309
0.43900001 10.598 1.296
0.43900001 10.597 1.289
0.44 10.597 1.2819999
0.44 10.596 1.275
0.44 10.597 1.268
0.43700001 10.605 1.265
0.44100001 10.593 1.253
0.43900001 10.6 1.249
0.43900001 10.6 1.242
0.44499999 10.582 1.228
0.43700001 10.606 1.2309999
0.44100001 10.597 1.22
0.44 10.598 1.214
0.44100001 10.597 1.207
0.43900001 10.603 1.202
0.43900001 10.605 1.196
0.43900001 10.602 1.188
0.442 10.595 1.179
0.44 10.602 1.175
0.43900001 10.604 1.169
0.43799999 10.609 1.164
0.43799999 10.608 1.1569999
0.44 10.601 1.148
0.44299999 10.595 1.1390001
0.442 10.599 1.133
0.44299999 10.595 1.125
0.44499999 10.589 1.1160001
0.442 10.599 1.114
0.44 10.605 1.109
0.44499999 10.59 1.097
0.44 10.605 1.096
0.44100001 10.603 1.0880001
0.44600001 10.588 1.077
0.44299999 10.599 1.074
0.44299999 10.598 1.067
0.44 10.608 1.063
0.44600001 10.589 1.05
0.44100001 10.604 1.049
0.43799999 10.616 1.046
0.44400001 10.597 1.034
0.44999999 10.579 1.021
0.44600001 10.592 1.0190001
0.447 10.589 1.011
0.449 10.582 1.003
0.447 10.59 0.99800003
0.44800001 10.587 0.991
0.45500001 10.567 0.97799999
0.456 10.563 0.97100002
0.45199999 10.578 0.96899998
0.45199999 10.577 0.96200001
0.454 10.572 0.954
0.461 10.553 0.94199997
0.463 10.546 0.93300003
0.47 10.525 0.92000002
0.47099999 10.523 0.91399997
0.46900001 10.529 0.90899998
0.47299999 10.517 0.89899999
0.47099999 10.524 0.89499998
0.46700001 10.536 0.89200002
0.45899999 10.561 0.89300001
0.454 10.577 0.89099997
0.458 10.564 0.88099998
0.46200001 10.553 0.87199998
0.456 10.569 0.87
0.458 10.565 0.86199999
0.456 10.57 0.85799998
0.458 10.565 0.85000002
0.45699999 10.568 0.84500003
0.458 10.566 0.838
0.454 10.579 0.83499998
0.458 10.566 0.82499999
0.458 10.569 0.81900001
0.458 10.569 0.81300002
0.45899999 10.566 0.80599999
0.456 10.573 0.80199999
0.463 10.553 0.79000002
0.45899999 10.566 0.787
0.456 10.576 0.78399998
0.45100001 10.59 0.78100002
0.44800001 10.6 0.77700001
0.44400001 10.611 0.77399999
0.44999999 10.594 0.76300001
0.45199999 10.59 0.75599998
0.454 10.583 0.74800003
0.44999999 10.596 0.745
0.44999999 10.596 0.73799998
0.449 10.6 0.73299998
0.45100001 10.593 0.72500002
0.44499999 10.613 0.72399998
0.44999999 10.598 0.71399999
0.449 10.6 0.708
0.44800001 10.603 0.70200002
0.44800001 10.606 0.69700003
0.45300001 10.591 0.68699998
0.454 10.588 0.68000001
0.45500001 10.586 0.67400002
0.45100001 10.598 0.67000002
0.45100001 10.597 0.66399997
0.45300001 10.592 0.65600002
0.45199999 10.595 0.65100002
0.44499999 10.616 0.64899999
0.458 10.577 0.63499999
0.454 10.591 0.63200003
0.44999999 10.602 0.62800002
0.45199999 10.597 0.62
0.45100001 10.601 0.61500001
0.454 10.593 0.60699999
0.45300001 10.596 0.602
0.45100001 10.602 0.597
0.458 10.58 0.58600003
0.45199999 10.6 0.58399999
0.45100001 10.602 0.57800001
0.45300001 10.598 0.57099998
0.45100001 10.604 0.56599998
0.45500001 10.591 0.55800003
0.45500001 10.592 0.55199999
0.456 10.589 0.54500002
0.456 10.589 0.53899997
0.45699999 10.588 0.53299999
0.456 10.592 0.52700001
0.458 10.585 0.51999998
0.449 10.611 0.51800001
0.456 10.59 0.509
0.45100001 10.607 0.505
0.45199999 10.604 0.49900001
0.454 10.598 0.491
0.45699999 10.589 0.484
0.454 10.599 0.479
0.45300001 10.602 0.47400001
0.456 10.595 0.46700001
0.463 10.574 0.45699999
0.45899999 10.587 0.45300001
0.456 10.595 0.44800001
0.458 10.591 0.442
0.456 10.595 0.43599999
0.45300001 10.606 0.43200001
0.45699999 10.593 0.42399999
0.456 10.598 0.41800001
0.45899999 10.588 0.41100001
0.45699999 10.594 0.40599999
0.45699999 10.594 0.40000001
0.45699999 10.594 0.39399999
0.458 10.591 0.38699999
0.458 10.594 0.382
0.45199999 10.613 0.37799999
0.458 10.594 0.37
0.458 10.593 0.36300001
0.46000001 10.589 0.35699999
0.461 10.586 0.35100001
0.461 10.587 0.345
0.456 10.601 0.34
0.46700001 10.57 0.331
0.461 10.585 0.32600001
0.461 10.588 0.32100001
0.45899999 10.594 0.315
0.45899999 10.595 0.30899999
0.46000001 10.592 0.303
0.46200001 10.587 0.29699999
0.46000001 10.592 0.29100001
0.46000001 10.593 0.285
0.463 10.584 0.278
0.46399999 10.582 0.27200001
0.46700001 10.573 0.26499999
0.465 10.579 0.25999999
0.46200001 10.589 0.255
0.46200001 10.589 0.249
0.46000001 10.595 0.243
0.458 10.602 0.23800001
0.46900001 10.568 0.229
0.47099999 10.563 0.223
0.461 10.594 0.219
0.463 10.589 0.213
0.46399999 10.586 0.207
0.46700001 10.576 0.2
0.46399999 10.587 0.19499999
0.46200001 10.593 0.19
0.463 10.589 0.183
0.46799999 10.573 0.176
0.463 10.591 0.171
0.46700001 10.58 0.16500001
0.47299999 10.56 0.15800001
0.46900001 10.572 0.152
0.46599999 10.582 0.147
0.46599999 10.583 0.141
0.465 10.586 0.13500001
0.461 10.6 0.13
0.47099999 10.568 0.123
0.47 10.572 0.117
0.47 10.573 0.111
0.46599999 10.586 0.106
0.46399999 10.59 0.1
0.472 10.568 0.093000002
0.46900001 10.576 0.088
0.472 10.569 0.081
0.47299999 10.565 0.075000003
0.472 10.568 0.068999998
0.46799999 10.58 0.064000003
0.46700001 10.584 0.057999998
0.47400001 10.565 0.052000001
0.47499999 10.56 0.046
0.47299999 10.567 0.039999999
0.46900001 10.579 0.034000002
0.46799999 10.582 0.028999999
0.47299999 10.569 0.022
0.53500003 10.226 2.4649999
0.53399998 10.228 2.4579999
0.53799999 10.217 2.4400001
0.537 10.222 2.4349999
0.542 10.207 2.414
0.537 10.222 2.4170001
0.528 10.248 2.431
0.53500003 10.228 2.405
0.528 10.248 2.4130001
0.52200001 10.268 2.421
0.52700001 10.254 2.401
0.52499998 10.258 2.395
0.52200001 10.269 2.3959999
0.523 10.266 2.385
0.51999998 10.274 2.382
0.51999998 10.274 2.3740001
0.52100003 10.272 2.3629999
0.51800001 10.282 2.3629999
0.51499999 10.29 2.3610001
0.51499999 10.292 2.3540001
0.51499999 10.292 2.345
0.51300001 10.299 2.342
0.50999999 10.307 2.3399999
0.50800002 10.314 2.3369999
0.509 10.311 2.326
0.50800002 10.315 2.3210001
0.50700003 10.319 2.3150001
0.50599998 10.32 2.3069999
0.5 10.338 2.313
0.50300002 10.33 2.2980001
0.49900001 10.341 2.299
0.498 10.347 2.2939999
0.49399999 10.357 2.293
0.49700001 10.349 2.279
0.49000001 10.369 2.286
0.491 10.368 2.277
0.48800001 10.377 2.2750001
0.48800001 10.376 2.266
0.49000001 10.372 2.2539999
0.479 10.404 2.27
0.48500001 10.388 2.2490001
0.484 10.392 2.244
0.48199999 10.396 2.2390001
0.47799999 10.408 2.2390001
0.47600001 10.415 2.2360001
0.477 10.411 2.2249999
0.47600001 10.415 2.2190001
0.47400001 10.422 2.2160001
0.47299999 10.426 2.21
0.46900001 10.438 2.211
0.46900001 10.437 2.201
0.46599999 10.446 2.1989999
0.46700001 10.446 2.191
0.465 10.45 2.1860001
0.46200001 10.461 2.1849999
0.461 10.464 2.1789999
0.461 10.463 2.1700001
0.46000001 10.466 2.164
0.45899999 10.47 2.158
0.45500001 10.481 2.1570001
0.456 10.479 2.148
0.45100001 10.495 2.1500001
0.44999999 10.497 2.1429999
0.44299999 10.518 2.1500001
0.447 10.506 2.1340001
0.44 10.527 2.1400001
0.447 10.507 2.118
0.44299999 10.521 2.119
0.44 10.529 2.1159999
0.44499999 10.515 2.098
0.44100001 10.526 2.098
0.43900001 10.534 2.0940001
0.43700001 10.542 2.0910001
0.433 10.551 2.089
0.43399999 10.549 2.0799999
0.43599999 10.545 2.069
0.43000001 10.561 2.0710001
0.42699999 10.571 2.069
0.42699999 10.572 2.062
0.43000001 10.563 2.0480001
0.42699999 10.573 2.046
0.426 10.576 2.04
0.42500001 10.578 2.033
0.421 10.59 2.033
0.41 10.622 2.0450001
0.42399999 10.582 2.0109999
0.41999999 10.594 2.0109999
0.41999999 10.596 2.0039999
0.42399999 10.584 1.988
0.42199999 10.592 1.985
0.41999999 10.597 1.98
0.42199999 10.593 1.97
0.42300001 10.589 1.959
0.421 10.594 1.954
0.41999999 10.6 1.95
0.42399999 10.588 1.9349999
0.42399999 10.588 1.926
0.419 10.602 1.927
0.41999999 10.599 1.9170001
0.42399999 10.588 1.903
0.40900001 10.633 1.9220001
0.42300001 10.593 1.89
0.42399999 10.591 1.881
0.42300001 10.593 1.874
0.42300001 10.593 1.8660001
0.42699999 10.583 1.853
0.42199999 10.598 1.853
0.421 10.602 1.848
0.42500001 10.59 1.8329999
0.41999999 10.604 1.834
0.42199999 10.599 1.823
0.421 10.602 1.817
0.42399999 10.594 1.8049999
0.421 10.604 1.802
0.426 10.59 1.7869999
0.42399999 10.595 1.7819999
0.421 10.604 1.779
0.42500001 10.594 1.766
0.43399999 10.568 1.744
0.42500001 10.596 1.752
0.42500001 10.595 1.744
0.419 10.614 1.747
0.42399999 10.599 1.7309999
0.42399999 10.598 1.723
0.42500001 10.596 1.714
0.426 10.595 1.706
0.42699999 10.592 1.697
0.42199999 10.608 1.697
0.42399999 10.603 1.687
0.428 10.59 1.673
0.42199999 10.608 1.675
0.42699999 10.595 1.661
0.428 10.59 1.651
0.42500001 10.601 1.649
0.42300001 10.608 1.645
0.42899999 10.591 1.6289999
0.42399999 10.606 1.6289999
0.42399999 10.604 1.6210001
0.42399999 10.605 1.614
0.42899999 10.592 1.6
0.426 10.6 1.596
0.42500001 10.602 1.59
0.42699999 10.597 1.581
0.43200001 10.583 1.566
0.42500001 10.604 1.569
0.42899999 10.594 1.557
0.42899999 10.594 1.55
0.428 10.596 1.544
0.428 10.596 1.536
0.42899999 10.594 1.528
0.428 10.597 1.522
0.428 10.598 1.516
0.43099999 10.591 1.505
0.43000001 10.594 1.499
0.42699999 10.603 1.4960001
0.42399999 10.613 1.494
0.43200001 10.59 1.476
0.43000001 10.597 1.472
0.43200001 10.591 1.462
0.435 10.581 1.45
0.43200001 10.59 1.447
0.426 10.609 1.449
0.43000001 10.598 1.437
0.42899999 10.6 1.4299999
0.428 10.606 1.426
0.43099999 10.595 1.414
0.43599999 10.583 1.401
0.43399999 10.588 1.397
0.433 10.591 1.391
0.43399999 10.589 1.383
0.43200001 10.596 1.3789999
0.435 10.588 1.369
0.433 10.592 1.363
0.435 10.588 1.355
0.433 10.594 1.35
0.435 10.589 1.341
0.43399999 10.592 1.335
0.43700001 10.584 1.325
0.43700001 10.583 1.318
0.44100001 10.573 1.307
0.43200001 10.597 1.3099999
0.43599999 10.586 1.299
0.43599999 10.589 1.293
0.43099999 10.603 1.2920001
0.433 10.598 1.283
0.43700001 10.587 1.272
0.435 10.591 1.266
0.43399999 10.595 1.261
0.435 10.592 1.253
0.435 10.594 1.247
0.433 10.6 1.243
0.43399999 10.598 1.235
0.435 10.594 1.227
0.43200001 10.603 1.223
0.435 10.596 1.214
0.43200001 10.606 1.211
0.43399999 10.598 1.201
0.43599999 10.595 1.193
0.43900001 10.584 1.182
0.435 10.598 1.181
0.43200001 10.605 1.177
0.43000001 10.611 1.1720001
0.43200001 10.608 1.164
0.435 10.599 1.154
0.43099999 10.609 1.151
0.43399999 10.603 1.142
0.43099999 10.612 1.1390001
0.43700001 10.593 1.125
0.43399999 10.604 1.122
0.43900001 10.589 1.11
0.442 10.582 1.101
0.43799999 10.592 1.098
0.435 10.603 1.095
0.43200001 10.612 1.092
0.435 10.602 1.082
0.43599999 10.599 1.074
0.44 10.588 1.064
0.43399999 10.606 1.063
0.43700001 10.598 1.054
0.43599999 10.6 1.048
0.43399999 10.609 1.045
0.43599999 10.601 1.036
0.44100001 10.589 1.025
0.44 10.592 1.0190001
0.44299999 10.583 1.01
0.43900001 10.594 1.007
0.435 10.606 1.0039999
0.44299999 10.585 0.991
0.44499999 10.579 0.98199999
0.44600001 10.576 0.97500002
0.447 10.573 0.96799999
0.44499999 10.579 0.963
0.44800001 10.572 0.954
0.44999999 10.565 0.94599998
0.447 10.574 0.94199997
0.463 10.529 0.92199999
0.46399999 10.524 0.91399997
0.463 10.527 0.90899998
0.46399999 10.525 0.90200001
0.45699999 10.548 0.90200001
0.45300001 10.558 0.89899999
0.44999999 10.569 0.89600003
0.454 10.557 0.88599998
0.45199999 10.563 0.88099998
0.45100001 10.568 0.87699997
0.45199999 10.565 0.86900002
0.45100001 10.566 0.86299998
0.45100001 10.567 0.85699999
0.45199999 10.565 0.85000002
0.45199999 10.566 0.84399998
0.44999999 10.573 0.83999997
0.45199999 10.565 0.83099997
0.447 10.58 0.829
0.45100001 10.57 0.81999999
0.44999999 10.574 0.815
0.45500001 10.56 0.80500001
0.44600001 10.584 0.80500001
0.44999999 10.575 0.796
0.45199999 10.569 0.78799999
0.44999999 10.574 0.78299999
0.44800001 10.58 0.77899998
0.44499999 10.589 0.77499998
0.44299999 10.595 0.76999998
0.44299999 10.597 0.764
0.44 10.607 0.75999999
0.43900001 10.609 0.755
0.44499999 10.593 0.74400002
0.447 10.587 0.73699999
0.447 10.588 0.73100001
0.44600001 10.59 0.72500002
0.44800001 10.583 0.71700001
0.44800001 10.584 0.71100003
0.449 10.583 0.704
0.44600001 10.591 0.69999999
0.44600001 10.591 0.69400001
0.447 10.59 0.68699998
0.44800001 10.586 0.68000001
0.44299999 10.602 0.67799997
0.44600001 10.593 0.66900003
0.44400001 10.599 0.66500002
0.44600001 10.595 0.65700001
0.44299999 10.603 0.653
0.44800001 10.589 0.64399999
0.44800001 10.588 0.63700002
0.44499999 10.6 0.634
0.447 10.593 0.62599999
0.44499999 10.6 0.62099999
0.44600001 10.597 0.61500001
0.44999999 10.584 0.60600001
0.45100001 10.582 0.59899998
0.447 10.594 0.59500003
0.44999999 10.586 0.588
0.44999999 10.585 0.58099997
0.447 10.596 0.57700002
0.44499999 10.602 0.57200003
0.44600001 10.599 0.565
0.44800001 10.592 0.55800003
0.447 10.596 0.55299997
0.447 10.597 0.54699999
0.454 10.577 0.537
0.44400001 10.606 0.53600001
0.44999999 10.589 0.52700001
0.45199999 10.583 0.51999998
0.45199999 10.585 0.514
0.454 10.579 0.50700003
0.45500001 10.575 0.5
0.44999999 10.592 0.49700001
0.45100001 10.587 0.49000001
0.449 10.594 0.48500001
0.449 10.595 0.479
0.45100001 10.589 0.472
0.45500001 10.577 0.46399999
0.449 10.597 0.461
0.44999999 10.595 0.45500001
0.454 10.581 0.447
0.449 10.596 0.44299999
0.44999999 10.593 0.43599999
0.45100001 10.593 0.43000001
0.45500001 10.582 0.42199999
0.45100001 10.593 0.41800001
0.44999999 10.597 0.412
0.45100001 10.595 0.40599999
0.45100001 10.595 0.40000001
0.44800001 10.603 0.39500001
0.449 10.6 0.389
0.45100001 10.596 0.382
0.45500001 10.583 0.37400001
0.45100001 10.596 0.37
0.45100001 10.595 0.36399999
0.449 10.602 0.359
0.458 10.577 0.34999999
0.45300001 10.592 0.345
0.458 10.575 0.33700001
0.45500001 10.587 0.333
0.45300001 10.593 0.32699999
0.456 10.582 0.31999999
0.458 10.578 0.31400001
0.458 10.579 0.308
0.454 10.591 0.303
0.454 10.589 0.29699999
0.454 10.592 0.29100001
0.45500001 10.589 0.285
0.46000001 10.574 0.27700001
0.458 10.58 0.27200001
0.456 10.586 0.26699999
0.45899999 10.577 0.25999999
0.45699999 10.584 0.25400001
0.454 10.592 0.249
0.461 10.574 0.242
0.458 10.582 0.236
0.45300001 10.597 0.23199999
0.45699999 10.585 0.22499999
0.458 10.583 0.219
0.456 10.59 0.213
0.45899999 10.582 0.207
0.46399999 10.568 0.2
0.46000001 10.579 0.19400001
0.456 10.592 0.189
0.456 10.591 0.183
0.46200001 10.575 0.176
0.454 10.597 0.17200001
0.46000001 10.581 0.16500001
0.458 10.587 0.15899999
0.45699999 10.591 0.154
0.46000001 10.583 0.147
0.45899999 10.584 0.141
0.45699999 10.591 0.13600001
0.456 10.593 0.13
0.46200001 10.576 0.123
0.46200001 10.578 0.117
0.461 10.58 0.111
0.463 10.575 0.105
0.46700001 10.565 0.098999999
0.46200001 10.579 0.093999997
0.45899999 10.589 0.088
0.463 10.577 0.082000002
0.463 10.577 0.075999998
0.46000001 10.585 0.07
0.46599999 10.568 0.064000003
0.461 10.584 0.057999998
0.45899999 10.589 0.052000001
0.463 10.579 0.046
0.46799999 10.565 0.039999999
0.463 10.58 0.034000002
0.46200001 10.581 0.028000001
0.46000001 10.588 0.023
0.53899997 10.196 2.441
0.537 10.204 2.4389999
0.53299999 10.214 2.4389999
0.53399998 10.212 2.428
0.52700001 10.234 2.438
0.52399999 10.243 2.437
0.52899998 10.229 2.4159999
0.528 10.231 2.4089999
0.523 10.248 2.414
0.523 10.248 2.4059999
0.51899999 10.26 2.4070001
0.51800001 10.264 2.402
0.52100003 10.254 2.385
0.51800001 10.264 2.385
0.51099998 10.284 2.392
0.51499999 10.273 2.3740001
0.51499999 10.274 2.3659999
0.514 10.277 2.3599999
0.51499999 10.276 2.3499999
0.509 10.293 2.3559999
0.505 10.304 2.3559999
0.50199997 10.312 2.3540001
0.50400001 10.308 2.342
0.505 10.306 2.332
0.5 10.32 2.3340001
0.50099999 10.316 2.323
0.49599999 10.331 2.326
0.5 10.32 2.309
0.49900001 10.326 2.3050001
0.493 10.343 2.3099999
0.49000001 10.352 2.3080001
0.49200001 10.347 2.296
0.493 10.344 2.2839999
0.48699999 10.36 2.289
0.48699999 10.363 2.2820001
0.47999999 10.383 2.289
0.486 10.367 2.2679999
0.48199999 10.378 2.2690001
0.484 10.371 2.2550001
0.47999999 10.383 2.2550001
0.47799999 10.391 2.253
0.477 10.394 2.2460001
0.47999999 10.386 2.2320001
0.47499999 10.401 2.2349999
0.47299999 10.405 2.23
0.47099999 10.413 2.227
0.472 10.41 2.2160001
0.46799999 10.421 2.2160001
0.47 10.417 2.2049999
0.46599999 10.429 2.2049999
0.463 10.436 2.2019999
0.465 10.432 2.191
0.463 10.439 2.187
0.46000001 10.447 2.184
0.456 10.458 2.184
0.461 10.446 2.1670001
0.45199999 10.471 2.177
0.45300001 10.47 2.168
0.454 10.466 2.1559999
0.447 10.488 2.164
0.44299999 10.499 2.1630001
0.447 10.49 2.148
0.44499999 10.494 2.1429999
0.44600001 10.492 2.1329999
0.44 10.511 2.138
0.44100001 10.508 2.128
0.44100001 10.507 2.119
0.43799999 10.518 2.118
0.43599999 10.522 2.112
0.43700001 10.522 2.1040001
0.435 10.525 2.098
0.43399999 10.53 2.0929999
0.42899999 10.544 2.0940001
0.43099999 10.54 2.0829999
0.42699999 10.552 2.0829999
0.42500001 10.557 2.0780001
0.428 10.55 2.0650001
0.421 10.569 2.0699999
0.42300001 10.566 2.059
0.42399999 10.563 2.049
0.42500001 10.559 2.0380001
0.414 10.592 2.0510001
0.40599999 10.616 2.059
0.39899999 10.637 2.0639999
0.39500001 10.648 2.063
0.40099999 10.631 2.0439999
0.414 10.594 2.0120001
0.412 10.601 2.0079999
0.41 10.608 2.0039999
0.39199999 10.658 2.0280001
0.42300001 10.585 1.679
0.41600001 10.607 1.683
0.421 10.593 1.668
0.42300001 10.587 1.6569999
0.419 10.598 1.656
0.41999999 10.596 1.647
0.41999999 10.597 1.64
0.41800001 10.603 1.636
0.41999999 10.603 1.54
0.41999999 10.603 1.533
0.426 10.594 1.386
0.42899999 10.586 1.376
0.426 10.594 1.372
0.428 10.59 1.363
0.42399999 10.601 1.3609999
0.421 10.61 1.358
0.428 10.591 1.3430001
0.42300001 10.606 1.342
0.42399999 10.602 1.334
0.42699999 10.595 1.324
0.43200001 10.581 1.311
0.426 10.599 1.312
0.421 10.614 1.311
0.43000001 10.585 1.2920001
0.42699999 10.595 1.289
0.42699999 10.595 1.2819999
0.433 10.578 1.268
0.428 10.595 1.268
0.42699999 10.596 1.262
0.43200001 10.587 1.204
0.43099999 10.59 1.198
0.42500001 10.608 1.199
0.42899999 10.595 1.187
0.43000001 10.592 1.179
0.42699999 10.602 1.176
0.43000001 10.595 1.1670001
0.42899999 10.596 1.16
0.42899999 10.598 1.154
0.43399999 10.584 1.143
0.43000001 10.594 1.14
0.42899999 10.598 1.1339999
0.42699999 10.604 1.13
0.43000001 10.595 1.12
0.42899999 10.6 1.115
0.42899999 10.6 1.108
0.43599999 10.58 1.095
0.42500001 10.611 1.099
0.43000001 10.597 1.087
0.43200001 10.593 1.079
0.42899999 10.602 1.076
0.435 10.586 1.064
0.428 10.606 1.064
0.435 10.587 1.051
0.43000001 10.601 1.049
0.435 10.586 1.0369999
0.433 10.591 1.033
0.43099999 10.599 1.029
0.43399999 10.59 1.0190001
0.43700001 10.582 1.01
0.43599999 10.585 1.0039999
0.43000001 10.604 1.0039999
0.43399999 10.591 0.99299997
0.43000001 10.603 0.991
0.435 10.588 0.98000002
0.44 10.576 0.96899998
0.442 10.568 0.95999998
0.43900001 10.579 0.95700002
0.43900001 10.58 0.95099998
0.44100001 10.573 0.94300002
0.44999999 10.548 0.92799997
0.458 10.524 0.91500002
0.456 10.53 0.91000003
0.45899999 10.523 0.90200001
0.44800001 10.554 0.90499997
0.44499999 10.565 0.90200001
0.44400001 10.567 0.89600003
0.44600001 10.563 0.88800001
0.44499999 10.565 0.88300002
0.44600001 10.562 0.875
0.44600001 10.563 0.86900002
0.44100001 10.578 0.86699998
0.44800001 10.559 0.85500002
0.447 10.56 0.84899998
0.449 10.555 0.84200001
0.44400001 10.571 0.83999997
0.44400001 10.569 0.833
0.44499999 10.567 0.82599998
0.44299999 10.575 0.82200003
0.44600001 10.566 0.81300002
0.44499999 10.571 0.80800003
0.44 10.583 0.80500001
0.44400001 10.572 0.796
0.44299999 10.577 0.79100001
0.44100001 10.584 0.78600001
0.44999999 10.556 0.773
0.44100001 10.584 0.77399999
0.44499999 10.572 0.76499999
0.44600001 10.569 0.75800002
0.44 10.588 0.75599998
0.43900001 10.589 0.75
0.43799999 10.594 0.745
0.43700001 10.596 0.73900002
0.442 10.584 0.73000002
0.43200001 10.612 0.73000002
0.43000001 10.618 0.72600001
0.44100001 10.587 0.71200001
0.433 10.611 0.71100003
0.433 10.612 0.70499998
0.428 10.627 0.70200002
0.43200001 10.614 0.69300002
0.44100001 10.589 0.68099999
0.44299999 10.584 0.67400002
0.442 10.588 0.66900003
0.44100001 10.59 0.66299999
0.44 10.592 0.65700001
0.44 10.593 0.65100002
0.43799999 10.599 0.64600003
0.43799999 10.599 0.63999999
0.43399999 10.613 0.63700002
0.44400001 10.584 0.62400001
0.435 10.611 0.62400001
0.43200001 10.618 0.61900002
0.433 10.615 0.61199999
0.44 10.597 0.602
0.44 10.598 0.59600002
0.43900001 10.599 0.58999997
0.44299999 10.588 0.58200002
0.447 10.577 0.574
0.45199999 10.563 0.565
0.44600001 10.58 0.56199998
0.44299999 10.589 0.55800003
0.43799999 10.604 0.55400002
0.43799999 10.605 0.54799998
0.44100001 10.597 0.54100001
0.44299999 10.59 0.53299999
0.44600001 10.581 0.52600002
0.442 10.596 0.52200001
0.449 10.574 0.51200002
0.442 10.596 0.50999999
0.44 10.601 0.505
0.44800001 10.579 0.495
0.44299999 10.594 0.491
0.44499999 10.587 0.484
0.44100001 10.6 0.47999999
0.44499999 10.589 0.472
0.44499999 10.589 0.46599999
0.43900001 10.606 0.463
0.442 10.599 0.456
0.44800001 10.581 0.447
0.442 10.6 0.44299999
0.447 10.586 0.435
0.44499999 10.59 0.43000001
0.44499999 10.591 0.42399999
0.44499999 10.592 0.41800001
0.449 10.58 0.41
0.44600001 10.59 0.40599999
0.449 10.582 0.398
0.44299999 10.599 0.39500001
0.44499999 10.594 0.38800001
0.44299999 10.6 0.38299999
0.447 10.588 0.375
0.44999999 10.58 0.368
0.447 10.59 0.36300001
0.44800001 10.586 0.35699999
0.44600001 10.592 0.352
0.44999999 10.582 0.34400001
0.454 10.57 0.33700001
0.449 10.586 0.333
0.44400001 10.598 0.32800001
0.442 10.605 0.32300001
0.44600001 10.593 0.315
0.45500001 10.567 0.30700001
0.44999999 10.582 0.30199999
0.44600001 10.596 0.29800001
0.45199999 10.58 0.28999999
0.44800001 10.59 0.285
0.45100001 10.583 0.278
0.449 10.587 0.273
0.45199999 10.581 0.266
0.45300001 10.578 0.25999999
0.447 10.594 0.25600001
0.44800001 10.594 0.25
0.45199999 10.58 0.242
0.45100001 10.584 0.237
0.45300001 10.578 0.23
0.45300001 10.578 0.22400001
0.45300001 10.579 0.21799999
0.45100001 10.587 0.213
0.447 10.597 0.208
0.45100001 10.586 0.20100001
0.44800001 10.597 0.19599999
0.454 10.579 0.189
0.44999999 10.59 0.183
0.45300001 10.582 0.177
0.45500001 10.576 0.17
0.45100001 10.587 0.16500001
0.44999999 10.59 0.16
0.454 10.579 0.153
0.45199999 10.586 0.147
0.458 10.57 0.14
0.45500001 10.578 0.13500001
0.45699999 10.573 0.12899999
0.45300001 10.585 0.123
0.454 10.583 0.117
0.456 10.575 0.111
