ply
format ascii 1.0
comment PCL generated
element vertex 777
property float x
property float y
property float z
element camera 1
property float view_px
property float view_py
property float view_pz
property float x_axisx
property float x_axisy
property float x_axisz
property float y_axisx
property float y_axisy
property float y_axisz
property float z_axisx
property float z_axisy
property float z_axisz
property float focal
property float scalex
property float scaley
property float centerx
property float centery
property int viewportx
property int viewporty
property float k1
property float k2
end_header
-15.628355 5.3897386 0.054336958
-15.550167 5.3789816 0.049815673
-15.466033 5.3746924 0.034849994
-16.509312 5.484333 0.048642859
-16.450319 5.4773984 0.047704298
-16.349401 5.4615312 0.048210211
-16.273411 5.4631019 0.051376075
-15.706997 5.4354715 0.087705888
-15.660172 5.4297185 0.05161744
-15.565833 5.4029999 0.060000002
-15.436824 5.4487262 0.053736851
-15.392765 5.4675879 0.010117646
-16.50905 5.547142 0.054952394
-16.494999 5.5773158 0.044947367
-16.249928 5.5466785 0.048205364
-15.702 5.5149999 0.098999999
-15.643686 5.5464187 0.058829471
-15.550416 5.5395565 0.049718313
-15.452265 5.5224929 0.046684615
-15.390182 5.5150909 0.012818183
-17.228859 5.6967144 0.036000002
-17.149107 5.6903548 0.052000005
-17.08625 5.6850624 0.080499999
-16.456985 5.6674962 0.051158283
-16.350218 5.6757565 0.049595505
-16.250299 5.6525116 0.049301516
-17.318432 5.7512159 0.02845946
-17.255831 5.7255788 0.052099176
-17.139107 5.7235131 0.030666659
-17.073408 5.7590904 0.063948721
-16.45727 5.7069826 0.049576271
-17.315859 5.8269291 0.010000002
-17.245472 5.8468528 0.044613633
-17.150503 5.8333335 0.047415383
-17.073332 5.8129082 0.062174421
-15.712001 5.3951674 0.15666668
-15.638143 5.3914185 0.1484369
-15.561302 5.3855848 0.13454315
-15.486 5.3969998 0.104
-16.508076 5.4867778 0.13914813
-16.450785 5.4807863 0.1497191
-16.350863 5.4661546 0.14863336
-16.275238 5.464036 0.1513578
-15.741657 5.4328685 0.1562462
-15.659553 5.4082274 0.15406929
-15.539416 5.4335041 0.16358414
-15.484944 5.4599442 0.12027778
-16.508375 5.5433736 0.15123531
-16.490307 5.5716929 0.16030771
-16.249849 5.5443044 0.14662853
-15.735408 5.5542421 0.16043243
-15.651723 5.5609193 0.15013915
-15.548981 5.5411868 0.14758712
-15.48037 5.521143 0.12045716
-17.134161 5.6897373 0.14399998
-17.056688 5.6768403 0.15346536
-16.991556 5.6788888 0.19344445
-16.514999 5.6059999 0.13500001
-16.460438 5.6728892 0.15094228
-16.348518 5.6782875 0.14855051
-16.251919 5.6560183 0.14999036
-17.229134 5.736927 0.13636582
-17.1724 5.7214832 0.16401665
-17.024967 5.7518554 0.1348556
-16.981045 5.7698345 0.17401497
-16.449999 5.7113781 0.15080304
-16.369667 5.7030005 0.13166668
-17.216997 5.8402252 0.11948387
-17.14753 5.8385696 0.14627928
-17.053419 5.8156924 0.1502244
-16.985716 5.8059049 0.1677143
-15.715201 5.3944001 0.23480001
-15.651835 5.3917446 0.23479068
-15.594001 5.3956671 0.20300001
-16.507948 5.4911509 0.23785
-16.449102 5.4846616 0.24987112
-16.352491 5.4690909 0.24879761
-16.276873 5.4673066 0.24900904
-15.830387 5.447485 0.26030153
-15.750679 5.4214783 0.24864985
-15.649988 5.4205327 0.25379333
-15.580086 5.4503675 0.22731669
-16.511194 5.5419178 0.2518611
-16.479181 5.5302725 0.23836367
-16.252136 5.5458465 0.24702047
-15.828202 5.5500541 0.2657671
-15.753761 5.5773916 0.24517399
-15.646461 5.562809 0.25140813
-15.575805 5.5349746 0.23297556
-17.120426 5.6925712 0.23261905
-17.050669 5.6815605 0.24742195
-16.962021 5.671566 0.25992391
-16.508833 5.6065001 0.25566667
-16.462158 5.6700163 0.24853125
-16.348541 5.6825914 0.24658383
-16.249949 5.6563964 0.24811225
-15.822271 5.6040001 0.28618184
-15.765 5.6009998 0.21699999
-17.144779 5.7340612 0.24839997
-17.055166 5.7358336 0.26383334
-16.938959 5.7638102 0.24543284
-16.891251 5.7711496 0.28400001
-16.5145 5.7215004 0.25150001
-16.452049 5.7113481 0.25275585
-16.3654 5.7033 0.26019999
-17.124512 5.8312635 0.23029825
-17.051893 5.8247142 0.24890499
-16.971611 5.8077126 0.2572988
-16.893999 5.8049998 0.29300001
-15.7168 5.3964 0.3238
-15.7 5.3909998 0.30500001
-16.508354 5.4951177 0.34794116
-16.449757 5.4885836 0.34761077
-16.351013 5.4721165 0.3484692
-16.277161 5.4689903 0.34912869
-15.921357 5.4630923 0.37095383
-15.85159 5.4423523 0.34928855
-15.749362 5.4271655 0.34947601
-15.673613 5.4505119 0.33212501
-16.512339 5.5455279 0.35015279
-16.477871 5.5241289 0.35412899
-16.251999 5.5464654 0.3495543
-15.920796 5.5445094 0.37648979
-15.859254 5.5690308 0.33723
-15.74625 5.5827689 0.35189548
-15.664633 5.5525708 0.34148583
-17.103001 5.6869998 0.30700001
-17.035814 5.684814 0.34459999
-16.948528 5.6643987 0.34746334
-16.870985 5.6659455 0.36580554
-16.506001 5.6096663 0.32866669
-16.466784 5.6675911 0.35102904
-16.347012 5.6860199 0.35039872
-16.249739 5.6618118 0.34969589
-15.911181 5.6168184 0.38545454
-15.850486 5.6092806 0.35764042
-15.783312 5.6034999 0.34262499
-17.107901 5.7271004 0.31020007
-17.06654 5.7460566 0.35286114
-16.931911 5.7898526 0.3292647
-16.854813 5.7640848 0.35287505
-16.790001 5.7519169 0.38641664
-16.450926 5.7133322 0.35175437
-16.377949 5.7049475 0.34478945
-16.237499 5.7014999 0.3355
-17.030981 5.8256049 0.33793756
-16.955763 5.8144183 0.35311022
-16.885899 5.8059993 0.37920004
-16.504999 5.4952726 0.4560909
-16.443104 5.4916511 0.44856873
-16.350391 5.4767656 0.44820115
-16.277893 5.4728913 0.44970658
-16.017324 5.4796128 0.47958067
-15.948874 5.4599886 0.44949728
-15.848862 5.4433937 0.45036879
-15.768529 5.4553723 0.43546954
-15.697 5.4889998 0.40599999
-16.512533 5.5410242 0.4484756
-16.46714 5.5140018 0.44813848
-16.252373 5.5434356 0.44907451
-16.013708 5.5400648 0.48512903
-15.967669 5.5558853 0.43877223
-15.825916 5.5939164 0.44238886
-15.753336 5.5610752 0.44608143
-15.6915 5.5310001 0.405
-17.016624 5.6882501 0.41275001
-16.94582 5.6700382 0.44552007
-16.848156 5.6525264 0.44768429
-16.78035 5.6630006 0.47395653
-16.504999 5.6105003 0.45050001
-16.469219 5.6673703 0.45018548
-16.344954 5.6884933 0.44664395
-16.248672 5.6646023 0.4503051
-15.941701 5.6205282 0.45914042
-15.858198 5.6112347 0.45121732
-15.788363 5.6024537 0.44909093
-17.018555 5.7292891 0.42660528
-16.969213 5.7529635 0.46426788
-16.839779 5.7802196 0.44236997
-16.764254 5.7541528 0.45922637
-16.449606 5.7155437 0.44944009
-16.36684 5.7046824 0.45320448
-16.299999 5.7010002 0.47999999
-17.0065 5.8190002 0.4075
-16.942205 5.8166695 0.44072026
-16.872856 5.8061919 0.46038294
-16.507126 5.4952497 0.56462497
-16.441738 5.4908481 0.54763281
-16.350002 5.4801445 0.5483892
-16.280003 5.4746141 0.54736376
-16.105 5.4959998 0.597
-16.040592 5.479198 0.55351472
-15.950983 5.4609637 0.54822952
-15.864058 5.4624648 0.53998595
-16.513443 5.5426722 0.54678488
-16.462402 5.5120378 0.54840738
-16.379501 5.5019999 0.55150002
-16.25511 5.5468383 0.54931623
-16.114714 5.5140004 0.58400005
-16.059343 5.5478773 0.54900807
-15.911 5.592 0.58999997
-15.833475 5.5550094 0.55624741
-15.789615 5.5606775 0.5156129
-16.926416 5.6804147 0.53509754
-16.851831 5.6548944 0.54924345
-16.750158 5.6435094 0.55213594
-16.688681 5.6713181 0.58513641
-16.502375 5.609375 0.55974996
-16.478098 5.6648498 0.54539728
-16.3447 5.6903949 0.54897368
-16.248882 5.6656833 0.54895777
-16.034491 5.6314168 0.5614388
-15.951313 5.6294398 0.54960382
-15.859548 5.6126866 0.54422587
-15.797 5.5999999 0.51899999
-16.929749 5.7389231 0.53423083
-16.844648 5.7820659 0.55359036
-16.744141 5.7623606 0.54403627
-16.677217 5.7479362 0.56760901
-16.449255 5.7167196 0.55102032
-16.364771 5.7053108 0.54947537
-16.259501 5.7028751 0.5345
-16.911547 5.8145456 0.51190913
-16.855799 5.8086219 0.54688394
-16.791859 5.8012857 0.57685721
-16.506001 5.4959998 0.63800001
-16.433262 5.4921842 0.64835393
-16.347023 5.4827828 0.64730769
-16.279753 5.4770422 0.64675337
-16.120739 5.4907007 0.65989995
-16.04954 5.479497 0.64920807
-15.960793 5.4745793 0.63889998
-15.895401 5.4824004 0.60700005
-16.514063 5.5455265 0.64929497
-16.463684 5.5079746 0.65088457
-16.384857 5.5034285 0.65800011
-16.2572 5.5466671 0.64866662
-16.140245 5.5354829 0.65188962
-16.088123 5.5406246 0.62093741
-15.928763 5.537106 0.66859996
-15.880734 5.5642323 0.62623215
-16.836657 5.6675849 0.64517087
-16.751394 5.6377921 0.64949548
-16.655052 5.6443543 0.65344441
-16.520779 5.6200004 0.66049999
-16.482878 5.6605082 0.64829224
-16.342684 5.6928968 0.64338636
-16.249329 5.665946 0.64812481
-16.130148 5.6393957 0.66846907
-16.051785 5.6469679 0.64666855
-15.951922 5.6294165 0.64701992
-15.884273 5.6161366 0.62245446
-16.834414 5.7528915 0.63792789
-16.748596 5.7809649 0.64883417
-16.648197 5.7494388 0.64806288
-16.589304 5.7295661 0.67926091
-16.448122 5.7206197 0.64945954
-16.357817 5.7076993 0.65434927
-16.282221 5.7031116 0.65544444
-16.81707 5.8080006 0.62042856
-16.773701 5.8044009 0.65310001
-16.428425 5.4937263 0.74478787
-16.347786 5.4858127 0.74892092
-16.281219 5.4818921 0.74599993
-16.130882 5.4913201 0.75242853
-16.05629 5.4844503 0.73914492
-15.993572 5.4921436 0.70885718
-16.6035 5.5935001 0.74699998
-16.521776 5.5643272 0.73691839
-16.457125 5.5096231 0.75070179
-16.382601 5.5051003 0.76000005
-16.245358 5.5386882 0.75154674
-16.1654 5.5169659 0.74310416
-16.033087 5.5205922 0.7690562
-15.974828 5.551322 0.73473579
-16.809626 5.686625 0.70875001
-16.748821 5.6567454 0.74565256
-16.648199 5.6248126 0.74623334
-16.566149 5.6372361 0.74947315
-16.490959 5.6623206 0.74489999
-16.337307 5.6926742 0.74259639
-16.249434 5.6724882 0.74733949
-16.15346 5.6634388 0.7476033
-16.049322 5.6498065 0.7487756
-15.974955 5.6265359 0.73718846
-16.73917 5.762526 0.74134815
-16.651409 5.7670856 0.74840623
-16.563419 5.7387166 0.75824189
-16.448446 5.7251401 0.74922436
-16.357422 5.7099924 0.75249201
-16.279667 5.7047334 0.75080007
-16.728666 5.8054676 0.73339999
-16.698999 5.802 0.75300002
-16.432444 5.4943337 0.83427775
-16.343864 5.4872813 0.84917819
-16.282701 5.4847398 0.84686011
-16.139212 5.4929533 0.83155805
-16.089201 5.4931998 0.81100005
-16.529884 5.5685883 0.83982354
-16.454243 5.5117717 0.8528111
-16.376965 5.5052218 0.85003698
-16.244192 5.5180626 0.84849614
-16.151262 5.5137191 0.85455495
-16.065071 5.5435066 0.83582741
-16.717709 5.6653223 0.82358062
-16.652315 5.6386576 0.85045254
-16.569656 5.6124287 0.84918559
-16.456001 5.6852002 0.87060004
-16.340551 5.6911035 0.84379315
-16.24544 5.6866102 0.8460232
-16.15057 5.6726284 0.84977782
-16.063219 5.6427631 0.84416431
-16.712101 5.7282996 0.80870003
-16.643618 5.7641311 0.84477764
-16.551085 5.7506332 0.85005867
-16.451635 5.7274513 0.84809339
-16.353811 5.7102928 0.85077852
-16.266315 5.7048688 0.8582105
-16.197001 5.7030001 0.87800002
-16.679001 5.8015003 0.80500001
-16.427427 5.4948568 0.92228574
-16.342695 5.4906754 0.94912618
-16.286209 5.4879169 0.94683337
-16.518368 5.5569472 0.94231576
-16.45351 5.5160961 0.95285189
-16.376272 5.5060611 0.95030302
-16.242624 5.5222306 0.95104325
-16.161167 5.5480137 0.93972355
-16.629143 5.6602902 0.93130904
-16.574614 5.6302333 0.95076632
-16.410667 5.6803336 0.91166675
-16.339928 5.6806827 0.93980479
-16.241476 5.6866632 0.94869936
-16.153477 5.6634121 0.94608235
-16.094727 5.6394548 0.91163635
-16.617739 5.7343707 0.92133331
-16.547588 5.7577586 0.94795781
-16.453022 5.7378807 0.95093626
-16.352205 5.7144375 0.95412225
-16.275288 5.7089801 0.94928575
-16.183001 5.7043333 0.94566667
-16.598 5.8060002 0.89999998
-16.438499 5.4962502 1.0314999
-16.335873 5.4883113 1.0509354
-16.289061 5.4898481 1.0438787
-16.511999 5.5397205 1.0544399
-16.449694 5.5163035 1.048805
-16.368404 5.5056767 1.048695
-16.255619 5.5447488 1.0468215
-16.192287 5.5780001 1.0127143
-16.550362 5.6630177 1.0404826
-16.493999 5.6890001 1.096
-16.315001 5.6896667 1.0666668
-16.239204 5.6736069 1.0525119
-16.186117 5.649085 1.0188286
-16.521414 5.7452359 1.0303333
-16.450655 5.7513747 1.0501001
-16.350824 5.7251101 1.0478224
-16.274466 5.7108264 1.0512693
-16.409 5.4959998 1.131
-16.331856 5.4916654 1.1436664
-16.291317 5.4932642 1.1376841
-16.515547 5.5500603 1.1507576
-16.45022 5.5220237 1.1480519
-16.359896 5.5076246 1.1562209
-16.273098 5.543509 1.1490002
-16.508121 5.6285367 1.1523172
-16.496614 5.6744223 1.1444616
-16.317888 5.693778 1.1425555
-16.250603 5.6543121 1.1460165
-16.505001 5.7305002 1.1429999
-16.453279 5.7467442 1.1492277
-16.350721 5.727838 1.1516898
-16.263233 5.7144513 1.1505738
-16.325768 5.4936972 1.2463952
-16.294199 5.4924664 1.2431332
-16.517309 5.557065 1.2501745
-16.450418 5.5253887 1.2486793
-16.360411 5.5110936 1.248505
-16.274786 5.5466294 1.2489691
-16.508881 5.6376996 1.2510998
-16.49695 5.6793504 1.2386501
-16.313999 5.6919999 1.232
-16.25079 5.6510787 1.2498084
-16.50325 5.7305002 1.2512499
-16.452732 5.7440715 1.2500377
-16.351328 5.7340002 1.2502794
-16.262249 5.7161021 1.2497199
-16.310644 5.4942145 1.3426429
-16.298 5.4895 1.3385
-16.513622 5.5556755 1.3502432
-16.448183 5.5304294 1.3510072
-16.353861 5.514173 1.349875
-16.278843 5.5439281 1.3494321
-16.511986 5.637743 1.3495159
-16.49791 5.686727 1.3493637
-16.252758 5.6473365 1.3490909
-16.50325 5.7234998 1.32525
-16.45541 5.7487531 1.3498104
-16.351391 5.7365961 1.3484265
-16.264294 5.7200232 1.349785
-16.319666 5.4955554 1.4382223
-16.516121 5.5586944 1.4504287
-16.448664 5.5344415 1.4511551
-16.350601 5.5158525 1.4495935
-16.278862 5.5477605 1.4507619
-16.511696 5.6462703 1.4492882
-16.499168 5.6845007 1.4335001
-16.256075 5.6450429 1.4479582
-16.502287 5.7258577 1.4615715
-16.45508 5.7519946 1.4504999
-16.350019 5.7376823 1.4490916
-16.264933 5.7213144 1.4485321
-16.5165 5.5620389 1.5484807
-16.451511 5.5384736 1.5502331
-16.348869 5.5192609 1.5493046
-16.280149 5.5496693 1.5486953
-16.513395 5.653482 1.5487416
-16.255878 5.6456971 1.5485961
-16.50275 5.7141666 1.5444168
-16.455753 5.7587719 1.5493457
-16.350384 5.7442594 1.5483915
-16.26293 5.7237473 1.5455277
-16.517736 5.5680008 1.6490349
-16.452976 5.546803 1.6502625
-16.347521 5.5234818 1.649696
-16.282232 5.5519543 1.647849
-16.515848 5.6540585 1.6494231
-16.258488 5.6455207 1.6473855
-16.504461 5.723999 1.6493466
-16.453836 5.7639952 1.6485393
-16.348854 5.7494402 1.649006
-16.264458 5.7260761 1.6478993
-16.464001 5.802 1.642
-16.520969 5.5713382 1.7516154
-16.451061 5.5491991 1.7484728
-16.349155 5.5306454 1.7515036
-16.28244 5.5565681 1.7450323
-16.518867 5.6537995 1.7468165
-16.261078 5.6444902 1.7506062
-16.505102 5.7253332 1.7539004
-16.454626 5.7711878 1.7467725
-16.351053 5.7531915 1.7488517
-16.263794 5.7307448 1.7494001
-16.462999 5.80375 1.7572501
-16.518665 5.5739541 1.8487426
-16.44932 5.5540023 1.8502764
-16.348547 5.5355539 1.8498902
-16.282888 5.5603094 1.8494022
-16.521687 5.6512222 1.8502699
-16.261353 5.6467586 1.8480116
-16.506161 5.7313867 1.8519678
-16.454243 5.7736392 1.8476995
-16.347677 5.7566795 1.8483089
-16.264198 5.7337747 1.8488081
-16.464125 5.8038745 1.849875
-16.519817 5.5791869 1.9494077
-16.450367 5.5599332 1.9516759
-16.348728 5.5424685 1.9506559
-16.284769 5.560842 1.950067
-16.524096 5.647171 1.9499623
-16.26399 5.6494083 1.9504857
-16.508228 5.731523 1.9511592
-16.451977 5.7783866 1.9493526
-16.351143 5.7624154 1.9477576
-16.264645 5.7359772 1.9504418
-16.471601 5.8052001 1.9687999
-16.520662 5.5828133 2.0477116
-16.44973 5.5635476 2.0491438
-16.348894 5.5449657 2.04934
-16.285793 5.5617905 2.0495112
-16.52285 5.6555667 2.0510569
-16.490999 5.6030002 2.089
-16.267485 5.6487317 2.0511615
-16.508709 5.7375908 2.0501821
-16.448761 5.780807 2.0504296
-16.34947 5.7645602 2.0495262
-16.265898 5.7367921 2.0521762
-16.47047 5.8072824 2.049875
-16.517611 5.5849795 2.1492651
-16.447672 5.5681424 2.1508033
-16.348085 5.5488977 2.1488633
-16.288656 5.5641427 2.1468291
-16.526222 5.6473041 2.1500175
-16.27025 5.649087 2.1493695
-16.514503 5.7509184 2.1522746
-16.443563 5.7863917 2.1430633
-16.352016 5.7710309 2.1489232
-16.265837 5.7415495 2.151767
-16.511951 5.8206 2.1801
-16.468691 5.8172588 2.16487
-16.257 5.8119998 2.1370001
-16.519285 5.4902143 2.289
-16.446018 5.4867268 2.2844365
-16.392876 5.4861245 2.2806249
-16.524731 5.5456138 2.2515907
-16.451321 5.5350642 2.2376642
-16.352222 5.5470977 2.2492332
-16.289228 5.5679302 2.2458248
-16.5345 5.638206 2.2430589
-16.301666 5.639667 2.2666669
-16.274172 5.6495175 2.2476552
-16.528189 5.7542925 2.2492414
-16.409 5.7930002 2.2070003
-16.337418 5.7730017 2.2395451
-16.26832 5.7451468 2.2526226
-16.513968 5.8395333 2.2542503
-16.450006 5.8609576 2.2409585
-16.374954 5.8476086 2.2596371
-16.460443 5.9154449 2.2825739
-16.394001 5.9014997 2.296
-16.5355 5.3909998 2.3945
-16.4568 5.3894005 2.3886001
-16.533802 5.4514632 2.3548884
-16.445953 5.4428105 2.3493786
-16.393459 5.4703517 2.3525405
-16.542944 5.5465283 2.3498116
-16.424 5.5161996 2.3466001
-16.351143 5.5497417 2.3487153
-16.292545 5.5698581 2.3423808
-16.531038 5.6367784 2.3495929
-16.304501 5.6167502 2.3474998
-16.278772 5.646502 2.3477108
-16.532974 5.7588887 2.3372777
-16.33065 5.7678499 2.3389747
-16.272379 5.7428694 2.3460374
-16.518795 5.8559999 2.3427303
-16.467335 5.8956671 2.3053331
-16.350809 5.8604317 2.3355174
-16.259001 5.829 2.3410001
-16.509485 5.920414 2.3672414
-16.452204 5.9572525 2.3441439
-16.367672 5.9450784 2.3563504
-16.449947 6.0133948 2.3829734
-16.383801 6.0112 2.3930001
-16.500999 5.2870002 2.4979999
-16.427999 5.2989998 2.4890001
-16.542402 5.3625708 2.459671
-16.45364 5.3616624 2.4522412
-16.556017 5.4396653 2.4370725
-16.415075 5.4314628 2.4482877
-16.393196 5.4720984 2.4439507
-16.542177 5.5566082 2.4443913
-16.444 5.5689998 2.4749999
-16.349237 5.5564156 2.4487288
-16.292568 5.5738916 2.4457302
-16.528055 5.6627717 2.449486
-16.326 5.6110001 2.4416668
-16.280369 5.6467576 2.4496417
-16.521915 5.7363911 2.4616086
-16.403999 5.7709999 2.4735
-16.34325 5.769094 2.4418437
-16.273207 5.7428956 2.4482682
-16.521532 5.8582559 2.4408512
-16.364929 5.8576427 2.4430714
-16.510458 5.9476461 2.4483752
-16.487833 5.9810419 2.4235835
-16.344505 5.9648681 2.4328852
-16.50477 6.0187697 2.4767692
-16.450304 6.0509739 2.445893
-16.360617 6.0454335 2.4570894
-16.438559 6.1127672 2.4856977
-16.387602 6.1082001 2.4912
-16.601 5.2709999 2.5840001
-16.550632 5.2668262 2.5635402
-16.464378 5.2698445 2.5613122
-16.559538 5.329977 2.5304837
-16.434278 5.3407578 2.5419638
-16.55756 5.4495592 2.5517597
-16.412701 5.4338942 2.5462677
-16.395752 5.4638338 2.5349998
-16.533972 5.5412574 2.5411716
-16.408453 5.5556998 2.5639501
-16.347242 5.5648327 2.548471
-16.294716 5.5793219 2.5516787
-16.530363 5.6525154 2.5474238
-16.304001 5.6274004 2.5550001
-16.281971 5.6454873 2.5502734
-16.519869 5.7356663 2.5572448
-16.424858 5.7878575 2.5568571
-16.339302 5.768734 2.5454667
-16.271614 5.7406249 2.5502217
-16.513668 5.8466668 2.5480475
-16.414001 5.8709998 2.5596666
-16.370813 5.8689375 2.5307503
-16.27 5.8140001 2.527
-16.510523 5.9520445 2.5437722
-16.499001 5.9853339 2.559
-16.354702 5.9531999 2.5469337
-16.502462 6.0279226 2.5403078
-16.487753 6.0660725 2.5435719
-16.329605 6.0663109 2.5370717
-16.297001 6.0796671 2.5763335
-16.444477 6.1497555 2.5486131
-16.353765 6.1454997 2.5560958
-16.299 6.1230001 2.562
-16.427847 6.2128849 2.586962
-16.374304 6.2059002 2.5932996
-16.605782 5.1703048 2.6760435
-16.549067 5.1733522 2.6693902
-16.47299 5.1741986 2.6691871
-16.605 5.2212501 2.6489377
-16.558548 5.2293477 2.6281941
-16.454937 5.2415047 2.6408463
-16.574938 5.3518972 2.6534691
-16.429054 5.3440552 2.6470332
-16.541876 5.42839 2.6346338
-16.426922 5.4404621 2.6364617
-16.393 5.4169998 2.612
-16.534 5.5810003 2.642091
-16.419542 5.5749798 2.6556039
-16.345907 5.5703616 2.6500945
-16.295189 5.5814285 2.6427622
-16.531813 5.645031 2.6461251
-16.4265 5.6005001 2.6485
-16.342548 5.6207275 2.6582727
-16.283766 5.6451263 2.6484261
-16.519466 5.7433224 2.6520009
-16.453001 5.7906246 2.6407499
-16.343851 5.7726765 2.649647
-16.272526 5.7378149 2.6526189
-16.506268 5.8179336 2.6500669
-16.495857 5.829072 2.6629288
-16.386999 5.8920002 2.6029999
-16.505301 5.9566002 2.6244001
-16.470333 5.9386668 2.6520002
-16.363951 5.9698997 2.6413498
-16.503611 6.0213337 2.6431668
-16.494093 6.0632677 2.6450002
-16.335934 6.0614514 2.6425483
-16.280001 6.0780001 2.635
-16.476238 6.1576915 2.6388097
-16.31893 6.1565719 2.6411707
-16.29125 6.1603746 2.6396248
-16.437429 6.2499137 2.6506233
-16.351492 6.2483511 2.6520834
-16.296583 6.2265005 2.6755004
-16.424267 6.3172011 2.6895998
-16.373068 6.3075347 2.6933336
-16.615 5.0824075 2.7792962
-16.546829 5.0794253 2.7762334
-16.485153 5.0812612 2.7723262
-16.6157 5.1440306 2.7487452
-16.552429 5.1256151 2.7294121
-16.468613 5.1460485 2.745508
-16.605232 5.2131538 2.7493844
-16.58897 5.2659416 2.7491174
-16.445063 5.2467918 2.747139
-16.553331 5.3349428 2.7444043
-16.440022 5.3314095 2.7440002
-16.537624 5.5881248 2.74125
-16.43321 5.5861287 2.7543864
-16.346333 5.5774117 2.7495806
-16.294819 5.5923638 2.7535455
-16.534647 5.6459117 2.751647
-16.4461 5.6058998 2.7552001
-16.325399 5.6176 2.7579999
-16.280834 5.6495585 2.7516863
-16.524693 5.7463264 2.7437756
-16.4247 5.7898002 2.7496998
-16.340868 5.775466 2.7475996
-16.266209 5.73628 2.7582679
-16.521482 5.8250737 2.7598522
-16.48461 5.831511 2.7512438
-16.382332 5.8053336 2.7533336
-16.299 5.8080001 2.776
-16.489 5.9580002 2.7290001
-16.492773 6.066709 2.7489672
-16.349615 6.0729232 2.7415385
-16.486015 6.1528854 2.7476392
-16.325323 6.1486335 2.7500639
-16.273001 6.1929998 2.73
-16.466909 6.2583294 2.7396476
-16.31761 6.2562594 2.7415195
-16.292257 6.2668567 2.7438571
-16.433014 6.3469739 2.7529223
-16.351324 6.3504176 2.7513671
-16.292612 6.3364167 2.7684448
-16.417788 6.4135008 2.7892144
-16.379904 6.4136195 2.792381
-16.623646 4.9885883 2.8898826
-16.551407 4.9888334 2.8833811
-16.490334 4.9903336 2.877667
-16.62475 5.0417819 2.8493917
-16.549885 5.0327978 2.8398802
-16.483166 5.0531297 2.8499701
-16.618574 5.145525 2.8463748
-16.503 5.1960001 2.8889999
-16.46274 5.1475244 2.847899
-16.605549 5.2205453 2.8511817
-16.56151 5.2528491 2.8458307
-16.456814 5.2432389 2.8440001
-16.57 5.302 2.8035002
-16.440001 5.3255 2.81675
-16.525999 5.586 2.839
-16.440353 5.5904593 2.8461759
-16.344416 5.5794792 2.8489215
-16.293623 5.589375 2.8326252
-16.53476 5.6543598 2.8376
-16.461287 5.6088157 2.8594472
-16.336847 5.6098466 2.8581541
-16.25268 5.6491261 2.8525429
-16.607168 5.7690001 2.8873334
-16.570663 5.7596669 2.8453338
-16.4084 5.7884002 2.8593001
-16.343502 5.7791157 2.852231
-16.23531 5.7442083 2.845645
-16.195572 5.727572 2.8892858
-16.608749 5.8135004 2.8882499
-16.551558 5.829443 2.8510997
-16.474253 5.8287506 2.8505995
-16.33325 5.8065 2.8097501
-16.2225 5.8135004 2.86025
-16.489002 6.0893335 2.842
-16.341999 6.0679998 2.8080001
-16.485603 6.155448 2.8466578
-16.337236 6.1667099 2.8351054
-16.475632 6.2524614 2.8494775
-16.317638 6.241343 2.8530152
-16.297167 6.2823334 2.8316667
-16.457918 6.3560233 2.8431411
-16.313442 6.3567038 2.8354447
-16.287468 6.3594255 2.8423598
-16.426067 6.4435596 2.85378
-16.349722 6.4524498 2.8465645
-16.285053 6.4405584 2.8656614
-16.411556 6.5098891 2.8853333
-16.366068 6.5124006 2.8874333
-16.541 4.8990002 2.9990001
-16.634678 4.9666586 2.9434636
-16.544233 4.9550195 2.9476659
-16.496834 4.9830003 2.9475002
-16.639326 5.0454335 2.9487562
-16.515457 5.0307274 2.9339092
-16.479795 5.0664706 2.9340591
-16.619091 5.1448488 2.9457881
-16.547968 5.1637506 2.9581566
-16.466152 5.1439853 2.9350004
-16.60775 5.2097502 2.90675
-16.564001 5.2087002 2.9096
-16.458935 5.2221332 2.9332001
-16.437096 5.594635 2.9477115
-16.3465 5.5828514 2.9494755
-16.279333 5.5900002 2.9579999
-16.5165 5.6270628 2.9598126
-16.460522 5.6074653 2.9509859
-16.340332 5.6087341 2.9602001
-16.250418 5.6365829 2.9479175
-16.177525 5.6615591 2.9584508
-16.635832 5.7740283 2.9437497
-16.597 5.783 2.9000001
-16.426428 5.7813573 2.9502146
-16.35037 5.7732592 2.9539263
-16.242973 5.7620468 2.9393332
-16.16954 5.74226 2.9540489
-16.714001 5.8119998 2.9974999
-16.637506 5.8276725 2.9614353
-16.552334 5.8350759 2.9474795
-16.466484 5.8180857 2.9513004
-16.373167 5.8036666 2.9848332
-16.209002 5.8183336 2.912667
-16.186001 5.8250003 2.9497142
-16.479399 6.1812 2.9366002
-16.327 6.1900001 2.9130001
-16.474245 6.2605128 2.9478917
-16.333307 6.2618365 2.9357753
-16.463161 6.3512335 2.9429822
-16.312002 6.3290844 2.9529445
-16.293619 6.3751168 2.9443526
-16.444843 6.4494886 2.9262893
-16.318182 6.4619102 2.9181817
-16.279678 6.4565411 2.9456079
-16.407667 6.5550003 2.9656668
-16.340134 6.535152 2.935611
-16.276728 6.5232282 2.955477
-16.438999 6.612 2.9890001
-16.346333 6.6040001 2.9860001
0 0 0 1 0 0 0 1 0 0 0 1 0 0 0 0 0 777 1 0 0
