ply
format ascii 1.0
comment PCL generated
element vertex 1963
property float x
property float y
property float z
element camera 0
property float view_px
property float view_py
property float view_pz
property float x_axisx
property float x_axisy
property float x_axisz
property float y_axisx
property float y_axisy
property float y_axisz
property float z_axisx
property float z_axisy
property float z_axisz
property float focal
property float scalex
property float scaley
property float centerx
property float centery
property int viewportx
property int viewporty
property float k1
property float k2
end_header
-27.398001 1.568 2.5009999
-27.389 1.567 2.477
-27.372 1.5650001 2.451
-27.374001 1.564 2.4289999
-27.362 1.562 2.404
-27.327999 1.5599999 2.375
-27.320999 1.558 2.3510001
-27.326 1.557 2.3299999
-27.323999 1.556 2.3080001
-27.296 1.554 2.28
-27.283001 1.553 2.2550001
-27.288 1.551 2.234
-27.259001 1.549 2.207
-27.252001 1.548 2.184
-27.26 1.5470001 2.1630001
-27.239 1.545 2.1370001
-27.25 1.544 2.1170001
-27.233999 1.543 2.0929999
-27.232 1.541 2.0710001
-27.247999 1.541 2.052
-27.235001 1.539 2.027
-27.224001 1.538 2.0039999
-27.226999 1.536 1.983
-27.209999 1.535 1.9579999
-27.205 1.533 1.9349999
-27.219 1.533 1.916
-27.209999 1.531 1.893
-27.198999 1.53 1.869
-27.202 1.529 1.848
-27.211 1.528 1.8279999
-27.212 1.526 1.806
-26.877001 1.517 1.732
-26.836 1.5140001 1.705
-26.794001 1.512 1.677
-26.756001 1.51 1.651
-26.740999 1.5089999 1.628
-26.701 1.506 1.601
-26.677999 1.505 1.577
-26.677 1.5039999 1.556
-26.653999 1.502 1.5319999
-26.655001 1.501 1.512
-26.663 1.5 1.493
-26.660999 1.499 1.472
-26.663 1.498 1.452
-26.656 1.4960001 1.4299999
-26.664 1.495 1.411
-26.672001 1.494 1.391
-26.665001 1.493 1.37
-26.677 1.492 1.351
-26.666 1.49 1.329
-26.687 1.49 1.311
-26.674999 1.488 1.289
-26.691999 1.487 1.271
-26.687 1.4859999 1.25
-26.694 1.485 1.23
-26.735001 1.485 1.215
-27.490999 1.557 2.658
-27.461 1.5549999 2.628
-27.413 1.553 2.595
-27.408001 1.551 2.5710001
-27.393999 1.55 2.546
-27.388 1.548 2.5220001
-27.372999 1.5470001 2.497
-27.362 1.545 2.4719999
-27.344 1.543 2.4460001
-27.347 1.5420001 2.424
-27.32 1.54 2.3970001
-27.323 1.539 2.375
-27.312 1.5369999 2.3510001
-27.311001 1.536 2.3280001
-27.294001 1.534 2.303
-27.285999 1.533 2.279
-27.274 1.531 2.2550001
-27.275999 1.53 2.233
-27.254999 1.528 2.207
-27.254 1.527 2.1849999
-27.254999 1.526 2.1630001
-27.257 1.525 2.142
-27.247999 1.523 2.118
-27.252001 1.522 2.0969999
-27.252001 1.521 2.075
-27.25 1.5190001 2.053
-27.254 1.518 2.0320001
-27.254 1.517 2.01
-27.247999 1.516 1.987
-27.226 1.5140001 1.962
-27.235001 1.513 1.942
-27.212999 1.511 1.916
-27.243999 1.511 1.9
-27.226 1.5089999 1.875
-27.219999 1.508 1.852
-27.233 1.507 1.8329999
-26.858999 1.497 1.751
-26.816999 1.495 1.724
-26.768999 1.492 1.6950001
-26.754999 1.4910001 1.6720001
-26.732 1.489 1.648
-26.702999 1.487 1.623
-26.681 1.4859999 1.599
-26.662001 1.484 1.576
-26.674 1.483 1.557
-26.657 1.482 1.534
-26.67 1.4809999 1.515
-26.677999 1.48 1.4960001
-26.676001 1.479 1.475
-26.669001 1.478 1.4529999
-26.671 1.476 1.433
-26.672001 1.475 1.413
-26.664 1.474 1.391
-26.674999 1.473 1.372
-26.697001 1.472 1.355
-26.700001 1.471 1.334
-26.697001 1.47 1.314
-26.695 1.469 1.293
-26.700001 1.4680001 1.273
-26.716999 1.467 1.255
-27.525 1.543 2.78
-27.5 1.541 2.7520001
-27.459999 1.539 2.72
-27.444 1.5369999 2.6930001
-27.427 1.535 2.6670001
-27.427 1.534 2.6440001
-27.408001 1.5319999 2.618
-27.391001 1.531 2.5910001
-27.388 1.529 2.5680001
-27.385 1.528 2.5450001
-27.353001 1.526 2.516
-27.362 1.525 2.4960001
-27.334999 1.523 2.467
-27.323 1.521 2.4430001
-27.336 1.52 2.4230001
-27.34 1.5190001 2.402
-27.309 1.517 2.3729999
-27.304001 1.516 2.3499999
-27.294001 1.515 2.326
-27.292999 1.513 2.3039999
-27.275999 1.512 2.2780001
-27.298 1.511 2.2609999
-27.292 1.51 2.237
-27.289 1.508 2.2149999
-27.282 1.507 2.191
-27.26 1.505 2.165
-27.274 1.5039999 2.1459999
-27.254999 1.503 2.1210001
-27.261999 1.502 2.0999999
-27.247999 1.499 2.076
-27.26 1.499 2.056
-27.264 1.497 2.0350001
-27.27 1.4960001 2.0139999
-27.267 1.495 1.992
-27.261 1.494 1.969
-27.254999 1.492 1.946
-27.24 1.4910001 1.9220001
-27.26 1.49 1.904
-27.246 1.489 1.8789999
-26.882999 1.479 1.798
-26.841999 1.477 1.771
-26.778 1.475 1.739
-26.754 1.473 1.715
-26.740999 1.471 1.692
-26.705 1.47 1.666
-26.704 1.4680001 1.645
-26.681 1.467 1.6210001
-26.687 1.466 1.601
-26.690001 1.465 1.581
-26.674 1.4630001 1.558
-26.687 1.462 1.539
-26.684999 1.461 1.518
-26.693001 1.46 1.499
-26.691 1.459 1.478
-26.684 1.4579999 1.457
-26.700001 1.457 1.438
-26.694 1.456 1.4170001
-26.707001 1.455 1.398
-26.709999 1.454 1.378
-26.712 1.4529999 1.358
-26.719999 1.452 1.3380001
-26.705 1.45 1.316
-26.716 1.449 1.2970001
-27.504999 1.525 2.845
-27.479 1.523 2.816
-27.455 1.521 2.7880001
-27.455999 1.52 2.7650001
-27.445 1.518 2.74
-27.427999 1.516 2.7130001
-27.412001 1.515 2.687
-27.4 1.513 2.6619999
-27.399 1.512 2.6389999
-27.386999 1.51 2.6140001
-27.364 1.5089999 2.5869999
-27.361 1.507 2.5639999
-27.363001 1.506 2.5420001
-27.360001 1.505 2.5190001
-27.337999 1.503 2.4920001
-27.332001 1.502 2.4679999
-27.322001 1.5 2.444
-27.313999 1.498 2.4200001
-27.323 1.497 2.4000001
-27.315001 1.4960001 2.3759999
-27.318001 1.495 2.3540001
-27.309999 1.493 2.3299999
-27.301001 1.492 2.3069999
-27.311001 1.4910001 2.2869999
-27.302999 1.489 2.263
-27.306999 1.488 2.2420001
-27.284 1.4859999 2.2149999
-27.297001 1.485 2.1960001
-27.280001 1.484 2.1700001
-27.294001 1.483 2.151
-27.275999 1.4809999 2.1259999
-27.274 1.48 2.1040001
-27.267 1.479 2.0799999
-27.283001 1.478 2.0610001
-27.278999 1.477 2.039
-27.278 1.475 2.017
-27.273001 1.474 1.994
-27.274 1.473 1.972
-27.268999 1.471 1.95
-27.288 1.471 1.931
-26.854 1.46 1.837
-26.851 1.459 1.8150001
-26.815001 1.457 1.788
-26.777 1.455 1.761
-26.76 1.454 1.738
-26.718 1.452 1.71
-26.712 1.451 1.689
-26.695999 1.449 1.665
-26.698999 1.448 1.645
-26.694 1.447 1.624
-26.687 1.446 1.602
-26.677 1.444 1.58
-26.688999 1.443 1.561
-26.691999 1.442 1.541
-26.698999 1.441 1.522
-26.693001 1.4400001 1.5
-26.702999 1.439 1.4809999
-26.704 1.438 1.461
-26.711 1.437 1.441
-26.723 1.436 1.4220001
-26.716 1.4349999 1.4
-26.719 1.434 1.38
-26.725 1.433 1.3609999
-26.761 1.432 1.344
-27.516001 1.51 2.964
-27.502001 1.508 2.937
-27.495001 1.507 2.9119999
-27.486 1.505 2.8870001
-27.473 1.503 2.862
-27.457001 1.502 2.835
-27.445999 1.5 2.809
-27.436001 1.498 2.7850001
-27.417 1.497 2.757
-27.424999 1.4960001 2.737
-27.398001 1.494 2.7079999
-27.382 1.492 2.6819999
-27.378 1.4910001 2.658
-27.368999 1.489 2.6340001
-27.362 1.488 2.6099999
-27.363001 1.487 2.5880001
-27.354 1.485 2.563
-27.358 1.484 2.5420001
-27.35 1.483 2.5179999
-27.362 1.482 2.4979999
-27.332001 1.48 2.4690001
-27.334 1.479 2.447
-27.313 1.477 2.421
-27.316 1.476 2.3989999
-27.337999 1.475 2.382
-27.322001 1.473 2.3559999
-27.320999 1.472 2.3340001
-27.323999 1.471 2.312
-27.318001 1.47 2.289
-27.325001 1.4680001 2.2679999
-27.312 1.467 2.244
-27.319 1.466 2.223
-27.316999 1.465 2.201
-27.323999 1.464 2.1800001
-27.288 1.462 2.151
-27.313999 1.461 2.1340001
-27.301001 1.459 2.1099999
-27.305 1.4579999 2.0880001
-27.304001 1.457 2.066
-26.862 1.443 1.881
-26.857 1.441 1.859
-26.796 1.439 1.8279999
-26.775 1.437 1.804
-26.761 1.436 1.781
-26.749001 1.4349999 1.758
-26.732 1.433 1.734
-26.700001 1.431 1.709
-26.700001 1.4299999 1.688
-26.712999 1.429 1.669
-26.721001 1.428 1.65
-26.704 1.427 1.627
-26.688 1.425 1.603
-26.709999 1.425 1.586
-26.702999 1.423 1.5650001
-26.712999 1.4220001 1.545
-26.716 1.421 1.525
-26.719999 1.42 1.505
-26.725 1.419 1.485
-26.733 1.418 1.466
-26.711 1.4170001 1.442
-26.728001 1.416 1.424
-26.752001 1.415 1.406
-26.746 1.414 1.385
-27.493999 1.487 2.9590001
-27.499001 1.4859999 2.938
-27.474001 1.484 2.908
-27.464001 1.483 2.8829999
-27.448999 1.4809999 2.8570001
-27.438 1.48 2.8310001
-27.414 1.478 2.803
-27.41 1.477 2.78
-27.389 1.475 2.7520001
-27.396999 1.474 2.7309999
-27.393999 1.473 2.7079999
-27.382 1.471 2.6830001
-27.372 1.469 2.658
-27.364 1.4680001 2.6340001
-27.395 1.467 2.618
-27.370001 1.465 2.5899999
-27.375 1.464 2.569
-27.367001 1.4630001 2.5450001
-27.362 1.462 2.5220001
-27.351 1.46 2.497
-27.351999 1.459 2.4749999
-27.354 1.4579999 2.4530001
-27.348 1.456 2.4289999
-27.353001 1.455 2.408
-27.346001 1.454 2.385
-27.364 1.4529999 2.3659999
-27.341999 1.451 2.339
-27.322001 1.45 2.313
-27.341 1.449 2.2950001
-27.344999 1.448 2.273
-27.337 1.446 2.25
-27.34 1.4450001 2.2279999
-27.329 1.444 2.204
-26.945999 1.427 1.961
-26.871 1.425 1.926
-26.865 1.423 1.904
-26.819 1.421 1.875
-26.792999 1.42 1.85
-26.771999 1.418 1.825
-26.768999 1.4170001 1.804
-26.729 1.415 1.777
-26.705999 1.414 1.752
-26.711 1.4119999 1.732
-26.707001 1.411 1.711
-26.709999 1.41 1.691
-26.702999 1.409 1.669
-26.701 1.408 1.648
-26.714001 1.4069999 1.6289999
-26.702999 1.405 1.607
-26.719999 1.405 1.589
-26.731001 1.404 1.5700001
-26.726 1.402 1.548
-26.719 1.401 1.527
-26.725 1.4 1.507
-26.719999 1.399 1.4859999
-26.747999 1.398 1.469
-26.737 1.397 1.447
-26.781 1.396 1.432
-27.465 1.465 2.9530001
-27.468 1.464 2.931
-27.452999 1.462 2.905
-27.434999 1.46 2.878
-27.424999 1.459 2.852
-27.407 1.457 2.825
-27.427999 1.456 2.8080001
-27.416 1.455 2.7820001
-27.395 1.4529999 2.7550001
-27.408001 1.452 2.7349999
-27.403 1.451 2.711
-27.396 1.45 2.687
-27.4 1.448 2.6659999
-27.391001 1.447 2.641
-27.389999 1.446 2.618
-27.398001 1.4450001 2.598
-27.377001 1.443 2.5710001
-27.375 1.442 2.5480001
-27.382999 1.441 2.527
-27.386999 1.439 2.506
-27.386 1.438 2.483
-27.360001 1.436 2.4549999
-27.375999 1.4349999 2.4360001
-27.358 1.434 2.4100001
-27.379 1.433 2.392
-27.364 1.431 2.3670001
-27.386999 1.431 2.349
-27.368 1.429 2.3239999
-27.417999 1.429 2.3110001
-26.877001 1.406 1.971
-26.858 1.405 1.946
-26.82 1.403 1.919
-26.794001 1.402 1.893
-26.806 1.4 1.874
-26.756001 1.398 1.845
-26.737 1.397 1.821
-26.716 1.395 1.796
-26.722 1.3940001 1.777
-26.73 1.393 1.757
-26.718 1.392 1.735
-26.732 1.391 1.716
-26.73 1.39 1.6950001
-26.728001 1.3890001 1.674
-26.740999 1.388 1.655
-26.715 1.386 1.63
-26.743999 1.385 1.614
-26.74 1.3839999 1.5930001
-26.733 1.383 1.571
-26.740999 1.382 1.552
-26.743999 1.381 1.531
-26.732 1.3789999 1.5089999
-26.749001 1.3789999 1.4910001
-26.787001 1.378 1.475
-27.452999 1.443 2.9519999
-27.447001 1.442 2.927
-27.438 1.4400001 2.902
-27.434 1.439 2.8789999
-27.424999 1.437 2.8540001
-27.427 1.436 2.8310001
-27.424999 1.4349999 2.8080001
-27.426001 1.434 2.786
-27.422001 1.432 2.7620001
-27.421 1.431 2.7390001
-27.415001 1.4299999 2.7149999
-27.424999 1.429 2.6949999
-27.409 1.427 2.6689999
-27.41 1.426 2.6470001
-27.412001 1.425 2.625
-27.391001 1.423 2.5969999
-27.403 1.4220001 2.5780001
-27.400999 1.421 2.5550001
-27.403 1.419 2.533
-27.396 1.418 2.5090001
-27.386 1.4170001 2.484
-27.4 1.416 2.4649999
-27.396 1.414 2.4419999
-27.41 1.413 2.4219999
-26.872999 1.388 2.013
-26.861 1.387 1.99
-26.833 1.385 1.964
-26.820999 1.3839999 1.941
-26.789 1.382 1.914
-26.771 1.381 1.89
-26.757 1.38 1.867
-26.729 1.378 1.841
-26.715 1.376 1.818
-26.718 1.376 1.798
-26.722 1.374 1.778
-26.735001 1.373 1.7589999
-26.723 1.372 1.737
-26.740999 1.3710001 1.719
-26.73 1.369 1.696
-26.733 1.368 1.676
-26.740999 1.367 1.656
-26.732 1.3660001 1.6339999
-26.737 1.365 1.614
-26.75 1.364 1.596
-26.763 1.363 1.577
-26.747 1.362 1.554
-26.753 1.3609999 1.534
-26.781 1.36 1.517
-27.462 1.4220001 2.9549999
-27.457001 1.42 2.931
-27.459 1.419 2.9089999
-27.454 1.418 2.8840001
-27.448999 1.416 2.8599999
-27.450001 1.415 2.8380001
-27.444 1.414 2.8139999
-27.444 1.4119999 2.7909999
-27.448 1.411 2.7690001
-27.429001 1.41 2.7420001
-27.441 1.409 2.723
-27.437 1.4069999 2.6989999
-27.440001 1.406 2.677
-27.434999 1.405 2.6530001
-27.438999 1.404 2.632
-27.434 1.402 2.608
-27.417 1.401 2.582
-27.436001 1.4 2.5639999
-26.893 1.37 2.0610001
-26.882999 1.369 2.0380001
-26.856001 1.367 2.0120001
-26.829 1.3660001 1.9859999
-26.805 1.364 1.96
-26.790001 1.363 1.937
-26.768 1.3609999 1.9119999
-26.754999 1.36 1.8890001
-26.753 1.359 1.867
-26.747999 1.358 1.846
-26.73 1.3559999 1.822
-26.738001 1.355 1.802
-26.726999 1.354 1.78
-26.73 1.353 1.7589999
-26.736 1.352 1.74
-26.733999 1.35 1.719
-26.757999 1.35 1.702
-26.76 1.348 1.681
-26.766001 1.347 1.661
-26.778999 1.346 1.642
-26.761999 1.345 1.619
-26.768 1.344 1.599
-26.771999 1.3430001 1.579
-26.788 1.342 1.561
-27.481001 1.4 2.961
-27.473 1.399 2.9360001
-27.486 1.397 2.9159999
-27.476999 1.396 2.891
-27.49 1.395 2.872
-27.464001 1.393 2.8429999
-27.476999 1.392 2.823
-27.464001 1.391 2.7969999
-27.458 1.3890001 2.773
-27.445999 1.388 2.7479999
-27.462999 1.387 2.7290001
-27.461 1.386 2.7060001
-27.450001 1.3839999 2.681
-27.482 1.383 2.665
-26.941 1.352 2.1129999
-26.884001 1.35 2.0810001
-26.855 1.349 2.0550001
-26.837999 1.348 2.0309999
-26.816 1.346 2.0050001
-26.801001 1.345 1.982
-26.791 1.344 1.959
-26.764999 1.342 1.933
-26.747999 1.341 1.91
-26.75 1.34 1.8890001
-26.738001 1.3380001 1.8660001
-26.750999 1.337 1.847
-26.754999 1.336 1.827
-26.757999 1.335 1.807
-26.756001 1.334 1.786
-26.754 1.3329999 1.7640001
-26.763 1.332 1.745
-26.761999 1.33 1.724
-26.77 1.329 1.705
-26.783001 1.3279999 1.686
-26.768999 1.327 1.663
-26.784 1.326 1.6440001
-26.778 1.324 1.623
-26.815001 1.324 1.607
-27.516001 1.3789999 2.971
-27.517 1.378 2.948
-27.511 1.376 2.924
-27.497999 1.375 2.898
-27.489 1.373 2.8729999
-27.493 1.372 2.8510001
-27.486 1.37 2.826
-27.483999 1.369 2.803
-27.521 1.368 2.789
-26.945999 1.334 2.158
-26.908001 1.332 2.1300001
-26.868999 1.33 2.1010001
-26.858 1.329 2.0780001
-26.832001 1.3279999 2.052
-26.818001 1.326 2.0280001
-26.794001 1.325 2.003
-26.768 1.324 1.977
-26.763 1.322 1.955
-26.754 1.321 1.933
-26.752001 1.3200001 1.911
-26.764 1.319 1.892
-26.761999 1.318 1.8710001
-26.761 1.317 1.85
-26.768999 1.3150001 1.831
-26.763 1.314 1.809
-26.766001 1.313 1.789
-26.773001 1.312 1.7690001
-26.788 1.311 1.75
-26.781 1.3099999 1.728
-26.794001 1.309 1.71
-26.788 1.307 1.688
-26.797001 1.306 1.668
-26.809 1.3049999 1.649
-27.533001 1.3559999 2.9530001
-26.966999 1.3150001 2.2060001
-26.91 1.314 2.174
-26.875999 1.312 2.1459999
-26.856001 1.311 2.1210001
-26.853001 1.3099999 2.099
-26.826 1.308 2.073
-26.809 1.307 2.049
-26.790001 1.306 2.0239999
-26.759001 1.304 1.998
-26.774 1.303 1.979
-26.783001 1.302 1.96
-26.752001 1.301 1.933
-26.785 1.3 1.918
-26.778999 1.299 1.896
-26.771999 1.2970001 1.874
-26.775999 1.296 1.854
-26.778 1.295 1.8329999
-26.783001 1.294 1.813
-26.799 1.293 1.795
-26.794001 1.2920001 1.773
-26.806999 1.291 1.755
-26.806 1.29 1.734
-26.791 1.288 1.71
-26.808001 1.2869999 1.692
-26.947001 1.2970001 2.247
-26.92 1.295 2.22
-26.896999 1.294 2.194
-26.867001 1.2920001 2.1670001
-26.853001 1.291 2.1429999
-26.836 1.29 2.118
-26.813999 1.289 2.0929999
-26.787001 1.2869999 2.0669999
-26.782 1.286 2.0450001
-26.785 1.285 2.0239999
-26.780001 1.284 2.0020001
-26.780001 1.283 1.9809999
-26.783001 1.281 1.961
-26.774 1.28 1.939
-26.775 1.279 1.918
-26.766001 1.278 1.895
-26.792 1.277 1.8789999
-26.795 1.276 1.858
-26.791 1.274 1.837
-26.797001 1.273 1.817
-26.796 1.272 1.796
-26.794001 1.271 1.775
-26.819 1.27 1.758
-26.844 1.2690001 1.7410001
-26.985001 1.279 2.2980001
-26.948999 1.278 2.27
-26.917999 1.276 2.2420001
-26.893999 1.275 2.2160001
-26.868999 1.274 2.1889999
-26.837 1.272 2.1619999
-26.837 1.271 2.141
-26.816 1.27 2.1159999
-26.788 1.2690001 2.089
-26.789 1.267 2.0680001
-26.791 1.266 2.0480001
-26.780001 1.265 2.0250001
-26.799 1.2640001 2.007
-26.802 1.263 1.987
-26.798 1.262 1.965
-26.805 1.26 1.9450001
-26.797001 1.2589999 1.923
-26.798 1.258 1.902
-26.815001 1.257 1.8839999
-26.823999 1.256 1.864
-26.832001 1.255 1.845
-26.802 1.253 1.819
-26.834 1.252 1.803
-26.853001 1.251 1.785
-27.02 1.261 2.3499999
-26.955999 1.2589999 2.3150001
-26.934 1.258 2.289
-26.899 1.257 2.2609999
-26.881001 1.256 2.2360001
-26.878 1.2539999 2.214
-26.844 1.253 2.1860001
-26.819 1.252 2.1600001
-26.798 1.251 2.135
-26.785999 1.249 2.1110001
-26.798 1.248 2.092
-26.802 1.247 2.072
-26.804001 1.2460001 2.0510001
-26.805 1.245 2.03
-26.813 1.244 2.0109999
-26.806999 1.242 1.989
-26.816 1.2410001 1.969
-26.818001 1.24 1.949
-26.818001 1.239 1.928
-26.812 1.238 1.906
-26.82 1.237 1.886
-26.834 1.235 1.867
-26.841999 1.234 1.848
-26.871 1.233 1.832
-27.000999 1.242 2.391
-26.955 1.2410001 2.359
-26.937 1.24 2.3340001
-26.915001 1.239 2.3080001
-26.893 1.237 2.2820001
-26.872999 1.2359999 2.257
-26.846001 1.235 2.23
-26.841 1.234 2.2079999
-26.815001 1.233 2.181
-26.782 1.2309999 2.154
-26.813 1.23 2.1389999
-26.809 1.229 2.1170001
-26.798 1.228 2.0940001
-26.806999 1.227 2.0739999
-26.83 1.226 2.0569999
-26.813999 1.224 2.033
-26.819 1.223 2.013
-26.823 1.222 1.993
-26.826 1.221 1.972
-26.823999 1.22 1.951
-26.847 1.219 1.934
-26.826 1.217 1.909
-26.834999 1.216 1.89
-26.837 1.215 1.869
-27.028 1.225 2.441
-26.969999 1.223 2.4070001
-26.959 1.222 2.3829999
-26.938999 1.221 2.3570001
-26.906 1.22 2.329
-26.877001 1.219 2.3010001
-26.863001 1.217 2.277
-26.846001 1.216 2.2520001
-26.823 1.215 2.2260001
-26.813999 1.214 2.204
-26.795 1.212 2.1789999
-26.816 1.212 2.1619999
-26.799999 1.21 2.1370001
-26.843 1.209 2.1240001
-26.827 1.207 2.0999999
-26.830999 1.206 2.0799999
-26.82 1.205 2.0569999
-26.83 1.204 2.0369999
-26.820999 1.2029999 2.0150001
-26.822001 1.202 1.994
-26.84 1.2 1.976
-26.839001 1.199 1.955
-26.857 1.198 1.937
-26.868 1.197 1.918
-26.871 1.196 1.897
-26.993 1.205 2.4560001
-26.973 1.204 2.4300001
-26.950001 1.2029999 2.404
-26.921 1.202 2.3759999
-26.900999 1.2 2.3499999
-26.885 1.199 2.326
-26.841999 1.198 2.2950001
-26.848 1.197 2.2750001
-26.833 1.196 2.2509999
-26.830999 1.1950001 2.2290001
-26.813 1.193 2.204
-26.816 1.192 2.184
-26.816999 1.191 2.1630001
-26.829 1.1900001 2.1440001
-26.827999 1.189 2.1229999
-26.827 1.188 2.1010001
-26.836 1.186 2.082
-26.843 1.1849999 2.062
-26.839001 1.184 2.04
-26.855 1.183 2.0220001
-26.844 1.182 1.999
-26.85 1.1799999 1.979
-26.855 1.179 1.959
-26.886 1.178 1.943
-27.044001 1.187 2.5120001
-26.992001 1.186 2.4790001
-26.955999 1.1849999 2.4489999
-26.941 1.183 2.425
-26.912001 1.182 2.3970001
-26.896 1.181 2.372
-26.875999 1.1799999 2.346
-26.847 1.179 2.319
-26.834999 1.178 2.2950001
-26.834999 1.177 2.2739999
-26.839001 1.175 2.253
-26.822001 1.174 2.2290001
-26.856001 1.173 2.214
-26.85 1.1720001 2.1919999
-26.849001 1.17 2.1700001
-26.823999 1.169 2.1440001
-26.848 1.168 2.128
-26.849001 1.1670001 2.1070001
-26.848 1.165 2.086
-26.854 1.164 2.0650001
-26.863001 1.163 2.046
-26.871 1.1619999 2.026
-26.874001 1.161 2.006
-26.91 1.159 1.9910001
-27.023001 1.168 2.552
-27.004999 1.1670001 2.527
-26.98 1.166 2.4990001
-26.945 1.165 2.47
-26.921 1.164 2.4430001
-26.902 1.163 2.4170001
-26.879999 1.1619999 2.391
-26.872 1.161 2.368
-26.844 1.16 2.3410001
-26.837999 1.158 2.3180001
-26.839001 1.1569999 2.2969999
-26.858 1.156 2.28
-26.841999 1.155 2.2550001
-26.841999 1.154 2.234
-26.846001 1.153 2.2130001
-26.860001 1.151 2.1949999
-26.862 1.15 2.174
-26.858999 1.149 2.152
-26.868999 1.148 2.1329999
-26.872 1.146 2.1129999
-26.870001 1.145 2.0910001
-26.878 1.1440001 2.0710001
-26.879 1.143 2.05
-26.9 1.142 2.033
-27.014999 1.149 2.5739999
-26.968 1.148 2.5409999
-26.961 1.147 2.5179999
-26.947001 1.146 2.493
-26.921 1.145 2.4660001
-26.905001 1.1440001 2.441
-26.879 1.143 2.414
-26.864 1.141 2.3889999
-26.863001 1.14 2.3670001
-26.861 1.1390001 2.346
-26.854 1.138 2.323
-26.855 1.137 2.302
-26.867001 1.135 2.283
-26.865999 1.1339999 2.2609999
-26.863001 1.133 2.2390001
-26.870001 1.132 2.22
-26.865999 1.131 2.198
-26.848 1.13 2.1730001
-26.877001 1.128 2.1570001
-26.875999 1.127 2.1359999
-26.9 1.126 2.119
-26.884001 1.125 2.095
-26.916 1.123 2.0799999
-27.065001 1.131 2.652
-27.027 1.131 2.6210001
-26.99 1.13 2.5910001
-26.966999 1.1289999 2.5639999
-26.945 1.128 2.5369999
-26.933001 1.126 2.513
-26.900999 1.125 2.484
-26.882999 1.124 2.4590001
-26.878 1.123 2.4360001
-26.867001 1.122 2.4119999
-26.870001 1.1210001 2.392
-26.870001 1.12 2.3699999
-26.877001 1.118 2.3499999
-26.865 1.117 2.326
-26.861 1.1160001 2.3039999
-26.865 1.115 2.2839999
-26.872999 1.114 2.2639999
-26.888 1.112 2.2460001
-26.874001 1.1109999 2.2219999
-26.888 1.11 2.2030001
-26.903999 1.109 2.1849999
-26.896 1.108 2.1619999
-26.903 1.1059999 2.142
-26.915001 1.105 2.1229999
-27.117001 1.113 2.7090001
-27.023001 1.112 2.665
-27.013 1.1109999 2.641
-26.98 1.11 2.612
-26.950001 1.109 2.5829999
-26.950001 1.108 2.5610001
-26.941 1.107 2.5380001
-26.906 1.1059999 2.5079999
-26.888 1.105 2.483
-26.896999 1.104 2.4630001
-26.855 1.103 2.4319999
-26.857 1.102 2.4119999
-26.882 1.1 2.395
-26.886 1.099 2.375
-26.881001 1.098 2.352
-26.875999 1.097 2.3299999
-26.886999 1.095 2.3110001
-26.878 1.094 2.2880001
-26.885 1.0930001 2.2679999
-26.896 1.092 2.2490001
-26.921 1.09 2.2320001
-26.900999 1.089 2.207
-26.906 1.0880001 2.187
-26.926001 1.087 2.1689999
-27.121 1.094 2.756
-27.045 1.094 2.7160001
-27.014 1.0930001 2.6860001
-26.99 1.092 2.6589999
-26.969 1.091 2.632
-26.943001 1.09 2.6040001
-26.940001 1.089 2.582
-26.922001 1.0880001 2.556
-26.916 1.087 2.533
-26.892 1.086 2.506
-26.893 1.084 2.4849999
-26.885 1.0829999 2.4619999
-26.886999 1.082 2.441
-26.893 1.081 2.421
-26.891001 1.08 2.3989999
-26.896 1.0779999 2.378
-26.889999 1.077 2.3559999
-26.896999 1.076 2.336
-26.903999 1.075 2.316
-26.917999 1.073 2.2969999
-26.914 1.072 2.2750001
-26.931 1.071 2.257
-26.914 1.0700001 2.2320001
-26.952 1.068 2.2179999
-27.056999 1.076 2.7639999
-27.040001 1.075 2.7379999
-27.013 1.074 2.7090001
-27 1.073 2.684
-26.979 1.072 2.6570001
-26.952999 1.071 2.6300001
-26.923 1.0700001 2.6010001
-26.906 1.069 2.576
-26.907 1.068 2.5539999
-26.889999 1.067 2.529
-26.889999 1.066 2.507
-26.878 1.0650001 2.483
-26.886999 1.063 2.464
-26.902 1.062 2.4449999
-26.916 1.0599999 2.427
-26.915001 1.059 2.405
-26.921 1.058 2.385
-26.926001 1.056 2.3640001
-26.927999 1.0549999 2.3429999
-26.908001 1.054 2.3180001
-26.912001 1.053 2.2969999
-26.937 1.051 2.2809999
-26.955999 1.05 2.263
-27.09 1.057 2.8169999
-27.055 1.057 2.7869999
-27.021 1.056 2.756
-27 1.0549999 2.7290001
-26.978001 1.054 2.7019999
-26.964001 1.053 2.677
-26.955999 1.052 2.6530001
-26.931999 1.051 2.6259999
-26.922001 1.05 2.602
-26.903 1.049 2.576
-26.903 1.048 2.5539999
-26.902 1.0470001 2.533
-26.899 1.045 2.51
-26.907 1.044 2.4909999
-26.916 1.043 2.471
-26.921 1.0420001 2.451
-26.914 1.04 2.428
-26.924999 1.039 2.408
-26.934 1.038 2.3889999
-26.926001 1.0369999 2.3659999
-26.926001 1.035 2.3440001
-26.941999 1.034 2.326
-26.965 1.0319999 2.309
-27.113001 1.039 2.869
-27.068001 1.038 2.835
-27.035 1.0369999 2.8050001
-27.027 1.036 2.7809999
-26.997999 1.036 2.7520001
-26.972 1.035 2.724
-26.969 1.034 2.701
-26.944 1.033 2.674
-26.919001 1.0319999 2.6459999
-26.922001 1.031 2.625
-26.92 1.029 2.6029999
-26.922001 1.028 2.582
-26.922001 1.027 2.5599999
-26.908001 1.026 2.5350001
-26.910999 1.025 2.5139999
-26.940001 1.023 2.4990001
-26.933001 1.022 2.4760001
-26.927999 1.021 2.4530001
-26.931 1.02 2.4330001
-26.938999 1.018 2.4130001
-26.958 1.017 2.395
-26.952 1.016 2.3729999
-26.957001 1.0140001 2.352
-27.136 1.02 2.9200001
-27.09 1.0190001 2.8859999
-27.070999 1.018 2.859
-27.039 1.018 2.829
-27.030001 1.017 2.8050001
-27.002001 1.016 2.776
-26.976999 1.015 2.7479999
-26.962 1.0140001 2.723
-26.943001 1.013 2.6960001
-26.933001 1.012 2.6719999
-26.926001 1.011 2.6489999
-26.92 1.01 2.6259999
-26.916 1.0089999 2.6029999
-26.908001 1.008 2.5799999
-26.916 1.006 2.5599999
-26.933001 1.005 2.5420001
-26.944 1.0039999 2.523
-26.938 1.002 2.5
-26.945999 1.001 2.48
-26.958 1 2.461
-26.934 0.99900001 2.434
-26.936001 0.99800003 2.4130001
-26.961 0.99599999 2.3970001
-27.106001 1.001 2.9360001
-27.063 1 2.9030001
-27.049 0.99900001 2.8770001
-27.034 0.99800003 2.852
-27.017 0.99699998 2.825
-27 0.99599999 2.799
-26.971001 0.99599999 2.77
-26.959 0.995 2.7449999
-26.937 0.99400002 2.7179999
-26.931 0.99299997 2.6949999
-26.922001 0.99199998 2.671
-26.936001 0.99000001 2.6530001
-26.940001 0.98900002 2.632
-26.934999 0.98799998 2.609
-26.950001 0.986 2.5910001
-26.951 0.98500001 2.569
-26.958 0.98400003 2.549
-26.958 0.98299998 2.5280001
-26.955 0.98199999 2.5050001
-26.975 0.98000002 2.4879999
-26.966 0.97799999 2.464
-26.981001 0.977 2.4460001
-27.048 0.97399998 2.4389999
-27.104 0.98100001 2.9590001
-27.069 0.98100001 2.928
-27.047001 0.98000002 2.9000001
-27.030001 0.97899997 2.8740001
-27.007 0.97799999 2.846
-26.987 0.977 2.819
-26.969999 0.97600001 2.793
-26.952 0.97500002 2.767
-26.931999 0.97500002 2.74
-26.948999 0.97299999 2.7219999
-26.933001 0.972 2.697
-26.948999 0.97100002 2.6789999
-26.937 0.97000003 2.654
-26.954 0.96799999 2.6370001
-26.957001 0.96700001 2.615
-26.962999 0.96600002 2.595
-26.987 0.96399999 2.579
-26.983 0.963 2.556
-26.990999 0.96100003 2.536
-26.972 0.95999998 2.5109999
-26.983999 0.95899999 2.4909999
-27.047001 0.95599997 2.484
-27.059999 0.96100003 2.9489999
-27.042999 0.95999998 2.9230001
-27.021999 0.95899999 2.895
-27.000999 0.958 2.868
-26.968 0.958 2.8380001
-26.969 0.95599997 2.816
-26.947001 0.95599997 2.789
-26.966999 0.954 2.7720001
-26.952 0.95300001 2.7460001
-26.959 0.95200002 2.7260001
-26.966999 0.94999999 2.7060001
-26.969999 0.949 2.6849999
-26.952 0.94800001 2.6589999
-26.959 0.94700003 2.6389999
-26.968 0.94499999 2.619
-26.986 0.94400001 2.602
-26.969 0.94300002 2.576
-26.983 0.94099998 2.5580001
-26.995001 0.94 2.539
-27.065001 0.93699998 2.533
-27.046 0.94099998 2.9690001
-27.051001 0.94 2.948
-27 0.94 2.9130001
-26.996 0.93900001 2.8900001
-26.988001 0.93800002 2.8659999
-26.964001 0.93699998 2.8380001
-26.958 0.93599999 2.8150001
-26.985001 0.93400002 2.8
-26.966 0.93300003 2.773
-26.966 0.93199998 2.7509999
-26.976 0.93099999 2.7320001
-26.972 0.93000001 2.7090001
-26.988001 0.92799997 2.691
-27 0.926 2.6719999
-26.993 0.92500001 2.648
-26.995001 0.92400002 2.6270001
-26.995001 0.92299998 2.605
-26.992001 0.92199999 2.5829999
-27.049 0.91900003 2.5739999
-27.018 0.921 2.9630001
-27.025 0.91900003 2.9430001
-27.002001 0.91900003 2.915
-26.972 0.91799998 2.885
-26.974001 0.917 2.8640001
-26.969 0.91600001 2.8410001
-26.974001 0.91399997 2.8199999
-26.992001 0.91299999 2.803
-26.985001 0.912 2.779
-26.999001 0.91000003 2.7609999
-26.987 0.90899998 2.7360001
-26.990999 0.90799999 2.7149999
-27.014 0.90600002 2.698
-27.009001 0.90499997 2.675
-27.006001 0.90399998 2.6530001
-27.018999 0.90200001 2.6340001
-27.047001 0.89999998 2.619
-27.018 0.89999998 2.9649999
-26.982 0.89999998 2.934
-26.982 0.898 2.911
-26.987 0.89700001 2.891
-27.004 0.89499998 2.8729999
-26.986 0.89499998 2.846
-27.006001 0.89300001 2.829
-27.007 0.89200002 2.8080001
-26.983999 0.89099997 2.78
-27.004 0.889 2.763
-27.014999 0.88800001 2.744
-27.016001 0.88599998 2.7219999
-27.004999 0.88599998 2.698
-27.024 0.884 2.6800001
-27.047001 0.88200003 2.664
-26.988001 0.87900001 2.9590001
-26.986 0.87800002 2.9360001
-27.004999 0.87599999 2.9189999
-27.011999 0.875 2.898
-27.009001 0.87400001 2.8759999
-27.009001 0.87300003 2.8540001
-27.004 0.87199998 2.8299999
-27.021 0.87 2.813
-27.014999 0.86900002 2.789
-27.025 0.86699998 2.77
-27.038 0.866 2.7509999
-27.038 0.86400002 2.7290001
-27.049 0.86299998 2.71
-27.01 0.85799998 2.9660001
-27.028 0.85600001 2.948
-27.014 0.85500002 2.9230001
-27.016001 0.85399997 2.901
-27.025999 0.852 2.882
-27.030001 0.85100001 2.8599999
-27.042 0.84899998 2.8410001
-27.034 0.84799999 2.8169999
-27.033001 0.847 2.7950001
-27.042999 0.84500003 2.776
-27.055 0.84399998 2.756
-27.025999 0.83600003 2.971
-27.021999 0.83499998 2.948
-27.035 0.833 2.9300001
-27.028999 0.83200002 2.9059999
-27.045 0.82999998 2.888
-27.042999 0.829 2.865
-27.049999 0.82800001 2.845
-27.051001 0.82599998 2.823
-27.083 0.824 2.809
-27.046 0.81400001 2.9560001
-27.061001 0.81199998 2.937
-27.084 0.81 2.921
-27.061001 0.80900002 2.8929999
-27.059 0.80800003 2.8710001
-27.084999 0.80599999 2.855
-27.073 0.792 2.964
-27.077999 0.79000002 2.9430001
-27.08 0.78899997 2.9219999
-27.086 0.787 2.901
-27.132 0.78399998 2.8900001
-27.084 0.76999998 2.9690001
-27.101 0.76899999 2.951
-26.117001 1.9450001 2.9679999
-26.108999 1.9400001 2.9400001
-26.056 1.908 2.902
-26.087999 1.927 2.8829999
-26.069 1.916 2.8529999
-26.1 1.9349999 2.8340001
-26.077999 1.921 2.803
-26.070999 1.9170001 2.776
-26.106001 1.938 2.7060001
-26.079 1.921 2.674
-26.056999 1.9069999 2.618
-26.058001 1.908 2.5929999
-26.070999 1.916 2.569
-26.069 1.914 2.543
-26.062 1.91 2.516
-26.056999 1.9069999 2.4389999
-26.131001 1.952 2.401
-26.066999 1.885 2.9530001
-26.063 1.883 2.9260001
-26.059 1.88 2.8989999
-26.066999 1.885 2.875
-26.055 1.878 2.8469999
-26.070999 1.888 2.825
-26.063 1.883 2.7969999
-26.063 1.883 2.7709999
-26.063 1.882 2.7449999
-26.054001 1.877 2.7179999
-26.055 1.877 2.6919999
-26.059 1.88 2.6670001
-26.066 1.8839999 2.6429999
-26.062 1.881 2.5910001
-26.077 1.89 2.5680001
-26.056 1.878 2.5380001
-26.063999 1.882 2.5139999
-26.059 1.8789999 2.4879999
-26.063 1.882 2.4630001
-26.070999 1.886 2.4389999
-26.069 1.885 2.4130001
-26.061001 1.88 2.3859999
-26.063999 1.882 2.3610001
-26.063 1.881 2.335
-26.075001 1.888 2.312
-26.073999 1.888 2.286
-26.073 1.887 2.26
-26.072001 1.886 2.2349999
-26.070999 1.886 2.2090001
-26.061001 1.88 2.1819999
-26.073 1.887 2.158
-26.076 1.8890001 2.1329999
-26.062 1.88 2.1059999
-26.068001 1.8839999 2.056
-26.080999 1.891 2.033
-26.093 1.899 2.0090001
-26.083 1.893 1.982
-26.077 1.8890001 1.956
-26.063 1.88 1.928
-26.084999 1.893 1.906
-26.079 1.89 1.88
-26.065001 1.881 1.853
-26.066999 1.882 1.8279999
-26.063999 1.88 1.802
-26.073 1.885 1.778
-26.073 1.885 1.753
-26.062 1.878 1.726
-26.070999 1.8839999 1.702
-26.07 1.883 1.677
-26.077999 1.888 1.652
-26.072001 1.8839999 1.626
-26.063999 1.88 1.6
-26.079 1.8890001 1.577
-26.076 1.886 1.551
-26.084999 1.892 1.527
-26.073 1.885 1.5
-26.069 1.882 1.475
-26.075001 1.886 1.45
-26.068001 1.881 1.424
-26.066999 1.88 1.399
-26.073999 1.885 1.375
-26.069 1.882 1.349
-26.069 1.882 1.324
-26.075001 1.885 1.299
-26.069 1.882 1.274
-26.069 1.882 1.249
-26.076 1.886 1.224
-26.059 1.875 1.198
-26.061001 1.877 1.173
-26.066 1.88 1.148
-26.079 1.887 1.124
-26.065001 1.8789999 1.098
-26.068001 1.881 1.073
-26.086 1.892 1.049
-26.072001 1.883 1.023
-26.079 1.887 0.99900001
-26.061001 1.876 0.972
-26.059 1.874 0.94700003
-26.073 1.8839999 0.92299998
-26.101999 1.901 0.89999998
-26.083 1.8890001 0.87400001
-26.069 1.881 0.84799999
-26.091999 1.8940001 0.824
-26.072001 1.883 0.79799998
-26.098 1.898 0.77499998
-26.07 1.881 0.74800003
-26.099001 1.899 0.72500002
-26.072001 1.882 0.69800001
-26.073 1.883 0.67299998
-26.117001 1.91 0.64999998
-26.07 1.881 0.62300003
-26.062 1.876 0.59799999
-26.059 1.874 0.57300001
-26.066999 1.8789999 0.54799998
-26.097 1.897 0.52399999
-26.073 1.883 0.49900001
-26.087999 1.891 0.47400001
-26.079 1.886 0.449
-26.070999 1.881 0.42399999
-26.056 1.872 0.398
-26.08 1.885 0.37400001
-26.072001 1.88 0.34900001
-26.111 1.905 0.324
-26.068001 1.857 2.924
-26.068001 1.8559999 2.8989999
-26.056 1.849 2.8699999
-26.063999 1.854 2.8199999
-26.063999 1.854 2.7939999
-26.056 1.849 2.767
-26.072001 1.859 2.7449999
-26.063999 1.854 2.717
-26.068001 1.8559999 2.6919999
-26.051001 1.845 2.6630001
-26.063 1.853 2.6400001
-26.066999 1.855 2.615
-26.058001 1.85 2.5869999
-26.07 1.857 2.5639999
-26.063999 1.853 2.5380001
-26.065001 1.853 2.5120001
-26.059 1.849 2.4849999
-26.068001 1.855 2.461
-26.063 1.852 2.4349999
-26.062 1.851 2.4089999
-26.052999 1.845 2.382
-26.073 1.858 2.3599999
-26.063999 1.852 2.3329999
-26.066999 1.854 2.3080001
-26.058001 1.848 2.2809999
-26.069 1.855 2.257
-26.072001 1.857 2.233
-26.066999 1.854 2.2060001
-26.061001 1.85 2.1800001
-26.069 1.855 2.1559999
-26.066999 1.853 2.1300001
-26.066999 1.853 2.1040001
-26.073999 1.857 2.0799999
-26.070999 1.8559999 2.029
-26.077999 1.86 2.0050001
-26.069 1.854 1.978
-26.063 1.85 1.952
-26.077999 1.86 1.929
-26.072001 1.8559999 1.903
-26.066999 1.852 1.876
-26.077999 1.859 1.853
-26.076 1.858 1.827
-26.073999 1.857 1.802
-26.052 1.8430001 1.773
-26.072001 1.855 1.751
-26.077999 1.859 1.726
-26.059999 1.848 1.699
-26.061001 1.849 1.674
-26.063999 1.85 1.649
-26.070999 1.854 1.625
-26.056 1.845 1.598
-26.066999 1.852 1.574
-26.077 1.858 1.55
-26.075001 1.857 1.524
-26.073 1.8559999 1.499
-26.063 1.849 1.473
-26.068001 1.852 1.448
-26.073999 1.8559999 1.424
-26.086 1.863 1.4
-26.062 1.848 1.372
-26.080999 1.86 1.349
-26.073999 1.8559999 1.323
-26.072001 1.854 1.298
-26.073 1.855 1.273
-26.084 1.8609999 1.249
-26.084999 1.862 1.224
-26.084999 1.8609999 1.199
-26.084 1.862 1.174
-26.086 1.862 1.149
-26.075001 1.855 1.123
-26.072001 1.853 1.098
-26.073 1.854 1.073
-26.066999 1.85 1.0470001
-26.077 1.8559999 1.023
-26.073999 1.854 0.99800003
-26.087 1.862 0.97299999
-26.084 1.86 0.94800001
-26.082001 1.859 0.92299998
-26.065001 1.848 0.89700001
-26.066999 1.85 0.87199998
-26.072001 1.853 0.84799999
-26.065001 1.848 0.82200003
-26.079 1.857 0.79799998
-26.084 1.86 0.773
-26.059999 1.845 0.74699998
-26.082001 1.858 0.72299999
-26.061001 1.846 0.69700003
-26.066 1.849 0.67299998
-26.075001 1.854 0.648
-26.072001 1.852 0.62300003
-26.073 1.853 0.59799999
-26.077999 1.8559999 0.57300001
-26.087 1.8609999 0.54900002
-26.079 1.8559999 0.523
-26.089001 1.862 0.49900001
-26.093 1.864 0.47400001
-26.066999 1.849 0.44800001
-26.082001 1.857 0.42399999
-26.077 1.855 0.39899999
-26.07 1.85 0.37400001
-26.073999 1.853 0.34900001
-26.07 1.85 0.324
-26.066 1.848 0.29899999
-26.091999 1.864 0.27399999
-26.070999 1.851 0.249
-26.056 1.821 2.9449999
-26.056 1.821 2.9189999
-26.059999 1.823 2.8940001
-26.065001 1.825 2.869
-26.065001 1.825 2.8429999
-26.052999 1.818 2.8150001
-26.073 1.83 2.7939999
-26.065001 1.825 2.766
-26.065001 1.825 2.74
-26.059999 1.822 2.714
-26.059999 1.822 2.688
-26.051001 1.817 2.6600001
-26.059 1.821 2.6359999
-26.070999 1.8279999 2.6129999
-26.075001 1.83 2.5880001
-26.056999 1.819 2.5339999
-26.061001 1.822 2.5090001
-26.069 1.826 2.4849999
-26.059999 1.821 2.457
-26.063 1.823 2.4330001
-26.073999 1.829 2.4089999
-26.052999 1.816 2.3800001
-26.065001 1.824 2.3559999
-26.063999 1.823 2.3310001
-26.066999 1.825 2.306
-26.061001 1.821 2.279
-26.07 1.826 2.2550001
-26.069 1.825 2.23
-26.072001 1.827 2.2049999
-26.070999 1.827 2.1789999
-26.065001 1.823 2.1530001
-26.072001 1.8279999 2.1289999
-26.054001 1.816 2.0999999
-26.083 1.834 2.0799999
-26.077 1.83 2.053
-26.063 1.822 2.026
-26.073999 1.8279999 2.0020001
-26.080999 1.8329999 1.978
-26.068001 1.824 1.951
-26.070999 1.826 1.926
-26.069 1.825 1.9
-26.08 1.831 1.877
-26.075001 1.8279999 1.851
-26.059999 1.819 1.823
-26.08 1.831 1.801
-26.07 1.825 1.774
-26.059 1.819 1.748
-26.083 1.8329999 1.725
-26.068001 1.824 1.698
-26.070999 1.825 1.673
-26.077 1.829 1.649
-26.087999 1.836 1.625
-26.068001 1.824 1.598
-26.093 1.8380001 1.575
-26.069 1.824 1.548
-26.08 1.831 1.524
-26.086 1.834 1.499
-26.087999 1.835 1.474
-26.077999 1.829 1.448
-26.08 1.83 1.423
-26.069 1.823 1.397
-26.066 1.822 1.372
-26.087999 1.835 1.349
-26.079 1.829 1.323
-26.066999 1.822 1.296
-26.065001 1.821 1.271
-26.08 1.83 1.247
-26.059999 1.818 1.221
-26.066 1.821 1.196
-26.072001 1.825 1.1720001
-26.077 1.8279999 1.147
-26.083 1.831 1.123
-26.08 1.829 1.097
-26.072001 1.825 1.072
-26.079 1.829 1.0470001
-26.068001 1.822 1.021
-26.073 1.825 0.99699998
-26.075001 1.826 0.972
-26.080999 1.829 0.94700003
-26.059 1.816 0.921
-26.079 1.8279999 0.89700001
-26.062 1.817 0.87099999
-26.096001 1.8380001 0.84799999
-26.080999 1.829 0.82200003
-26.079 1.8279999 0.79699999
-26.066 1.8200001 0.77200001
-26.076 1.825 0.74699998
-26.073 1.824 0.722
-26.07 1.822 0.69700003
-26.075001 1.825 0.67199999
-26.063 1.818 0.64700001
-26.077 1.826 0.62300003
-26.069 1.821 0.597
-26.083 1.829 0.57300001
-26.09 1.834 0.54799998
-26.087999 1.832 0.523
-26.058001 1.814 0.49700001
-26.070999 1.822 0.47299999
-26.08 1.827 0.44800001
-26.072001 1.822 0.42300001
-26.076 1.825 0.398
-26.073999 1.824 0.373
-26.091999 1.834 0.34900001
-26.083 1.829 0.324
-26.075001 1.824 0.29899999
-26.08 1.827 0.27399999
-26.084 1.829 0.249
-26.076 1.824 0.22400001
-26.073999 1.823 0.199
-26.084999 1.83 0.17399999
-26.052 1.789 2.967
-26.061001 1.794 2.9430001
-26.056999 1.7920001 2.9159999
-26.069 1.799 2.8929999
-26.052999 1.789 2.8640001
-26.073 1.802 2.8429999
-26.077 1.804 2.8180001
-26.07 1.799 2.79
-26.069 1.799 2.7639999
-26.069 1.799 2.7390001
-26.065001 1.796 2.7119999
-26.068001 1.798 2.687
-26.068001 1.798 2.661
-26.063 1.795 2.609
-26.063 1.794 2.5829999
-26.066 1.7970001 2.559
-26.082001 1.806 2.536
-26.082001 1.806 2.5109999
-26.063999 1.795 2.4820001
-26.072001 1.799 2.4579999
-26.068001 1.796 2.431
-26.066999 1.796 2.405
-26.079 1.803 2.382
-26.082001 1.8049999 2.3570001
-26.080999 1.804 2.332
-26.076 1.801 2.3050001
-26.070999 1.798 2.279
-26.073 1.799 2.2279999
-26.068001 1.796 2.2019999
-26.079 1.803 2.1789999
-26.065001 1.794 2.151
-26.056999 1.789 2.1240001
-26.059999 1.791 2.099
-26.073 1.799 2.076
-26.07 1.7970001 2.05
-26.075001 1.8 2.026
-26.069 1.796 2
-26.063999 1.793 1.974
-26.063999 1.793 1.948
-26.08 1.802 1.925
-26.073999 1.799 1.899
-26.059 1.79 1.872
-26.070999 1.7970001 1.848
-26.077 1.801 1.824
-26.076 1.8 1.799
-26.091 1.809 1.775
-26.068001 1.795 1.747
-26.087 1.806 1.724
-26.086 1.8049999 1.699
-26.087999 1.807 1.674
-26.069 1.795 1.647
-26.063 1.791 1.6210001
-26.069 1.795 1.596
-26.076 1.799 1.572
-26.080999 1.802 1.548
-26.076 1.799 1.522
-26.072001 1.7970001 1.4960001
-26.079 1.801 1.472
-26.073 1.7970001 1.446
-26.08 1.801 1.4220001
-26.08 1.801 1.397
-26.068001 1.794 1.37
-26.079 1.801 1.347
-26.07 1.795 1.321
-26.075001 1.798 1.296
-26.072001 1.796 1.271
-26.077 1.799 1.2460001
-26.073 1.796 1.221
-26.068001 1.793 1.1950001
-26.076 1.798 1.171
-26.072001 1.796 1.146
-26.079 1.8 1.1210001
-26.073999 1.7970001 1.096
-26.069 1.794 1.071
-26.073999 1.7970001 1.046
-26.080999 1.801 1.021
-26.077999 1.799 0.99599999
-26.083 1.802 0.972
-26.084999 1.803 0.94700003
-26.063 1.79 0.92000002
-26.087999 1.804 0.89700001
-26.070999 1.795 0.87099999
-26.08 1.799 0.847
-26.080999 1.799 0.82200003
-26.077999 1.798 0.79699999
-26.084 1.801 0.77200001
-26.079 1.799 0.74699998
-26.068001 1.791 0.72100002
-26.093 1.807 0.69800001
-26.086 1.802 0.67199999
-26.086 1.802 0.648
-26.084999 1.801 0.62300003
-26.080999 1.799 0.597
-26.077999 1.7970001 0.57200003
-26.075001 1.795 0.54699999
-26.066999 1.79 0.52200001
-26.073999 1.795 0.498
-26.08 1.798 0.47299999
-26.063 1.788 0.44800001
-26.068001 1.791 0.42300001
-26.080999 1.798 0.398
-26.094 1.806 0.37400001
-26.073999 1.794 0.34799999
-26.084 1.8 0.324
-26.065001 1.789 0.29899999
-26.08 1.798 0.27399999
-26.076 1.795 0.249
-26.084999 1.8 0.22400001
-26.076 1.795 0.199
-26.076 1.795 0.17399999
-26.084999 1.8 0.15000001
-26.094 1.806 0.125
-26.063999 1.7869999 0.1
-26.058001 1.7640001 2.9649999
-26.069 1.771 2.9419999
-26.066 1.768 2.915
-26.052999 1.761 2.8870001
-26.052999 1.761 2.8610001
-26.056999 1.763 2.836
-26.056999 1.763 2.8110001
-26.07 1.77 2.7880001
-26.065001 1.768 2.7609999
-26.065001 1.767 2.7349999
-26.077 1.775 2.7119999
-26.077 1.775 2.6860001
-26.077 1.774 2.661
-26.063999 1.766 2.632
-26.076 1.774 2.609
-26.063 1.766 2.5810001
-26.066 1.768 2.556
-26.066 1.767 2.5309999
-26.065001 1.767 2.5050001
-26.065001 1.766 2.4790001
-26.077 1.773 2.4560001
-26.058001 1.761 2.427
-26.066 1.766 2.4030001
-26.069 1.768 2.378
-26.065001 1.766 2.352
-26.073 1.77 2.3280001
-26.076 1.772 2.303
-26.062 1.7640001 2.2750001
-26.066 1.766 2.25
-26.061001 1.763 2.224
-26.056 1.76 2.198
-26.075001 1.771 2.1760001
-26.073999 1.77 2.1500001
-26.086 1.777 2.1270001
-26.08 1.774 2.1010001
-26.066999 1.766 2.073
-26.077999 1.773 2.05
-26.080999 1.775 2.0250001
-26.087999 1.779 2.0009999
-26.077999 1.773 1.974
-26.077 1.772 1.948
-26.087999 1.778 1.925
-26.073999 1.77 1.897
-26.076 1.771 1.872
-26.083 1.775 1.848
-26.086 1.777 1.824
-26.076 1.771 1.7970001
-26.073999 1.77 1.771
-26.080999 1.774 1.747
-26.075001 1.77 1.721
-26.077 1.771 1.696
-26.075001 1.77 1.671
-26.069 1.766 1.645
-26.066999 1.765 1.62
-26.069 1.766 1.595
-26.066999 1.765 1.5700001
-26.077999 1.771 1.546
-26.084 1.775 1.521
-26.063999 1.763 1.494
-26.08 1.772 1.471
-26.073 1.768 1.4450001
-26.075001 1.7690001 1.42
-26.065001 1.763 1.3940001
-26.070999 1.767 1.37
-26.080999 1.773 1.346
-26.073999 1.768 1.3200001
-26.084999 1.775 1.296
-26.077999 1.771 1.27
-26.084 1.774 1.2460001
-26.076 1.7690001 1.22
-26.077 1.77 1.1950001
-26.083 1.773 1.171
-26.077999 1.77 1.145
-26.075001 1.768 1.12
-26.084 1.773 1.096
-26.077 1.7690001 1.0700001
-26.087 1.775 1.046
-26.08 1.771 1.021
-26.073999 1.767 0.995
-26.082001 1.772 0.97100002
-26.072001 1.766 0.94499999
-26.086 1.774 0.921
-26.094 1.779 0.89700001
-26.084 1.773 0.87099999
-26.072001 1.765 0.84600002
-26.073 1.766 0.82099998
-26.079 1.7690001 0.796
-26.079 1.7690001 0.77100003
-26.084 1.772 0.74699998
-26.077 1.768 0.72100002
-26.091 1.776 0.69700003
-26.091999 1.777 0.67199999
-26.08 1.7690001 0.64700001
-26.084999 1.772 0.62199998
-26.077999 1.768 0.597
-26.07 1.763 0.57200003
-26.087999 1.774 0.54799998
-26.075001 1.767 0.52200001
-26.079 1.768 0.498
-26.080999 1.77 0.47299999
-26.072001 1.7640001 0.44800001
-26.091 1.775 0.42300001
-26.077999 1.768 0.398
-26.087 1.773 0.373
-26.087999 1.773 0.34900001
-26.082001 1.77 0.324
-26.075001 1.766 0.29899999
-26.087999 1.774 0.27399999
-26.093 1.776 0.249
-26.072001 1.7640001 0.22400001
-26.072001 1.7640001 0.199
-26.084999 1.771 0.17399999
-26.089001 1.774 0.15000001
-26.080999 1.7690001 0.125
-26.080999 1.7690001 0.1
-26.072001 1.763 0.075000003
-26.089001 1.774 0.050000001
-26.080999 1.768 0.025
-26.070999 1.742 2.9649999
-26.062 1.737 2.937
-26.075001 1.744 2.915
-26.075001 1.744 2.8889999
-26.079 1.747 2.8640001
-26.083 1.749 2.839
-26.075001 1.744 2.812
-26.087 1.751 2.789
-26.07 1.7410001 2.7590001
-26.061001 1.7359999 2.7320001
-26.069 1.74 2.7079999
-26.069 1.74 2.6819999
-26.077 1.745 2.658
-26.068001 1.739 2.631
-26.072001 1.742 2.6059999
-26.076 1.744 2.5810001
-26.075001 1.743 2.5550001
-26.066 1.738 2.5280001
-26.073999 1.743 2.5039999
-26.061001 1.734 2.4760001
-26.073 1.742 2.4530001
-26.068001 1.739 2.4260001
-26.08 1.7460001 2.4030001
-26.066 1.737 2.375
-26.07 1.739 2.3510001
-26.073 1.7410001 2.326
-26.084999 1.748 2.302
-26.070999 1.74 2.2750001
-26.077999 1.745 2.2509999
-26.099001 1.757 2.2290001
-26.073 1.7410001 2.1989999
-26.084 1.747 2.175
-26.079 1.745 2.1489999
-26.086 1.749 2.125
-26.084999 1.748 2.0999999
-26.066999 1.737 2.0710001
-26.087 1.749 2.049
-26.09 1.751 2.0239999
-26.08 1.745 1.998
-26.083 1.7460001 1.973
-26.09 1.75 1.949
-26.070999 1.739 1.921
-26.073999 1.7410001 1.896
-26.080999 1.745 1.872
-26.096001 1.7539999 1.848
-26.065001 1.735 1.819
-26.076 1.742 1.795
-26.073999 1.7410001 1.77
-26.077 1.742 1.745
-26.096001 1.7539999 1.722
-26.077 1.742 1.6950001
-26.079 1.744 1.67
-26.077999 1.742 1.645
-26.076 1.7410001 1.619
-26.065001 1.735 1.5930001
-26.089001 1.749 1.571
-26.073999 1.74 1.544
-26.076 1.7410001 1.5190001
-26.07 1.737 1.493
-26.072001 1.738 1.4680001
-26.077999 1.7410001 1.444
-26.083 1.745 1.42
-26.073 1.739 1.3940001
-26.084 1.745 1.37
-26.072001 1.738 1.3430001
-26.070999 1.737 1.318
-26.080999 1.743 1.294
-26.087 1.7460001 1.27
-26.079 1.742 1.244
-26.082001 1.743 1.219
-26.083 1.744 1.1950001
-26.080999 1.742 1.169
-26.077999 1.7410001 1.1440001
-26.087999 1.747 1.12
-26.084999 1.745 1.095
-26.082001 1.743 1.0700001
-26.08 1.7410001 1.045
-26.080999 1.742 1.02
-26.087 1.7460001 0.995
-26.075001 1.739 0.97000003
-26.070999 1.7359999 0.94400001
-26.061001 1.73 0.91900003
-26.075001 1.738 0.89499998
-26.076 1.739 0.87
-26.08 1.7410001 0.84500003
-26.084999 1.744 0.82099998
-26.093 1.749 0.796
-26.08 1.7410001 0.77100003
-26.077 1.739 0.74599999
-26.077 1.739 0.72100002
-26.091999 1.748 0.69700003
-26.066 1.732 0.671
-26.076 1.738 0.64600003
-26.073 1.7359999 0.62099999
-26.077999 1.739 0.597
-26.096001 1.75 0.57200003
-26.096001 1.75 0.54799998
-26.084 1.743 0.52200001
-26.076 1.738 0.49700001
-26.087999 1.745 0.47299999
-26.073 1.7359999 0.447
-26.082001 1.7410001 0.42300001
-26.073 1.7359999 0.398
-26.096001 1.749 0.373
-26.079 1.739 0.34799999
-26.087999 1.744 0.324
-26.075001 1.737 0.29899999
-26.087999 1.744 0.27399999
-26.097 1.75 0.249
-26.084999 1.742 0.22400001
-26.073999 1.7359999 0.199
-26.084999 1.742 0.175
-26.098 1.75 0.15000001
-26.073 1.735 0.125
-26.089001 1.745 0.1
-26.080999 1.74 0.075000003
-26.076 1.737 0.050000001
-26.089001 1.745 0.025
-26.087999 1.723 2.9660001
-26.066999 1.71 2.9360001
-26.079 1.7180001 2.9130001
-26.075001 1.715 2.8859999
-26.083 1.72 2.862
-26.070999 1.7130001 2.8340001
-26.091999 1.725 2.813
-26.073999 1.715 2.783
-26.07 1.712 2.757
-26.07 1.712 2.7309999
-26.082001 1.719 2.7079999
-26.082001 1.719 2.6819999
-26.063999 1.7079999 2.6530001
-26.073 1.7130001 2.6289999
-26.072001 1.7130001 2.6029999
-26.089001 1.723 2.5810001
-26.075001 1.715 2.553
-26.07 1.712 2.527
-26.073999 1.714 2.5020001
-26.069 1.711 2.4749999
-26.080999 1.7180001 2.4519999
-26.076 1.715 2.4260001
-26.08 1.717 2.401
-26.075001 1.714 2.375
-26.082001 1.7180001 2.3510001
-26.07 1.71 2.323
-26.08 1.717 2.299
-26.084 1.719 2.2750001
-26.062 1.706 2.2460001
-26.07 1.71 2.2219999
-26.073 1.712 2.197
-26.089001 1.721 2.174
-26.075001 1.7130001 2.1459999
-26.094999 1.725 2.1240001
-26.069 1.709 2.095
-26.084 1.7180001 2.072
-26.087 1.72 2.0469999
-26.077 1.714 2.02
-26.084 1.7180001 1.9960001
-26.07 1.709 1.969
-26.09 1.721 1.947
-26.08 1.715 1.92
-26.073999 1.711 1.8940001
-26.098 1.726 1.872
-26.079 1.714 1.844
-26.086 1.7180001 1.8200001
-26.093 1.722 1.796
-26.083 1.716 1.7690001
-26.077 1.7130001 1.743
-26.084 1.717 1.719
-26.077 1.7130001 1.693
-26.08 1.714 1.669
-26.077999 1.7130001 1.643
-26.098 1.725 1.6210001
-26.07 1.7079999 1.592
-26.093 1.722 1.5700001
-26.087 1.7180001 1.544
-26.096001 1.723 1.52
-26.069 1.707 1.492
-26.075001 1.711 1.4680001
-26.077 1.712 1.443
-26.076 1.711 1.418
-26.082001 1.715 1.393
-26.08 1.7130001 1.368
-26.063999 1.704 1.342
-26.070999 1.7079999 1.317
-26.080999 1.714 1.293
-26.073999 1.71 1.268
-26.076 1.711 1.243
-26.082001 1.714 1.2180001
-26.077 1.711 1.193
-26.076 1.71 1.168
-26.073999 1.709 1.143
-26.070999 1.707 1.118
-26.080999 1.7130001 1.094
-26.091 1.719 1.0700001
-26.079 1.712 1.044
-26.072001 1.7079999 1.018
-26.084999 1.715 0.99400002
-26.063 1.702 0.96799999
-26.059999 1.701 0.94300002
-26.080999 1.7130001 0.91900003
-26.082001 1.714 0.89499998
-26.084 1.715 0.87
-26.080999 1.7130001 0.84500003
-26.086 1.715 0.81999999
-26.083 1.714 0.79500002
-26.084 1.715 0.76999998
-26.087 1.716 0.74599999
-26.077999 1.71 0.72000003
-26.082001 1.712 0.69599998
-26.079 1.71 0.671
-26.072001 1.706 0.64600003
-26.073999 1.707 0.62099999
-26.082001 1.712 0.59600002
-26.079 1.71 0.57099998
-26.087999 1.715 0.54699999
-26.091999 1.7180001 0.52200001
-26.080999 1.711 0.49700001
-26.077999 1.709 0.472
-26.073999 1.707 0.447
-26.077999 1.709 0.42300001
-26.075001 1.707 0.398
-26.086 1.714 0.373
-26.066 1.702 0.34799999
-26.08 1.71 0.32300001
-26.072001 1.705 0.29800001
-26.083 1.712 0.27399999
-26.080999 1.711 0.249
-26.080999 1.71 0.22400001
-26.082001 1.711 0.199
-26.086 1.7130001 0.175
-26.084999 1.7130001 0.15000001
-26.084999 1.7130001 0.125
-26.084999 1.7130001 0.1
-26.082001 1.711 0.075000003
-26.089001 1.715 0.050999999
-26.082001 1.71 0.026000001
-26.066999 1.682 2.9590001
-26.083 1.692 2.937
-26.083 1.692 2.911
-26.087999 1.694 2.8859999
-26.075001 1.686 2.858
-26.066 1.681 2.8299999
-26.079 1.689 2.8069999
-26.075001 1.686 2.7809999
-26.066 1.6799999 2.753
-26.073999 1.6849999 2.7290001
-26.077999 1.687 2.704
-26.082001 1.6900001 2.6800001
-26.086 1.692 2.655
-26.080999 1.689 2.628
-26.063999 1.678 2.599
-26.084999 1.691 2.5780001
