ply
format ascii 1.0
comment PCL generated
element vertex 640
property float x
property float y
property float z
element camera 1
property float view_px
property float view_py
property float view_pz
property float x_axisx
property float x_axisy
property float x_axisz
property float y_axisx
property float y_axisy
property float y_axisz
property float z_axisx
property float z_axisy
property float z_axisz
property float focal
property float scalex
property float scaley
property float centerx
property float centery
property int viewportx
property int viewporty
property float k1
property float k2
end_header
-11.721889 11.99389 0.058962964
-11.647374 11.982072 0.0459277
-11.545749 11.960979 0.048781257
-11.467429 11.959144 0.030285718
-12.3236 12.0972 0.042000003
-12.248075 12.088057 0.048283026
-12.165595 12.074386 0.049653847
-11.734257 12.04243 0.060348999
-11.685001 12.04848 0.022583336
-11.51275 12.092999 0.062250003
-11.45869 12.060736 0.041524589
-13.013445 12.189555 0.017777778
-12.948088 12.181729 0.047626283
-12.851967 12.166404 0.050711345
-12.765233 12.160401 0.059816673
-12.691 12.17 0.059
-12.35138 12.145319 0.050608456
-12.257801 12.1097 0.055399995
-12.134999 12.123555 0.051333334
-11.723774 12.129321 0.073093347
-11.655218 12.134849 0.045710068
-11.553929 12.120005 0.050186045
-11.479193 12.107193 0.034451611
-13.014741 12.243019 0.019425923
-12.962078 12.258759 0.060299281
-12.848062 12.292227 0.050548397
-12.765044 12.278985 0.059527144
-12.334068 12.256266 0.044994581
-12.250179 12.283497 0.049763307
-12.155855 12.271534 0.050135132
-13.007334 12.308668 0.00066666672
-12.944241 12.309828 0.036868427
-12.861362 12.306273 0.047768109
-12.7715 12.3005 0.092500001
-12.321387 12.309225 0.05957143
-12.2776 12.3026 0.076600008
-12.194 12.3 0.039999999
-11.809 11.997999 0.1595
-11.733115 11.994 0.14884618
-11.649924 11.981504 0.14963852
-11.565891 11.966431 0.1379077
-11.497001 11.982333 0.10433333
-12.339001 12.098 0.108
-12.243361 12.090119 0.14804001
-12.162002 12.07907 0.14725582
-12.087749 12.086751 0.15000001
-11.827554 12.048798 0.17020911
-11.770643 12.036528 0.13280989
-11.673832 12.001166 0.17883335
-11.540977 12.049955 0.15031111
-11.497667 12.032001 0.10366666
-12.920881 12.181479 0.12111998
-12.852193 12.170731 0.15350924
-12.750199 12.154448 0.14973032
-12.671001 12.15075 0.16527277
-12.352273 12.143142 0.15029745
-12.263556 12.110333 0.15838888
-12.128819 12.119273 0.14272729
-11.817853 12.137016 0.17910288
-11.755774 12.146955 0.14490913
-11.6513 12.135846 0.15031788
-11.563066 12.116699 0.13575344
-12.923575 12.24073 0.12395293
-12.853621 12.272403 0.15659304
-12.749971 12.281913 0.14901602
-12.671809 12.272353 0.16301177
-12.338397 12.252101 0.14702858
-12.246253 12.286436 0.14809377
-12.155436 12.274049 0.14884563
-12.907001 12.3078 0.1062
-12.854359 12.30562 0.13920754
-12.7855 12.301001 0.13949999
-12.324138 12.307278 0.1459
-12.2795 12.304813 0.16118751
-12.199 12.3 0.19499999
-11.733025 11.99115 0.25237504
-11.654434 11.981693 0.23783872
-11.587667 11.996333 0.20500001
-12.232566 12.091596 0.24575675
-12.160686 12.084085 0.24519996
-12.093668 12.097 0.25533336
-11.919337 12.060113 0.27648389
-11.864254 12.046352 0.23851731
-11.766501 12.007077 0.24753851
-11.635544 12.046343 0.26345712
-11.591214 12.055358 0.215
-12.831246 12.177661 0.23126416
-12.754542 12.159953 0.25305718
-12.65155 12.144475 0.25241464
-12.579736 12.14163 0.27752632
-12.444 12.146999 0.2895
-12.352852 12.145499 0.24836698
-12.268914 12.108201 0.25228572
-12.139668 12.134889 0.24511112
-12.045334 12.115334 0.27700001
-11.912306 12.139576 0.28663635
-11.855263 12.153124 0.24941637
-11.750367 12.153252 0.25051653
-11.65835 12.132655 0.24322221
-11.591 12.118168 0.20649999
-12.825482 12.24185 0.22967057
-12.752742 12.272611 0.25152084
-12.651612 12.271398 0.25005654
-12.581553 12.260363 0.27214897
-12.338302 12.251028 0.24532174
-12.246176 12.289812 0.24694194
-12.155057 12.278435 0.24966663
-12.817 12.301 0.20299999
-12.775001 12.301429 0.23600002
-12.322249 12.308749 0.25604996
-12.268798 12.302883 0.25788572
-12.189334 12.302333 0.25666666
-11.808 11.999 0.33500001
-11.736925 11.987593 0.33555552
-11.697001 11.990499 0.31449997
-12.228639 12.093921 0.34652004
-12.168696 12.087787 0.34848487
-12.015082 12.071665 0.38420838
-11.958974 12.060122 0.34304312
-11.854376 12.02154 0.3469508
-11.747571 12.027122 0.35428569
-11.676444 12.057889 0.3188889
-12.73228 12.16972 0.34425804
-12.648309 12.145834 0.35250542
-12.556175 12.132056 0.35515943
-12.469461 12.134 0.37507692
-12.354491 12.143465 0.34905794
-12.265413 12.109913 0.35358694
-12.1427 12.1226 0.3457
-12.020092 12.121682 0.37368181
-11.951017 12.156363 0.35132653
-11.851437 12.172347 0.3496429
-11.754419 12.150515 0.34768379
-11.688058 12.128882 0.32535294
-12.732837 12.242606 0.33640742
-12.6524 12.270728 0.35126567
-12.555532 12.261113 0.35287112
-12.486751 12.248249 0.38393751
-12.342725 12.250127 0.3457053
-12.241318 12.292397 0.34725398
-12.153872 12.282759 0.351125
-11.948001 12.204168 0.36208338
-12.695 12.307 0.30899999
-12.320628 12.309915 0.35149997
-12.266358 12.306073 0.35383019
-12.194 12.3026 0.33300003
-11.806334 11.993 0.42866668
-11.796 11.989334 0.42166668
-12.224847 12.094309 0.44276926
-12.166502 12.092459 0.4453333
-12.042539 12.071461 0.44622105
-11.950014 12.04435 0.44656068
-11.846865 12.026147 0.45133781
-11.775399 12.042599 0.41896003
-12.702 12.174 0.40599999
-12.648626 12.162852 0.44718587
-12.550906 12.133929 0.44852385
-12.458475 12.124949 0.45893222
-12.354725 12.138362 0.44821948
-12.26055 12.111768 0.45184371
-12.139235 12.124529 0.45935294
-12.035604 12.157534 0.44479844
-11.948068 12.187715 0.44984564
-11.8506 12.168642 0.44968665
-11.77719 12.148643 0.42530954
-12.704 12.2085 0.40350002
-12.639651 12.248402 0.44207487
-12.551666 12.260416 0.44988266
-12.459011 12.250196 0.45684412
-12.346023 12.252436 0.44931039
-12.238761 12.293673 0.44768661
-12.15217 12.283254 0.44890708
-12.047874 12.207427 0.47292504
-11.972334 12.20325 0.44599998
-12.321166 12.313789 0.45153034
-12.25732 12.306415 0.45166367
-12.182446 12.304391 0.45988894
-12.327 12.096 0.59799999
-12.221801 12.096999 0.52759999
-12.141166 12.085364 0.55161679
-12.053029 12.060706 0.5476619
-11.94289 12.039177 0.55502737
-11.87279 12.041242 0.52375758
-12.613155 12.163232 0.51311535
-12.556925 12.151666 0.55253345
-12.453403 12.122143 0.55092871
-12.35027 12.129913 0.54479998
-12.253218 12.114976 0.54742301
-12.170897 12.11479 0.55921054
-12.028303 12.193327 0.54544187
-11.944957 12.187916 0.54641128
-11.870455 12.159375 0.53609324
-12.610143 12.220786 0.51357144
-12.546666 12.247828 0.54615611
-12.452849 12.247968 0.5504393
-12.363 12.248807 0.55164164
-12.241135 12.292208 0.54525006
-12.144229 12.282665 0.54807758
-12.0559 12.210807 0.55253625
-11.971571 12.204401 0.55751425
-12.322686 12.316186 0.54930258
-12.251697 12.309019 0.55335641
-12.18 12.306029 0.5524866
-12.332413 12.094528 0.65776473
-12.248917 12.095335 0.67808336
-12.148231 12.079676 0.65302569
-12.048911 12.057349 0.65013039
-11.965523 12.056072 0.6353572
-11.886 12.044 0.61900002
-12.520868 12.157119 0.63148522
-12.461833 12.138149 0.65785944
-12.356298 12.113767 0.65136349
-12.248499 12.130385 0.64813453
-12.173675 12.128077 0.63569993
-12.026793 12.193059 0.64905882
-11.960367 12.174703 0.63931566
-12.517069 12.22807 0.61882758
-12.449337 12.246437 0.64785719
-12.367406 12.252548 0.6491428
-12.2261 12.2949 0.64134997
-12.146224 12.285211 0.64550471
-12.055064 12.213133 0.6491884
-11.984385 12.203847 0.63646156
-12.325534 12.321818 0.65343618
-12.253907 12.312864 0.65028667
-12.171136 12.306386 0.65792316
-12.338333 12.090667 0.73824996
-12.244978 12.093674 0.75126094
-12.147047 12.079047 0.75128728
-12.068559 12.066236 0.74133825
-12.432128 12.149238 0.74000984
-12.364431 12.122033 0.76016128
-12.248835 12.113917 0.7451666
-12.176001 12.1215 0.74337506
-12.042 12.166002 0.74770904
-11.9915 12.1845 0.70600003
-12.423065 12.229787 0.72546804
-12.362906 12.255955 0.75042564
-12.2341 12.296899 0.73690003
-12.136144 12.276184 0.75081402
-12.065254 12.209379 0.73927844
-12.324608 12.322446 0.75041175
-12.251011 12.315969 0.74971068
-12.173804 12.307653 0.74965262
-12.327667 12.098 0.82600009
-12.239672 12.090154 0.851327
-12.161317 12.079273 0.8383835
-12.359306 12.148028 0.85036755
-12.260112 12.109264 0.85659987
-12.13903 12.137345 0.86311436
-12.091002 12.151001 0.81350005
-12.351305 12.250114 0.84844315
-12.2155 12.297999 0.82924998
-12.135488 12.275214 0.84872496
-12.08825 12.205 0.81150001
-12.327286 12.326848 0.85088241
-12.250752 12.319606 0.84946686
-12.167823 12.308037 0.84968221
-12.232166 12.089584 0.92274994
-12.183332 12.088223 0.94866669
-12.357901 12.158116 0.9507193
-12.256122 12.120749 0.95533335
-12.157557 12.127943 0.95424998
-12.351995 12.249988 0.94832474
-12.207 12.2925 0.95300001
-12.133874 12.272528 0.94780946
-12.099 12.269 0.91000003
-12.329626 12.32921 0.95081121
-12.251286 12.323073 0.94937253
-12.170248 12.310966 0.95038193
-12.177383 12.091539 1.0473078
-12.357772 12.160955 1.0496664
-12.251566 12.127048 1.0512
-12.164124 12.127666 1.0497544
-12.356359 12.248071 1.0487468
-12.132597 12.277 1.0418199
-12.331127 12.332152 1.0492334
-12.247679 12.330981 1.0534351
-12.165777 12.326649 1.0582107
-12.091 12.529 1.099
-12.1669 12.096301 1.1456002
-12.360619 12.163402 1.1504015
-12.254395 12.130569 1.1517088
-12.166087 12.126667 1.1514213
-12.360142 12.247697 1.1480587
-12.128273 12.258364 1.1367275
-12.333912 12.331578 1.1503882
-12.26031 12.34361 1.1455406
-12.117119 12.351999 1.13308
-12.093 12.386 1.1799999
-12.231526 12.450237 1.14118
-12.109748 12.441571 1.1369643
-12.093728 12.458728 1.1494546
-12.22075 12.548461 1.1427115
-12.120832 12.541722 1.1363333
-12.088071 12.555324 1.1480356
-12.17525 12.0945 1.25675
-12.402201 12.179999 1.2540001
-12.359201 12.162395 1.25034
-12.247066 12.132688 1.2519042
-12.165323 12.127247 1.2480613
-12.363798 12.246455 1.248219
-12.134555 12.253612 1.2423891
-12.33573 12.336375 1.2514995
-12.253727 12.335829 1.2527165
-12.160953 12.335904 1.2594287
-12.219501 12.4575 1.2061667
-12.148647 12.454234 1.211647
-12.206 12.524668 1.2080001
-12.144313 12.555939 1.2119375
-12.097 12.578 1.212
-12.165 12.094 1.3049999
-12.40275 12.1885 1.3770001
-12.359293 12.166347 1.3499427
-12.245999 12.13395 1.3503166
-12.163902 12.12635 1.3493168
-12.4055 12.202 1.3515
-12.368145 12.248918 1.3498811
-12.131587 12.251177 1.344
-12.337341 12.339684 1.3507847
-12.249869 12.337676 1.3506227
-12.163134 12.321548 1.3522618
-12.4026 12.189 1.4308001
-12.359298 12.166937 1.4518578
-12.249933 12.134815 1.4504268
-12.164484 12.127823 1.4491612
-12.405 12.204 1.447
-12.368949 12.248595 1.4470733
-12.135417 12.255335 1.4540417
-12.341558 12.342794 1.450128
-12.251447 12.342284 1.448736
-12.164295 12.323681 1.4499909
-12.402143 12.188857 1.5528572
-12.360319 12.168488 1.5507454
-12.250937 12.139042 1.5507144
-12.166002 12.131519 1.5496813
-12.369546 12.249345 1.5501142
-12.136049 12.2489 1.5470001
-12.341848 12.346798 1.5504115
-12.249669 12.34653 1.549059
-12.164481 12.329384 1.549823
-12.403545 12.184456 1.650273
-12.360636 12.171115 1.6503333
-12.250613 12.142556 1.6504334
-12.16986 12.132692 1.6526771
-12.411 12.2045 1.675
-12.375088 12.250123 1.6503024
-12.140368 12.254684 1.6652105
-12.344252 12.348351 1.6497177
-12.250141 12.351054 1.6491705
-12.164546 12.330879 1.651435
-12.405666 12.184445 1.7470001
-12.361181 12.171432 1.7502
-12.249143 12.142964 1.747847
-12.169252 12.141591 1.7476757
-12.4105 12.2075 1.761
-12.379309 12.252559 1.7487191
-12.139312 12.251562 1.7483125
-12.34734 12.351662 1.748772
-12.251565 12.354578 1.7512138
-12.163155 12.331323 1.7502273
-12.313 12.402 1.798
-12.4059 12.1851 1.8465
-12.361022 12.170243 1.8519548
-12.253205 12.145929 1.8456144
-12.16761 12.144094 1.8504688
-12.408501 12.2015 1.826
-12.381835 12.251431 1.8509059
-12.144737 12.247529 1.8551763
-12.349492 12.353992 1.8494622
-12.250912 12.357476 1.8511424
-12.161871 12.332084 1.848037
-12.410333 12.082401 1.9772002
-12.353112 12.075515 1.9718385
-12.287299 12.074251 1.9710499
-12.406302 12.144618 1.95578
-12.374735 12.144958 1.938931
-12.247128 12.138275 1.9376596
-12.170177 12.145412 1.9470193
-12.41052 12.241105 1.948138
-12.385753 12.251388 1.9454626
-12.14475 12.245375 1.9529374
-12.351862 12.356724 1.9496005
-12.251863 12.360695 1.9494625
-12.165307 12.334621 1.9481533
-12.423382 11.981952 2.085762
-12.344393 11.978824 2.0774512
-12.295751 11.99325 2.0735002
-12.418485 12.05047 2.0527885
-12.352195 12.028791 2.0286944
-12.281894 12.055434 2.0499187
-12.408339 12.137088 2.0509777
-12.393931 12.172762 2.0491662
-12.245784 12.139089 2.0436525
-12.170434 12.154864 2.0505133
-12.40325 12.2185 2.06725
-12.38454 12.251176 2.047554
-12.147701 12.2518 2.0501502
-12.407 12.384 2.049
-12.352291 12.359841 2.0516469
-12.250274 12.360807 2.0485234
-12.167971 12.336804 2.0498149
-12.352667 12.402167 2.0604999
-12.435056 11.886833 2.1862223
-12.353559 11.882023 2.1813488
-12.430527 11.951552 2.1532443
-12.347543 11.932254 2.1350691
-12.291057 11.97261 2.1561668
-12.424091 12.048343 2.1467834
-12.273807 12.052388 2.1483226
-12.410915 12.13927 2.1490216
-12.395651 12.17325 2.1449499
-12.24157 12.140762 2.1552382
-12.170551 12.153868 2.1454997
-12.408451 12.21716 2.1662576
-12.38727 12.252641 2.1474924
-12.148515 12.251485 2.1500912
-12.354745 12.362775 2.1499622
-12.250505 12.361089 2.1490149
-12.167083 12.336998 2.1509416
-12.336 12.407001 2.1550002
-12.426909 11.789819 2.2861817
-12.357174 11.785522 2.2873483
-12.282 11.798 2.296
-12.444652 11.852839 2.2538154
-12.350379 11.840734 2.2433469
-12.272901 11.8583 2.2560003
-12.440512 11.949796 2.2502029
-12.312572 11.924857 2.2458572
-12.287032 11.955805 2.2526128
-12.423766 12.046256 2.2446637
-12.34425 12.069 2.2722499
-12.272043 12.043348 2.2394783
-12.410435 12.163452 2.2462642
-12.361972 12.162451 2.2565002
-12.239858 12.154572 2.2545717
-12.171071 12.157439 2.2491465
-12.408765 12.231436 2.2524359
-12.3924 12.272385 2.2450166
-12.15394 12.252365 2.2489092
-12.402 12.3 2.296
-12.356964 12.363318 2.2478981
-12.25036 12.361979 2.2502174
-12.170789 12.340814 2.2479873
-12.355779 12.401668 2.2686665
-12.444 11.695251 2.3913751
-12.365126 11.691375 2.391
-12.451588 11.75458 2.3538804
-12.356713 11.744517 2.3465745
-12.273 11.7865 2.3155
-12.458098 11.849498 2.348877
-12.316347 11.839043 2.3499129
-12.2944 11.871401 2.3572001
-12.439427 11.94791 2.349252
-12.357779 11.966001 2.373889
-12.288824 11.951234 2.341177
-12.42361 12.016894 2.3282859
-12.3908 12.029001 2.3294001
-12.295 12.02 2.3210001
-12.421833 12.170226 2.352704
-12.354548 12.168531 2.3497958
-12.258344 12.156782 2.3597186
-12.167973 12.162028 2.3503885
-12.408792 12.23054 2.3461719
-12.39547 12.260959 2.3512976
-12.154588 12.253736 2.3464701
-12.40482 12.323772 2.3600457
-12.364026 12.364051 2.3495209
-12.251491 12.36641 2.3489616
-12.172303 12.344523 2.3470416
-12.357143 12.402287 2.3200002
-12.440666 11.590667 2.4976668
-12.38625 11.594999 2.4890001
-12.513 11.694 2.4590001
-12.461003 11.655561 2.4552965
-12.365508 11.650961 2.4491208
-12.276 11.699 2.428
-12.503 11.727 2.4560001
-12.47561 11.747702 2.4478588
-12.332768 11.741921 2.4530001
-12.293 11.704 2.4089999
-12.452023 11.851154 2.4527857
-12.328251 11.850699 2.4568498
-12.2925 11.882 2.4560001
-12.436488 11.927979 2.4281063
-12.36511 11.938666 2.4265554
-12.296 11.911 2.4189999
-12.429674 12.172984 2.4514816
-12.350448 12.161912 2.4463212
-12.246357 12.151287 2.4505239
-12.172811 12.163382 2.4552619
-12.416158 12.232396 2.4508071
-12.39442 12.259919 2.4496171
-12.156893 12.256433 2.4505675
-12.41262 12.330319 2.4508202
-12.374064 12.369096 2.4352686
-12.24147 12.36778 2.4435716
-12.1702 12.341386 2.451514
-12.35395 12.424963 2.4648564
-12.277833 12.422444 2.4667222
-12.408 11.482 2.5880001
-12.394 11.496 2.5915
-12.509366 11.559098 2.5694633
-12.453165 11.558131 2.5539684
-12.373596 11.560055 2.5516317
-12.298 11.592 2.536
-12.5034 11.6279 2.5711002
-12.489027 11.650136 2.5423279
-12.350607 11.645181 2.5504546
-12.471308 11.749258 2.5519292
-12.334652 11.749217 2.5617828
-12.447715 11.830424 2.5347121
-12.364727 11.831545 2.5307274
-12.436809 12.172095 2.5493813
-12.358588 12.162269 2.5506606
-12.25635 12.144825 2.5486741
-12.175112 12.161313 2.5517781
-12.424652 12.243674 2.557565
-12.391206 12.270471 2.5335293
-12.155999 12.2472 2.5554996
-12.407084 12.332332 2.5705414
-12.393594 12.3496 2.5493863
-12.223618 12.365001 2.5475671
-12.171139 12.341391 2.5470312
-12.402 12.4305 2.5090001
-12.518381 11.465792 2.666672
-12.447026 11.46037 2.6572716
-12.376937 11.472717 2.6577501
-12.510571 11.542787 2.6489186
-12.476171 11.540317 2.6325123
-12.367285 11.541314 2.649857
-12.504168 11.612501 2.6343334
-12.484992 11.653342 2.6524644
-12.348167 11.64904 2.6607914
-12.460203 11.73614 2.6368988
-12.363833 11.733223 2.6378334
-12.43 11.814 2.6129999
-12.372 11.8 2.609
-12.451 12.098 2.6110001
-12.224 12.099 2.654
-12.444728 12.173837 2.6534293
-12.353873 12.157413 2.6494465
-12.248871 12.136261 2.6441739
-12.154116 12.151001 2.6525669
-12.446322 12.255754 2.6502059
-12.138003 12.248768 2.6580188
-12.0955 12.226 2.6865001
-12.42085 12.331008 2.6571305
-12.220965 12.368546 2.6408389
-12.175271 12.343697 2.6477461
-12.525216 11.374283 2.7695873
-12.45221 11.367446 2.7622116
-12.379456 11.375409 2.7703183
-12.522991 11.446601 2.7474239
-12.444376 11.415423 2.7216251
-12.373779 11.445559 2.7480805
-12.508676 11.535711 2.7463541
-12.491766 11.568467 2.7596807
-12.35444 11.548658 2.7501221
-12.502 11.617249 2.7225001
-12.472286 11.636987 2.7427127
-12.357333 11.635142 2.7354763
-12.512423 12.171316 2.7722633
-12.458488 12.17457 2.7430596
-12.359102 12.170384 2.7473848
-12.259458 12.149916 2.7483478
-12.148762 12.142149 2.7500448
-12.07948 12.158279 2.7580402
-12.515212 12.2455 2.7714112
-12.482718 12.253954 2.7289999
-12.126385 12.273307 2.7508552
-12.081633 12.242225 2.7608776
-12.513502 12.314785 2.7770715
-12.445275 12.327911 2.7497373
-12.223375 12.364375 2.7367499
-12.174746 12.347871 2.7487998
-12.530179 11.277718 2.88041
-12.454562 11.272559 2.8692601
-12.370334 11.282001 2.8725002
-12.534132 11.347376 2.84548
-12.45084 11.319386 2.8258569
-12.387609 11.344391 2.8419564
-12.520928 11.449023 2.8493021
-12.4985 11.4845 2.8709998
-12.367715 11.446429 2.8478856
-12.50703 11.524588 2.8449118
-12.472132 11.551855 2.8440726
-12.369749 11.53815 2.8373504
-12.4376 11.624001 2.839
-12.540977 12.180661 2.8482828
-12.451788 12.185809 2.8472459
-12.352983 12.177464 2.8513653
-12.247199 12.15825 2.8463502
-12.149364 12.140122 2.8488247
-12.051536 12.143654 2.8527107
-11.985 12.158 2.8989999
-12.614 12.206 2.891
-12.55381 12.24971 2.8497458
-12.480112 12.206667 2.8433335
-12.357666 12.236 2.8790002
-12.12598 12.279366 2.8480816
-12.056145 12.259561 2.855125
-12 12.238 2.8970001
-12.540851 12.32258 2.8570583
-12.443805 12.337284 2.8482623
-12.167352 12.341188 2.846189
-12.537729 11.182756 2.9815133
-12.45941 11.178214 2.9732318
-12.389999 11.177999 2.9879999
-12.545112 11.246623 2.9469719
-12.4478 11.231758 2.9292998
-12.385214 11.238929 2.9389288
-12.535674 11.351411 2.946111
-12.410333 11.325001 2.9335556
-12.380002 11.365526 2.9510522
-12.51563 11.441185 2.9450986
-12.447787 11.463182 2.9508491
-12.373038 11.436693 2.9353075
-12.5235 11.5105 2.905
-12.464181 11.527273 2.9190001
-12.617002 12.182077 2.9691539
-12.543681 12.186179 2.9377143
-12.448155 12.189535 2.9428661
-12.35259 12.179845 2.9482946
-12.252948 12.16437 2.9494736
-12.151033 12.147345 2.9457216
-12.048952 12.132602 2.9508309
-11.976201 12.150534 2.9577665
-12.619648 12.249989 2.96506
-12.578254 12.23611 2.9386508
-12.457 12.213953 2.9624288
-12.394 12.23 2.9134998
-12.124801 12.28105 2.9416001
-12.051908 12.270689 2.9496634
-11.980025 12.239154 2.9620771
-12.616112 12.327426 2.9732621
-12.559265 12.337839 2.9452484
-12.447052 12.343142 2.9404521
-12.396 12.391001 2.9864998
-12.158286 12.321621 2.9413335
0 0 0 1 0 0 0 1 0 0 0 1 0 0 0 0 0 640 1 0 0
