ply
format ascii 1.0
comment PCL generated
element vertex 733
property float x
property float y
property float z
element camera 1
property float view_px
property float view_py
property float view_pz
property float x_axisx
property float x_axisy
property float x_axisz
property float y_axisx
property float y_axisy
property float y_axisz
property float z_axisx
property float z_axisy
property float z_axisz
property float focal
property float scalex
property float scaley
property float centerx
property float centery
property int viewportx
property int viewporty
property float k1
property float k2
end_header
12.280832 10.675667 0.01575
12.341002 10.671103 0.050791673
12.44648 10.668559 0.047384616
12.524 10.676333 0.076333329
13.163776 10.675187 0.03751852
13.247934 10.670934 0.036322583
13.325 10.684 0.039999999
14.0495 10.691999 0.068499997
14.218 10.697001 0.058499999
12.287749 10.751551 0.01945
12.332705 10.752933 0.065272726
12.468884 10.75504 0.037423082
12.517216 10.74393 0.06764286
13.148086 10.748896 0.048448276
13.241858 10.706715 0.071285717
13.370163 10.727883 0.056813955
13.407223 10.748555 0.028333332
14.062203 10.73349 0.052734692
14.152366 10.712041 0.043387745
14.253753 10.739116 0.048350003
14.304749 10.757751 0.0105
12.297 10.805 0.011
12.3405 10.804 0.069499999
12.452499 10.804501 0.037500001
13.1482 10.835566 0.052133333
13.391116 10.846848 0.053423077
13.407333 10.853779 0.030000001
14.053728 10.820909 0.048363645
14.142 10.854334 0.042333335
14.264895 10.830172 0.049620692
14.307 10.816 0.003
13.157429 10.923716 0.041857146
13.390232 10.931461 0.045769226
13.4 10.911 0.035999998
13.224 11 0.025
12.379144 10.675 0.12995237
12.442066 10.670979 0.15540001
12.547938 10.6724 0.15193999
12.608999 10.674 0.17550001
13.172 10.6952 0.13640001
13.216 10.699 0.16599999
13.933 10.685 0.112
14.033999 10.695201 0.153
14.160251 10.69125 0.15924999
12.376569 10.74338 0.12983786
12.424157 10.758376 0.16812502
12.566313 10.752485 0.14019997
12.608749 10.739751 0.189125
13.163162 10.745754 0.1465082
13.244308 10.711577 0.15088461
13.366076 10.731481 0.1516154
13.403 10.727667 0.15266667
13.861751 10.7265 0.148
13.96475 10.733249 0.15368183
14.055499 10.71084 0.14263158
14.156003 10.73146 0.14551388
14.217183 10.743637 0.10845455
12.378399 10.8016 0.1278
12.438667 10.803333 0.18133333
12.529 10.806 0.118
12.603 10.803 0.193
13.154293 10.841177 0.15044118
13.388268 10.846923 0.15142308
13.406166 10.843666 0.1455
13.963857 10.825429 0.15685716
14.016 10.834 0.113
14.168479 10.829999 0.1613913
14.215 10.816 0.11483334
13.164751 10.924251 0.16499999
13.389999 10.915 0.1336
12.465381 10.678823 0.23820585
12.55141 10.671908 0.2537955
12.641819 10.67418 0.26005131
13.177666 10.692335 0.26166666
13.874 10.699 0.289
13.96225 10.69775 0.26174998
14.03443 10.691715 0.25057143
14.108334 10.686 0.21233332
12.468948 10.751155 0.2436271
12.518716 10.745645 0.28142858
12.652885 10.749772 0.24699999
12.703 10.74 0.289
13.164204 10.743407 0.24949153
13.244593 10.708371 0.2548148
13.364723 10.728963 0.2495741
13.4115 10.7285 0.264
13.786 10.716 0.292
13.867499 10.7425 0.26261538
13.947762 10.717738 0.24178569
14.060854 10.728182 0.25368851
14.116095 10.742047 0.22023807
12.4754 10.8026 0.24059999
12.529501 10.804667 0.26100001
12.652334 10.801333 0.27700001
13.161248 10.847093 0.24309374
13.3884 10.844549 0.2457
13.404334 10.835001 0.24166666
13.867715 10.813287 0.25714287
13.915335 10.821667 0.20833334
14.072309 10.826077 0.27392307
14.118144 10.823573 0.22878572
13.168235 10.922587 0.25358823
13.226399 10.934601 0.25620002
13.305 10.932 0.28299999
12.554601 10.679956 0.34268886
12.652695 10.674916 0.34858334
12.733344 10.675068 0.35362068
12.816 10.671 0.384
13.154125 10.689251 0.361375
13.852 10.694 0.34175
13.964834 10.692833 0.35049999
14.031 10.695 0.31550002
12.558175 10.751189 0.35326985
12.659 10.737124 0.34062499
12.736499 10.748791 0.34973687
13.164445 10.738306 0.34876788
13.246172 10.709413 0.35175863
13.364557 10.732718 0.34898242
13.404749 10.719501 0.34200001
13.773435 10.742261 0.36952177
13.84289 10.717853 0.34066662
13.963999 10.724901 0.35360977
14.023815 10.741703 0.32462969
12.564728 10.810727 0.3497273
12.639778 10.804555 0.34900004
12.736 10.804001 0.35900003
13.165224 10.848355 0.34887093
13.388454 10.828182 0.33990908
13.4032 10.814601 0.34200001
13.7795 10.8165 0.3725
13.846001 10.827 0.35900003
13.978601 10.8279 0.37269998
14.025616 10.823308 0.33130771
13.163073 10.923786 0.3521429
13.2158 10.937 0.35879999
13.350299 10.9325 0.34540004
12.592167 10.683333 0.41016668
12.649727 10.67982 0.45068175
12.747269 10.675271 0.44678384
12.819588 10.679941 0.45670587
13.1598 10.693999 0.42899999
13.248 10.694 0.48199999
13.685 10.698 0.48199999
13.740601 10.697 0.46529999
13.853528 10.695882 0.44752944
13.935667 10.695667 0.43183336
12.596499 10.73325 0.40975001
12.641296 10.750344 0.45731029
12.786455 10.749091 0.41818184
12.830153 10.751731 0.45946148
13.163816 10.735382 0.4478727
13.247839 10.712162 0.44812906
13.366601 10.731799 0.45027262
13.406 10.749001 0.428
13.682501 10.741417 0.47375
13.750041 10.724208 0.43570834
13.868055 10.723833 0.4640556
13.93294 10.747546 0.43006065
12.6495 10.808145 0.44707146
12.764167 10.807001 0.45383334
12.811 10.819 0.49399999
13.165032 10.851343 0.45031032
13.383667 10.808668 0.4431667
13.71 10.832 0.456
13.854999 10.834501 0.46083331
13.928 10.820389 0.44855559
13.167418 10.928333 0.45483333
13.222801 10.9392 0.45860001
13.329833 10.934333 0.43816668
13.40925 10.932 0.45899999
12.677571 10.680286 0.51100004
12.743548 10.680675 0.55022508
12.848166 10.677738 0.5472858
12.908667 10.684834 0.57733333
13.164 10.6845 0.58050001
13.252573 10.694571 0.54057145
13.318 10.692 0.55900002
13.597 10.698 0.588
13.671168 10.696417 0.55124998
13.748239 10.693666 0.55471432
13.8206 10.694698 0.54230005
12.687319 10.752002 0.51931816
12.726561 10.750195 0.56707311
12.872521 10.744348 0.52347833
12.919237 10.74353 0.57088238
13.161814 10.737337 0.54191518
13.242639 10.709416 0.55222219
13.360927 10.723704 0.55087024
13.403334 10.735334 0.53666663
13.577834 10.728334 0.58116668
13.635888 10.726444 0.54614824
13.7717 10.726201 0.57249999
13.835975 10.744779 0.5407778
12.689667 10.803667 0.51499999
12.759529 10.828354 0.56105888
12.830832 10.824333 0.57450008
13.162587 10.847552 0.55148274
13.66 10.804 0.51200002
13.839412 10.823882 0.54794121
13.166813 10.924313 0.55618751
13.244499 10.9365 0.54949999
13.3358 10.9332 0.54519999
13.444 10.92625 0.54224998
12.779417 10.683333 0.62441671
12.840842 10.684065 0.65659368
12.937557 10.682639 0.65461117
13.019 10.69 0.66299999
13.16975 10.693 0.64649999
13.26525 10.695 0.63549995
13.318 10.697 0.61199999
13.574092 10.695091 0.66645455
13.664556 10.694057 0.64655554
13.7396 10.689869 0.63973343
12.775483 10.745678 0.63067734
12.82184 10.749761 0.67916006
12.965963 10.732285 0.63564289
13.020599 10.7355 0.67869997
13.158862 10.735946 0.64622229
13.245534 10.711439 0.65270728
13.351754 10.714999 0.65024489
13.432501 10.7275 0.66275001
13.543777 10.720834 0.64649999
13.643801 10.714301 0.65600002
13.744595 10.750499 0.64993757
12.793167 10.811501 0.63133335
12.837317 10.826863 0.65431827
12.931 10.801 0.60500002
13.161885 10.849078 0.65923083
13.2045 10.8055 0.63349998
13.551 10.801 0.63099998
13.693501 10.82 0.69850004
13.752335 10.823869 0.64820004
13.162589 10.922884 0.65470588
13.266001 10.934 0.64120001
13.35 10.9332 0.64679998
12.865445 10.686779 0.73744446
12.94532 10.682647 0.75122571
13.025739 10.68674 0.75543481
13.174 10.695 0.75
13.265667 10.698668 0.76999998
13.3595 10.6975 0.76900005
13.466666 10.695445 0.76355553
13.552701 10.694101 0.75029993
13.646264 10.690894 0.74136841
13.711 10.69 0.713
12.865535 10.749049 0.74397558
12.914144 10.739144 0.76800001
13.052756 10.730448 0.74782741
13.1645 10.726251 0.74559373
13.2465 10.709792 0.75052941
13.351192 10.716248 0.74671161
13.460882 10.716589 0.74935299
13.5562 10.7168 0.74839991
13.650787 10.741636 0.75015157
12.883751 10.811126 0.74612492
12.942902 10.8114 0.75410002
13.055334 10.820666 0.76999998
13.161324 10.844293 0.75167644
13.591 10.845 0.79100001
13.6631 10.815101 0.74849999
13.714 10.831 0.71399999
13.167572 10.924859 0.75752383
13.265669 10.934666 0.73750007
13.371001 10.9314 0.74940008
12.957524 10.687618 0.84157145
13.043999 10.686301 0.85217494
13.141474 10.690474 0.86699998
13.2435 10.696501 0.8483333
13.359601 10.6958 0.86639994
13.44437 10.693187 0.85540742
13.537288 10.692323 0.84578586
13.618 10.698 0.82800001
12.949741 10.746313 0.84518528
13.061625 10.707251 0.84687501
13.154141 10.711285 0.84338099
13.247286 10.712228 0.84765714
13.342742 10.715962 0.84492594
13.452333 10.7075 0.84366667
13.566937 10.743249 0.85618758
13.6088 10.7606 0.80779999
12.966936 10.810625 0.84781241
13.046667 10.823889 0.85377771
13.159138 10.850965 0.8579309
13.550001 10.822501 0.86666673
13.616 10.808001 0.81550002
13.165593 10.924593 0.84962952
13.258334 10.936834 0.84033334
13.372945 10.9325 0.86544448
13.052963 10.689369 0.93988895
13.147639 10.686788 0.95245469
13.252693 10.685923 0.97046161
13.350539 10.674334 0.95930773
13.447 10.692678 0.94678581
13.513 10.687599 0.91120005
12.989799 10.749201 0.90900004
13.03646 10.74946 0.95622897
13.1676 10.709 0.93959999
13.247183 10.715181 0.93277282
13.3525 10.711 0.932625
13.469217 10.744036 0.96057141
13.518223 10.749001 0.91833329
12.994 10.814 0.903
13.043858 10.818286 0.94357145
13.157975 10.859305 0.95719445
13.385859 10.886287 0.95514297
13.458124 10.826249 0.96737504
13.514334 10.809334 0.93366671
13.166084 10.924834 0.95112491
13.238143 10.938429 0.94728583
13.369667 10.932714 0.9503333
13.405001 10.936335 0.95533335
13.082001 10.695 1.0145
13.160511 10.675225 1.0425714
13.251299 10.6854 1.0521333
13.354305 10.683415 1.0471112
13.420624 10.68925 1.020125
13.082 10.744531 1.0174118
13.129692 10.75118 1.0647693
13.289499 10.7075 1.0325
13.377999 10.735182 1.0668637
13.424181 10.750137 1.0301819
13.091249 10.813 1.015
13.153561 10.85336 1.05442
13.382178 10.862107 1.0551074
13.431251 10.815001 1.016
13.169479 10.92748 1.0505217
13.228001 10.93925 1.04775
13.371358 10.929039 1.0526799
13.175499 10.6924 1.1251
13.258926 10.68826 1.1444814
13.33179 10.687422 1.143158
13.16004 10.745483 1.1459998
13.239888 10.706889 1.1654445
13.370019 10.739511 1.1540363
13.404 10.723 1.1210001
13.162726 10.848491 1.1510909
13.380489 10.849661 1.1501707
13.168679 10.924108 1.1471071
13.241167 10.940666 1.1436666
13.37313 10.924391 1.153348
13.408 10.929 1.192
13.1675 10.698251 1.239
13.266126 10.692375 1.22475
13.3575 10.691999 1.235
13.162 10.742313 1.2472237
13.250158 10.709904 1.2524194
13.363229 10.731967 1.2504097
13.16205 10.847762 1.250034
13.381352 10.849323 1.2489706
13.16993 10.923139 1.2505172
13.249572 10.943 1.2400001
13.374287 10.926858 1.2504761
13.404 10.933 1.2460001
13.337001 11.156166 1.2731667
13.251143 10.695143 1.3324287
13.342801 10.697001 1.3526
13.157972 10.739873 1.3481113
13.251666 10.708606 1.3534849
13.36597 10.737616 1.3456155
13.162107 10.846395 1.3517145
13.206 10.866 1.306
13.379296 10.851081 1.3464323
13.172768 10.920964 1.3497692
13.262072 10.952428 1.3637145
13.374031 10.940882 1.3574706
13.4 10.918 1.3049999
13.2909 11.0515 1.3915001
13.348971 11.055722 1.3788054
13.287299 11.1412 1.3914
13.349715 11.150714 1.3703574
13.408 11.154 1.393
13.293 11.252 1.382
13.358095 11.252156 1.37625
13.4015 11.263 1.3735
13.40625 11.341249 1.38975
13.238001 10.696334 1.4456667
13.3405 10.6975 1.4307501
13.156767 10.7431 1.4468664
13.252633 10.709145 1.4487805
13.367753 10.737078 1.4506617
13.163473 10.848588 1.4499217
13.376381 10.853333 1.4534999
13.172907 10.920381 1.4502857
13.255137 10.964518 1.4457586
13.379684 10.952499 1.4519212
13.4 10.98 1.469
13.268069 11.048233 1.4490231
13.385472 11.047667 1.4518055
13.4025 11.0425 1.488
13.274039 11.148578 1.45302
13.385097 11.150969 1.4460645
13.4045 11.1515 1.4235001
13.281809 11.25 1.4448848
13.388783 11.245087 1.4472173
13.40189 11.258222 1.4566666
13.285274 11.352818 1.4494547
13.386601 11.338 1.4483
13.405769 11.35277 1.4463078
13.285261 11.446739 1.4540001
13.382769 11.440308 1.4380769
13.407359 11.451839 1.4511598
13.2265 10.6975 1.5545001
13.375 10.694 1.568
13.156938 10.742749 1.5464376
13.2535 10.709369 1.5507368
13.363807 10.730644 1.5512097
13.163352 10.847391 1.5498432
13.375486 10.843879 1.5501209
13.172305 10.922435 1.5556089
13.262111 10.961167 1.5307776
13.3701 10.939702 1.5490335
13.4 10.924 1.512
13.277701 11.04725 1.5204501
13.364087 11.048783 1.5366523
13.401 11.042667 1.5190001
13.284734 11.1488 1.5200001
13.36581 11.158191 1.5191904
13.403399 11.139 1.5198001
13.291874 11.245251 1.51675
13.372058 11.258294 1.5262941
13.404001 11.239668 1.5139999
13.2915 11.35325 1.5135001
13.366522 11.354667 1.5290951
13.404499 11.32925 1.515
13.2935 11.4495 1.5135
13.357201 11.438133 1.5326668
13.408286 11.461214 1.5193572
13.41 11.555125 1.512125
13.149 10.699 1.642
13.29 10.689 1.683
13.348399 10.6934 1.6681999
13.411 10.698 1.642
13.159155 10.745705 1.6524156
13.253081 10.707919 1.647297
13.361251 10.735283 1.6474838
13.16151 10.849266 1.6492455
13.374412 10.85018 1.6471282
13.172198 10.923559 1.6522398
13.240572 10.940572 1.6355714
13.371759 10.927381 1.6525862
13.252001 10.698 1.7135
13.369901 10.691501 1.7530001
13.161866 10.744905 1.7438117
13.251677 10.710271 1.7540001
13.360528 10.733987 1.7488143
13.401 10.7 1.717
13.167004 10.851273 1.7434093
13.377529 10.849 1.7489706
13.172999 10.922801 1.7424002
13.24775 10.93925 1.7390001
13.372458 10.924793 1.7479585
13.179 10.697001 1.8555
13.296 10.697 1.898
13.359335 10.691168 1.8585
13.162741 10.735762 1.8491189
13.250067 10.709613 1.8512903
13.358012 10.730735 1.8507645
13.402 10.701 1.8380001
13.166517 10.848851 1.8527778
13.374866 10.85008 1.8488919
13.174799 10.927466 1.8535333
13.379347 10.924172 1.8485217
13.406 10.912 1.899
13.27375 10.696501 1.9200001
13.385001 10.6952 1.9394001
13.162539 10.731616 1.9521919
13.250122 10.711332 1.9538184
13.358016 10.733032 1.9500159
13.419 10.715 1.992
13.168501 10.848317 1.9523635
13.375796 10.84859 1.9510001
13.177385 10.932076 1.9529232
13.373999 10.926624 1.94875
13.4065 10.914499 1.9400001
13.15175 10.69375 2.066
13.2785 10.688 2.0339999
13.3698 10.6911 2.0503001
13.156432 10.740582 2.0555165
13.244107 10.709865 2.0501626
13.355639 10.730965 2.0498793
13.157043 10.848356 2.0557292
13.375053 10.846315 2.0477366
13.171212 10.928736 2.0542629
13.298 10.938 2.0880001
13.368112 10.923057 2.0537221
13.156334 10.592668 2.1956668
13.222 10.596 2.1949999
13.155561 10.657598 2.1582105
13.251347 10.656562 2.1593995
13.351999 10.695499 2.1440001
13.145308 10.746456 2.1444263
13.266375 10.707375 2.138375
13.359772 10.735819 2.1468034
13.153174 10.851579 2.1494212
13.375729 10.845433 2.1485677
13.1653 10.934502 2.1484332
13.249801 10.952201 2.1598001
13.36416 10.92948 2.1522803
13.150857 10.558251 2.2581561
13.243143 10.556959 2.2569592
13.142913 10.646725 2.2469714
13.274 10.641446 2.2448688
13.142623 10.7422 2.2442
13.258667 10.732166 2.2701669
13.360737 10.739438 2.2500396
13.158628 10.857472 2.2490196
13.215167 10.813334 2.2768333
13.376 10.852456 2.2485142
13.16166 10.948753 2.2516606
13.279001 10.983153 2.246846
13.369601 10.919201 2.2518001
13.166572 11.016143 2.283143
13.259124 11.0165 2.2807498
13.312 11.004 2.2550001
13.158 10.3915 2.3989999
13.147781 10.462147 2.3603532
13.243541 10.46072 2.3612399
13.136983 10.546778 2.3457594
13.262954 10.546357 2.344357
13.136391 10.644558 2.3516612
13.266831 10.646973 2.3470833
13.3575 10.693 2.3494999
13.158074 10.748963 2.3492179
13.268688 10.711188 2.3525627
13.364778 10.74462 2.3497593
13.163073 10.846351 2.3518517
13.2145 10.8505 2.3695002
13.376529 10.849833 2.3476386
13.160576 10.947742 2.3505371
13.291167 10.986 2.3450003
13.355786 10.930213 2.3458574
13.1661 11.037326 2.3590503
13.270521 11.04556 2.3573999
13.311 11.018 2.362
13.235 11.101 2.3870001
13.14578 10.357985 2.4620445
13.239672 10.363522 2.4623046
13.131731 10.4468 2.4490502
13.262657 10.44187 2.4487107
13.130563 10.544821 2.4490905
13.260388 10.549944 2.4498613
13.143592 10.623999 2.4343703
13.2505 10.641063 2.4341247
13.3295 10.696751 2.4615002
13.160718 10.748963 2.452189
13.246627 10.713749 2.4577084
13.360934 10.737447 2.4504468
13.165709 10.846966 2.447655
13.217 10.89 2.451
13.377238 10.848784 2.4496191
13.167633 10.951421 2.452491
13.253875 10.956876 2.4494998
13.348689 10.941376 2.4450624
13.16153 11.048652 2.4504838
13.286666 11.046429 2.4472382
13.308135 11.072268 2.4464667
13.168602 11.118401 2.4659333
13.257637 11.123364 2.4525456
13.305715 11.12443 2.4685717
13.16125 10.15575 2.58425
13.231 10.191 2.589
13.144985 10.261487 2.559057
13.231745 10.263283 2.5610774
13.12807 10.345984 2.5467837
13.25549 10.34414 2.5479066
13.12382 10.44728 2.5489836
13.257793 10.452294 2.5517645
13.130046 10.529545 2.5301366
13.247126 10.532667 2.5357499
13.238001 10.661667 2.5176668
13.367334 10.693335 2.5490003
13.164508 10.746033 2.5509691
13.252735 10.714267 2.5489666
13.359313 10.73421 2.552228
13.413 10.707 2.5739999
13.165566 10.848849 2.5492644
13.377736 10.845499 2.5483155
13.170333 10.94759 2.5461965
13.255501 10.977751 2.5655832
13.376499 10.920001 2.5465002
13.162792 11.052327 2.5486205
13.288324 11.045679 2.5548928
13.30725 11.071625 2.5397501
13.166184 11.144979 2.553653
13.275913 11.153305 2.5445216
13.308111 11.143944 2.5498891
13.176 11.2 2.598
13.2315 11.203501 2.582
13.311 11.206 2.5940001
13.097 10.197 2.6229999
13.142371 10.158279 2.659174
13.232234 10.166589 2.6633825
13.12441 10.246754 2.6417944
13.249824 10.244288 2.6473553
13.121555 10.35025 2.649518
13.253421 10.352003 2.6474738
13.126518 10.430276 2.6307931
13.250868 10.435266 2.635
13.125 10.501 2.6010001
13.273335 10.694334 2.6646669
13.346502 10.691833 2.6666667
13.16105 10.746595 2.647645
13.248528 10.713589 2.6493528
13.355933 10.73217 2.6478479
13.4025 10.705 2.6545
13.1654 10.852341 2.6486416
13.377501 10.852794 2.6505003
13.177501 10.933027 2.6492648
13.257751 10.964875 2.6421251
13.378668 10.928668 2.6542671
13.164017 11.05468 2.6477401
13.266201 11.039001 2.6565669
13.307145 11.066428 2.6371429
13.164614 11.148197 2.6467254
13.292956 11.143459 2.6532085
13.307351 11.153529 2.6401765
13.170116 11.217822 2.6547647
13.2752 11.2168 2.6326001
13.310201 11.228401 2.6669002
13.079 10.071001 2.7667143
13.141892 10.059203 2.7629845
13.226774 10.066483 2.7639999
13.088667 10.142 2.7646666
13.120405 10.145736 2.7429848
13.245214 10.143454 2.7437623
13.097 10.247 2.704
13.118239 10.253114 2.7502413
13.247649 10.251108 2.7522166
13.124694 10.335116 2.7333078
13.244273 10.337227 2.7334092
13.21 10.415 2.7149999
13.250309 10.694425 2.763885
13.350834 10.694251 2.7638335
13.162049 10.749887 2.7469513
13.244143 10.711619 2.738476
13.357814 10.734797 2.7459321
13.164283 10.850509 2.7508864
13.375755 10.847849 2.7523334
13.175311 10.92903 2.7507186
13.236 10.945333 2.7596669
13.366334 10.928075 2.7447035
13.4 10.937 2.7869999
13.163696 11.072261 2.7374783
13.254848 11.072962 2.7407694
13.304335 11.084666 2.7590003
13.163226 11.144877 2.7475867
13.290048 11.143137 2.7572277
13.3062 11.155933 2.7448001
13.169945 11.237884 2.7480288
13.294692 11.236 2.7635384
13.310077 11.254732 2.7479615
13.179 11.317 2.786
13.295 11.3105 2.7735
13.092249 9.9457502 2.8783751
13.137378 9.9643011 2.862921
13.222729 9.9686766 2.8647025
13.089547 10.043182 2.847091
13.118837 10.048562 2.8431773
13.240532 10.044933 2.8440666
13.093667 10.130001 2.8404443
13.11459 10.151608 2.8483927
13.243429 10.150657 2.8442569
13.122124 10.237063 2.8375626
13.23858 10.238316 2.8328421
13.177476 10.691095 2.8525715
13.249431 10.691858 2.85025
13.347555 10.690556 2.8446667
13.155737 10.747047 2.8506556
13.27025 10.70025 2.8557501
13.363644 10.733076 2.8516619
13.405334 10.734668 2.849
13.162002 10.84916 2.8486996
13.381558 10.846499 2.8474116
13.407499 10.82 2.8954999
13.171515 10.926886 2.851743
13.22 10.946751 2.8585
13.36811 10.929259 2.8477035
13.4175 10.936501 2.8889999
13.2195 11.0945 2.8264999
13.166955 11.155456 2.8440907
13.268589 11.145538 2.8507948
13.304143 11.160144 2.8329999
13.170501 11.242217 2.8511302
13.294 11.243295 2.8518238
13.308706 11.255647 2.848706
13.177501 11.335143 2.8573575
13.290668 11.331667 2.8591666
13.315334 11.3258 2.8611336
13.0665 9.6739998 2.984
13.117334 9.6536674 2.9753332
13.0902 9.8712683 2.9624002
13.140869 9.861867 2.9675472
13.223409 9.8699379 2.9642191
13.092773 9.9484844 2.9526129
13.122199 9.9385395 2.93734
13.235935 9.9477139 2.9441836
13.093763 10.033766 2.9454122
13.107105 10.057894 2.9460003
13.234636 10.051941 2.9504547
13.0935 10.134001 2.908
13.114289 10.139839 2.9398389
13.234682 10.132046 2.928864
13.169333 10.214334 2.922667
13.096001 10.696 2.9885001
13.163665 10.678283 2.9477437
13.237001 10.683468 2.9406669
13.345917 10.69575 2.9561667
13.438 10.694 2.97
13.085002 10.763091 2.9774091
13.119791 10.744146 2.9400413
13.2384 10.7024 2.9556999
13.360408 10.712223 2.9377041
13.4228 10.744067 2.9586675
13.081 10.8155 2.9949999
13.151872 10.846426 2.9465103
13.381819 10.873273 2.9300911
13.425841 10.827999 2.9567893
13.165334 10.920268 2.9511669
13.24375 10.94375 2.9505
13.362318 10.933635 2.9474547
13.098 11.19 2.9419999
13.171547 11.18 2.9289091
13.258239 11.177525 2.9323332
13.3114 11.1874 2.9098001
13.170658 11.244608 2.951268
13.273914 11.231912 2.9621735
13.309102 11.251451 2.9544497
13.175681 11.35464 2.94928
13.2935 11.3575 2.9790001
13.309249 11.344906 2.9489689
13.175858 11.420572 2.9755714
13.2512 11.427001 2.9532001
13.311333 11.405001 2.9793334
0 0 0 1 0 0 0 1 0 0 0 1 0 0 0 0 0 733 1 0 0
