ply
format ascii 1.0
comment PCL generated
element vertex 1789
property float x
property float y
property float z
element camera 0
property float view_px
property float view_py
property float view_pz
property float x_axisx
property float x_axisy
property float x_axisz
property float y_axisx
property float y_axisy
property float y_axisz
property float z_axisx
property float z_axisy
property float z_axisz
property float focal
property float scalex
property float scaley
property float centerx
property float centery
property int viewportx
property int viewporty
property float k1
property float k2
end_header
16.976999 -4.8260002 0.35600001
16.096001 -4.4489999 0.212
15.997 -4.4089999 0.147
15.98 -4.401 0.082999997
15.98 -4.402 0.018999999
15.963 -4.277 2.9549999
15.97 -4.2810001 2.891
15.957 -4.277 2.826
15.967 -4.2820001 2.763
16.016001 -4.3039999 2.7030001
16.115 -4.3470001 2.6470001
16.716 -4.6339998 0.87099999
16.739 -4.645 0.80699998
16.749001 -4.6500001 0.74199998
16.754999 -4.6539998 0.67699999
16.761999 -4.6560001 0.611
16.808001 -4.677 0.54699999
16.865999 -4.7030001 0.48300001
16.924999 -4.7290001 0.419
16.999001 -4.7620001 0.35499999
17.030001 -4.776 0.28999999
17.110001 -4.8109999 0.22499999
16.114 -4.388 0.147
16.018999 -4.349 0.082000002
15.973 -4.3299999 0.017999999
15.96 -4.2069998 2.951
15.955 -4.2059999 2.8870001
15.96 -4.2090001 2.823
16.027 -4.2389998 2.7650001
16.104 -4.2719998 2.7079999
16.916 -4.652 0.67900002
16.927999 -4.6570001 0.61400002
16.945999 -4.6659999 0.54900002
16.922001 -4.6570001 0.48300001
16.931 -4.6620002 0.41800001
16.988001 -4.6880002 0.35299999
17.066 -4.7220001 0.289
17.105 -4.7389998 0.22400001
17.187 -4.7750001 0.15899999
16.157 -4.3400002 0.082999997
16.049999 -4.296 0.017999999
15.97 -4.1420002 2.9489999
15.966 -4.1409998 2.8840001
16.025 -4.1669998 2.826
16.114 -4.2059999 2.77
17.121 -4.6700001 0.41999999
17.132 -4.6750002 0.354
17.141001 -4.6799998 0.289
17.146999 -4.684 0.223
17.169001 -4.6939998 0.15700001
17.226999 -4.7199998 0.092
17.285999 -4.7459998 0.026000001
15.958 -4.0679998 2.9449999
16.040001 -4.1040001 2.888
16.129999 -4.1420002 2.832
17.242001 -4.651 0.289
17.308001 -4.6799998 0.22400001
17.316999 -4.6849999 0.15800001
17.323 -4.6890001 0.092
17.327999 -4.6919999 0.026000001
16.042999 -4.033 2.9489999
16.124001 -4.0679998 2.8929999
17.488001 -4.6849999 0.026000001
16.107 -3.9909999 2.9519999
16.082001 -4.645 1.024
16.086 -4.6479998 0.99199998
16.077 -4.6399999 0.958
16.087999 -4.6479998 0.86000001
16.094999 -4.6529999 0.79400003
16.104 -4.6599998 0.76200002
16.108999 -4.664 0.72899997
16.101999 -4.658 0.69599998
16.094 -4.651 0.662
16.107 -4.6609998 0.597
16.091999 -4.6479998 0.56400001
16.106001 -4.6589999 0.53100002
16.099001 -4.6529999 0.498
16.084 -4.6409998 0.465
16.054001 -4.6160002 0.43099999
16.025 -4.5910001 0.39700001
15.995 -4.566 0.36300001
16.059999 -4.592 1.648
16.065001 -4.5960002 1.582
16.056 -4.5879998 1.548
16.069 -4.599 1.517
16.045 -4.5780001 1.4809999
16.039 -4.573 1.448
16.049 -4.5809999 1.416
16.063 -4.592 1.3839999
16.069 -4.5960002 1.352
16.086 -4.6100001 1.3200001
16.104 -4.6240001 1.289
16.139 -4.6529999 1.2589999
16.115 -4.6329999 1.224
16.108999 -4.6279998 1.1900001
16.124001 -4.6399999 1.158
16.134001 -4.6469998 1.126
16.118 -4.6339998 1.092
16.124001 -4.6389999 1.059
16.132999 -4.645 1.027
16.122 -4.6360002 0.99299997
16.117001 -4.632 0.95999998
16.131001 -4.6420002 0.92799997
16.134001 -4.645 0.89499998
16.143999 -4.652 0.86199999
16.146 -4.6539998 0.829
16.143999 -4.652 0.796
16.134001 -4.6430001 0.76300001
16.139 -4.6469998 0.73000002
16.149 -4.6550002 0.69800001
16.141001 -4.6479998 0.66399997
16.146 -4.652 0.59799999
16.139 -4.645 0.565
16.153 -4.6550002 0.53299999
16.162001 -4.6620002 0.5
16.162001 -4.6620002 0.46700001
16.132 -4.6370001 0.433
16.08 -4.5939999 0.398
16.047001 -4.566 0.36500001
16.016001 -4.5409999 0.331
16.124001 -4.605 1.919
16.124001 -4.605 1.886
16.115 -4.5970001 1.851
16.128 -4.6069999 1.8200001
16.132 -4.6100001 1.7869999
16.134001 -4.612 1.7539999
16.136999 -4.6139998 1.721
16.136 -4.612 1.688
16.142 -4.6170001 1.655
16.122 -4.5999999 1.62
16.128 -4.605 1.587
16.107 -4.5869999 1.552
16.09 -4.573 1.517
16.112 -4.5900002 1.4859999
16.110001 -4.5890002 1.4529999
16.108 -4.5869999 1.42
16.129 -4.6040001 1.3890001
16.132 -4.6059999 1.3559999
16.125999 -4.6009998 1.322
16.146999 -4.6170001 1.291
16.169001 -4.6350002 1.26
16.179001 -4.6420002 1.228
16.198999 -4.6589999 1.196
16.18 -4.6430001 1.1619999
16.176001 -4.6389999 1.128
16.173 -4.6360002 1.095
16.179001 -4.6409998 1.062
16.18 -4.6409998 1.029
16.174999 -4.6360002 0.99599999
16.186001 -4.6459999 0.963
16.195999 -4.6529999 0.93099999
16.190001 -4.6479998 0.89700001
16.195 -4.652 0.86500001
16.200001 -4.6550002 0.83200002
16.187 -4.645 0.79799998
16.174 -4.6329999 0.764
16.183001 -4.6399999 0.73199999
16.174999 -4.6329999 0.69800001
16.188999 -4.645 0.66600001
16.198999 -4.652 0.60000002
16.195 -4.6479998 0.56699997
16.188999 -4.6430001 0.53399998
16.195 -4.6479998 0.50099999
16.193001 -4.6459999 0.46799999
16.086 -4.5570002 0.366
16.079 -4.5510001 0.333
16.037001 -4.5170002 0.29899999
16.003 -4.4879999 0.26499999
16.173 -4.6009998 1.823
16.171 -4.599 1.79
16.174 -4.6020002 1.757
16.193001 -4.6170001 1.726
16.186001 -4.6110001 1.692
16.188999 -4.6129999 1.659
16.198 -4.6199999 1.627
16.187 -4.6100001 1.592
16.188999 -4.612 1.559
16.191 -4.6129999 1.526
16.194 -4.6149998 1.493
16.204 -4.6230001 1.461
16.205999 -4.6240001 1.428
16.204 -4.6220002 1.395
16.164 -4.5900002 1.358
16.190001 -4.6100001 1.327
16.191999 -4.6110001 1.294
16.194 -4.612 1.261
16.184 -4.6040001 1.227
16.204 -4.6199999 1.1950001
16.23 -4.6399999 1.164
16.24 -4.6469998 1.132
16.281 -4.6799998 1.102
16.302 -4.697 1.0700001
16.330999 -4.7199998 1.039
16.347 -4.7329998 1.007
16.368 -4.75 0.97500002
16.405001 -4.7800002 0.94400001
16.114 -4.5359998 0.333
16.086 -4.513 0.30000001
16.047001 -4.4809999 0.266
16.028999 -4.4660001 0.233
15.995 -4.4380002 0.2
16.268999 -4.632 1.3660001
16.256001 -4.6209998 1.331
16.250999 -4.6160002 1.298
16.240999 -4.6069999 1.2640001
16.254999 -4.618 1.232
16.261 -4.6220002 1.199
16.254999 -4.6170001 1.165
16.263 -4.6230001 1.132
16.285999 -4.6420002 1.101
16.316999 -4.6659999 1.0700001
16.332001 -4.6789999 1.038
16.357 -4.698 1.006
16.385 -4.7210002 0.97500002
16.414 -4.744 0.94300002
16.450001 -4.7729998 0.912
16.483 -4.7989998 0.88099998
16.118999 -4.4970002 0.26800001
16.076 -4.4619999 0.234
16.046 -4.4369998 0.20100001
16.027 -4.4219999 0.168
16.322001 -4.631 1.303
16.325001 -4.632 1.2690001
16.319 -4.6269999 1.2359999
16.320999 -4.6290002 1.202
16.323 -4.6300001 1.169
16.325001 -4.631 1.136
16.311001 -4.619 1.102
16.316 -4.6230001 1.069
16.356001 -4.6550002 1.038
16.372 -4.6680002 1.006
16.389 -4.6810002 0.97399998
16.408001 -4.6960001 0.94199997
16.436001 -4.7189999 0.91000003
16.457001 -4.7350001 0.87800002
16.493999 -4.7639999 0.847
16.533001 -4.796 0.815
16.101 -4.4400001 0.20200001
16.079 -4.421 0.169
16.059999 -4.4060001 0.13600001
16.007 -4.362 0.103
16.375 -4.6300001 1.239
16.377001 -4.631 1.206
16.375 -4.6290002 1.1720001
16.368999 -4.6240001 1.138
16.367001 -4.6220002 1.105
16.365 -4.6199999 1.071
16.382 -4.6329999 1.039
16.382 -4.6329999 1.006
16.406 -4.652 0.97399998
16.42 -4.6630001 0.94199997
16.448 -4.6849999 0.91000003
16.462999 -4.6960001 0.87699997
16.499001 -4.7249999 0.84600002
16.539 -4.757 0.815
16.563 -4.776 0.78200001
16.569 -4.7810001 0.74900001
16.115 -4.408 0.169
16.1 -4.3959999 0.13699999
16.069 -4.3709998 0.104
16.039 -4.3460002 0.071000002
16.433001 -4.6329999 1.176
16.424 -4.625 1.141
16.424999 -4.6259999 1.108
16.427999 -4.6269999 1.075
16.421 -4.6220002 1.041
16.423 -4.6230001 1.008
16.429001 -4.6269999 0.97500002
16.429001 -4.6269999 0.94099998
16.445999 -4.6409998 0.90899998
16.476 -4.664 0.87699997
16.496 -4.6799998 0.84500003
16.528999 -4.7059999 0.81300002
16.565001 -4.7350001 0.78200001
16.606001 -4.7659998 0.75
16.629999 -4.7849998 0.71799999
16.138 -4.3839998 0.13699999
16.113001 -4.3639998 0.104
16.079 -4.336 0.071000002
16.059999 -4.3200002 0.039000001
16.021 -4.289 0.0060000001
16.474001 -4.6199999 1.1109999
16.488001 -4.631 1.0779999
16.475 -4.6199999 1.044
16.483999 -4.6269999 1.011
16.49 -4.631 0.97799999
16.503 -4.6409998 0.94499999
16.489 -4.6300001 0.91100001
16.49 -4.6300001 0.87699997
16.509001 -4.645 0.84500003
16.532 -4.6630001 0.81300002
16.552999 -4.6799998 0.77999997
16.587999 -4.7080002 0.74800003
16.636 -4.7459998 0.71700001
16.657 -4.7620001 0.68400002
16.719999 -4.8119998 0.62
16.132999 -4.336 0.071999997
16.1 -4.3099999 0.039000001
16.077 -4.2909999 0.0070000002
16.552 -4.6389999 1.048
16.540001 -4.6290002 1.0140001
16.549 -4.6360002 0.98100001
16.547001 -4.6339998 0.94700003
16.549 -4.6350002 0.91299999
16.542 -4.6290002 0.87900001
16.551001 -4.6360002 0.84600002
16.561001 -4.6430001 0.81300002
16.566 -4.6469998 0.77999997
16.587 -4.6630001 0.74800003
16.634001 -4.7010002 0.71600002
16.655001 -4.717 0.68400002
16.712 -4.7620001 0.61900002
16.743 -4.7859998 0.58600003
16.764999 -4.8039999 0.55299997
16.121 -4.2839999 0.0070000002
16.601999 -4.6360002 0.98299998
16.610001 -4.6420002 0.94999999
16.608 -4.6399999 0.91600001
16.610001 -4.6409998 0.88300002
16.611 -4.6420002 0.84899998
16.613001 -4.6420002 0.81599998
16.606001 -4.6360002 0.78200001
16.612 -4.6399999 0.74800003
16.628 -4.6529999 0.71499997
16.656 -4.6750002 0.68300003
16.712999 -4.7189999 0.61799997
16.738001 -4.7389998 0.58499998
16.773001 -4.7659998 0.55299997
16.802 -4.789 0.51999998
16.847 -4.8239999 0.48699999
15.949 -4.099 2.9860001
15.956 -4.1040001 2.954
15.965 -4.1110001 2.9230001
15.976 -4.1199999 2.892
16.658001 -4.6360002 0.91799998
16.667999 -4.6430001 0.88499999
16.671 -4.645 0.852
16.672001 -4.6459999 0.81800002
16.662001 -4.6370001 0.78399998
16.674999 -4.6469998 0.75099999
16.684 -4.6539998 0.71700001
16.677 -4.6479998 0.68300003
16.715 -4.677 0.61799997
16.743 -4.6999998 0.58499998
16.764 -4.7160001 0.55199999
16.806999 -4.75 0.51999998
16.836 -4.7719998 0.48699999
16.879999 -4.8070002 0.454
16.896 -4.8189998 0.41999999
15.949 -4.0580001 2.9820001
15.97 -4.0739999 2.9530001
15.983 -4.085 2.9230001
15.997 -4.0949998 2.8929999
16.021 -4.1129999 2.8640001
16.729 -4.6490002 0.85399997
16.719999 -4.6420002 0.81999999
16.725 -4.6459999 0.78600001
16.726 -4.6459999 0.75300002
16.724001 -4.6440001 0.71899998
16.729 -4.6469998 0.685
16.726999 -4.645 0.61799997
16.750999 -4.664 0.58499998
16.780001 -4.6869998 0.55199999
16.812 -4.711 0.51899999
16.833 -4.7270002 0.486
16.872999 -4.7589998 0.45300001
16.906 -4.7839999 0.41999999
16.948 -4.8169999 0.38699999
15.958 -4.0240002 2.98
15.98 -4.0409999 2.951
15.994 -4.052 2.921
16.032 -4.0809999 2.8959999
16.073999 -4.1139998 2.872
16.108999 -4.1409998 2.845
16.125 -4.1529999 2.8150001
16.785 -4.6500001 0.78899997
16.791 -4.6539998 0.755
16.782 -4.6469998 0.72100002
16.781 -4.6459999 0.68699998
16.788 -4.6500001 0.62
16.799999 -4.6589999 0.58600003
16.782 -4.6440001 0.55199999
16.806999 -4.6630001 0.51899999
16.844999 -4.6919999 0.486
16.875 -4.7150002 0.45300001
16.884001 -4.7220001 0.419
16.927999 -4.757 0.38699999
16.966999 -4.7870002 0.35299999
17.007 -4.8179998 0.31999999
15.985 -4.0050001 2.9820001
16.002001 -4.0170002 2.9519999
16.040001 -4.0469999 2.927
16.070999 -4.0710001 2.9000001
16.128 -4.1149998 2.8789999
16.131001 -4.118 2.846
16.851 -4.658 0.72399998
16.844999 -4.652 0.68900001
16.841999 -4.6500001 0.62099999
16.843 -4.6500001 0.588
16.844999 -4.651 0.55400002
16.85 -4.6550002 0.51999998
16.847 -4.652 0.486
16.882999 -4.6789999 0.45300001
16.9 -4.691 0.41999999
16.934 -4.7179999 0.38600001
16.962 -4.7389998 0.35299999
16.981001 -4.7540002 0.31900001
17.028999 -4.7909999 0.28600001
17.066999 -4.8210001 0.25299999
16.040001 -4.006 2.9560001
16.070999 -4.0300002 2.9300001
16.106001 -4.0580001 2.904
16.907 -4.6570001 0.62400001
16.919001 -4.6659999 0.58999997
16.898001 -4.6490002 0.55500001
16.91 -4.6589999 0.52200001
16.907 -4.6560001 0.48800001
16.909 -4.6560001 0.454
16.917999 -4.6620002 0.41999999
16.934 -4.6750002 0.38600001
16.966999 -4.6999998 0.35299999
17.006001 -4.73 0.31999999
17.023001 -4.743 0.28600001
17.055 -4.7680001 0.252
17.107 -4.8080001 0.219
17.136999 -4.8309999 0.185
16.075001 -3.993 2.96
16.111 -4.0209999 2.934
16.962 -4.6560001 0.59100002
16.985001 -4.6739998 0.55800003
16.975 -4.665 0.52399999
16.968 -4.6599998 0.48899999
16.981001 -4.6700001 0.456
16.981001 -4.6700001 0.42199999
16.971001 -4.6609998 0.38699999
16.983999 -4.671 0.35299999
17 -4.6830001 0.31999999
17.035999 -4.71 0.28600001
17.052999 -4.7220001 0.252
17.1 -4.7589998 0.219
17.121 -4.7740002 0.185
17.166 -4.809 0.15099999
17.198 -4.8340001 0.117
17.027 -4.6620002 0.52499998
17.035 -4.6680002 0.491
17.033001 -4.665 0.45699999
17.030001 -4.6630001 0.42300001
17.031 -4.664 0.389
17.032 -4.664 0.354
17.041 -4.6700001 0.31999999
17.041 -4.6700001 0.28600001
17.07 -4.6919999 0.252
17.086 -4.704 0.21799999
17.121 -4.7309999 0.185
17.160999 -4.7620001 0.15099999
17.184999 -4.7800002 0.117
17.225 -4.8099999 0.082000002
17.253 -4.8319998 0.048
17.098 -4.6729999 0.45899999
17.09 -4.6659999 0.42399999
17.087 -4.6630001 0.38999999
17.093 -4.6669998 0.35600001
17.105 -4.677 0.322
17.094 -4.6680002 0.287
17.101999 -4.6739998 0.25299999
17.106001 -4.6760001 0.219
17.127001 -4.6919999 0.185
17.163 -4.7199998 0.15099999
17.191 -4.7410002 0.117
17.215 -4.7589998 0.082999997
17.254999 -4.789 0.048
17.291 -4.8169999 0.014
17.143999 -4.664 0.391
17.159 -4.6760001 0.35699999
17.153999 -4.671 0.32300001
17.162001 -4.677 0.289
17.146999 -4.665 0.25400001
17.16 -4.6739998 0.22
17.16 -4.6739998 0.185
17.169001 -4.6799998 0.15099999
17.184999 -4.6929998 0.117
17.219999 -4.7189999 0.082999997
17.24 -4.7340002 0.048
17.275999 -4.7620001 0.014
17.221001 -4.678 0.324
17.228001 -4.6830001 0.28999999
17.219 -4.6750002 0.255
17.228001 -4.6820002 0.221
17.224001 -4.6789999 0.186
17.237 -4.6880002 0.152
17.225 -4.6789999 0.117
17.240999 -4.691 0.082999997
17.247999 -4.6960001 0.048999999
17.282 -4.7210002 0.014
17.275999 -4.677 0.25600001
17.267 -4.6700001 0.222
17.277 -4.677 0.18700001
17.282 -4.6789999 0.153
17.285999 -4.6820002 0.118
17.282 -4.6789999 0.083999999
17.283001 -4.6789999 0.048999999
17.299 -4.691 0.015
17.337 -4.6789999 0.18799999
17.344 -4.684 0.154
17.341999 -4.6820002 0.119
17.339001 -4.6789999 0.083999999
17.355 -4.691 0.050000001
17.347 -4.6849999 0.015
17.414 -4.6939998 0.12
17.412001 -4.6919999 0.085000001
17.415001 -4.6929998 0.050000001
17.419001 -4.6960001 0.016000001
17.479 -4.6999998 0.050999999
17.462 -4.6859999 0.016000001
14.716 -4.5830002 0.046
14.716 -4.6290002 0.046
14.704 -4.6469998 0.021
14.746 -4.6300001 0.071000002
14.734 -4.6469998 0.046
14.73 -4.652 0.02
14.776 -4.6300001 0.096000001
14.772 -4.6350002 0.071000002
14.768 -4.6420002 0.046
14.764 -4.6469998 0.02
14.794 -4.6479998 0.12
14.798 -4.6420002 0.094999999
14.799 -4.6409998 0.07
14.799 -4.6399999 0.045000002
14.79 -4.6529999 0.02
14.838 -4.6269999 0.17
14.823 -4.6500001 0.145
14.825 -4.6459999 0.12
14.825 -4.6459999 0.094999999
14.822 -4.6500001 0.07
14.815 -4.6599998 0.045000002
14.819 -4.6539998 0.02
14.863 -4.6350002 0.19499999
14.858 -4.6420002 0.17
14.862 -4.6350002 0.145
14.851 -4.652 0.12
14.857 -4.6430001 0.094999999
14.855 -4.645 0.07
14.855 -4.6440001 0.045000002
14.848 -4.6550002 0.02
14.9 -4.6240001 0.244
14.897 -4.6290002 0.219
14.89 -4.6399999 0.19400001
14.881 -4.6529999 0.17
14.892 -4.6360002 0.145
14.892 -4.6350002 0.12
14.892 -4.6350002 0.094999999
14.879 -4.6529999 0.07
14.883 -4.6469998 0.045000002
14.881 -4.6500001 0.02
14.92 -4.6409998 0.26899999
14.937 -4.6129999 0.244
14.928 -4.6269999 0.219
14.922 -4.6360002 0.19400001
14.923 -4.6329999 0.169
14.925 -4.6300001 0.145
14.91 -4.652 0.12
14.909 -4.6539998 0.094999999
14.913 -4.6469998 0.07
14.909 -4.6529999 0.045000002
14.904 -4.6599998 0.02
14.959 -4.6259999 0.31799999
14.959 -4.6259999 0.29300001
14.956 -4.631 0.26800001
14.955 -4.631 0.244
14.952 -4.6350002 0.219
14.942 -4.651 0.19400001
14.956 -4.6290002 0.169
14.949 -4.6389999 0.14399999
14.952 -4.6350002 0.12
14.941 -4.651 0.094999999
14.946 -4.6420002 0.07
14.93 -4.6659999 0.045000002
14.927 -4.6700001 0.02
14.992 -4.6220002 0.34200001
14.983 -4.6360002 0.31799999
14.986 -4.6300001 0.29300001
14.984 -4.6329999 0.26800001
14.987 -4.6279998 0.243
14.983 -4.6339998 0.21799999
14.977 -4.6430001 0.19400001
14.978 -4.6399999 0.169
14.97 -4.6529999 0.14399999
14.971 -4.6500001 0.119
14.967 -4.6560001 0.094999999
14.965 -4.658 0.07
14.954 -4.6750002 0.045000002
14.956 -4.6719999 0.02
15.021 -4.6230001 0.366
15.014 -4.6339998 0.34200001
15.012 -4.6370001 0.317
15.022 -4.6199999 0.292
15.018 -4.6269999 0.26800001
15.011 -4.6370001 0.243
15.015 -4.6290002 0.21799999
15.01 -4.6370001 0.193
15.011 -4.6339998 0.169
15.007 -4.6409998 0.14399999
14.999 -4.6539998 0.119
14.99 -4.6659999 0.093999997
14.988 -4.6680002 0.07
14.982 -4.677 0.045000002
14.972 -4.6919999 0.02
15.049 -4.6279998 0.41499999
15.047 -4.6300001 0.391
15.059 -4.6100001 0.366
15.044 -4.6329999 0.34099999
15.047 -4.6290002 0.317
15.038 -4.6420002 0.292
15.038 -4.6420002 0.26699999
15.032 -4.651 0.243
15.043 -4.6339998 0.21799999
15.031 -4.651 0.193
15.034 -4.6469998 0.169
15.034 -4.6469998 0.14399999
15.025 -4.6599998 0.119
15.031 -4.651 0.093999997
15.014 -4.6760001 0.068999998
14.983 -4.723 0.044
14.945 -4.7820001 0.018999999
15.076 -4.632 0.44
15.084 -4.619 0.41499999
15.077 -4.6290002 0.38999999
15.084 -4.6170001 0.36500001
15.073 -4.6339998 0.34099999
15.078 -4.6269999 0.31600001
15.07 -4.6389999 0.292
15.072 -4.6350002 0.26699999
15.072 -4.6339998 0.242
15.074 -4.631 0.21799999
15.066 -4.6430001 0.193
15.063 -4.6469998 0.168
15.046 -4.6729999 0.14399999
15.041 -4.6810002 0.119
15.037 -4.6859999 0.093999997
14.995 -4.75 0.068999998
14.955 -4.8119998 0.044
15.119 -4.6100001 0.48800001
15.122 -4.6059999 0.463
15.112 -4.6209998 0.43900001
15.11 -4.6240001 0.414
15.1 -4.6389999 0.38999999
15.106 -4.6290002 0.36500001
15.099 -4.6399999 0.34099999
15.107 -4.6269999 0.31600001
15.09 -4.652 0.292
15.093 -4.6479998 0.26699999
15.093 -4.6479998 0.242
15.09 -4.652 0.21799999
15.081 -4.665 0.193
15.074 -4.6750002 0.168
15.075 -4.6729999 0.14300001
15.054 -4.7059999 0.119
15.015 -4.7670002 0.093999997
14.978 -4.8239999 0.068999998
15.148 -4.6110001 0.51200002
15.136 -4.6290002 0.48800001
15.141 -4.6209998 0.463
15.133 -4.6339998 0.43900001
15.135 -4.631 0.414
15.138 -4.625 0.389
15.137 -4.6269999 0.36500001
15.134 -4.631 0.34
15.122 -4.6479998 0.31600001
15.122 -4.6490002 0.29100001
15.119 -4.6529999 0.26699999
15.124 -4.645 0.242
15.11 -4.6659999 0.21699999
15.111 -4.665 0.193
15.107 -4.6700001 0.168
15.071 -4.7259998 0.14300001
15.032 -4.7859998 0.119
15.18 -4.6069999 0.53600001
15.171 -4.6220002 0.51200002
15.157 -4.6430001 0.48800001
15.173 -4.618 0.46200001
15.17 -4.6220002 0.43799999
15.164 -4.631 0.414
15.162 -4.6339998 0.389
15.155 -4.6440001 0.36500001
15.152 -4.6490002 0.34
15.151 -4.6490002 0.315
15.151 -4.6490002 0.29100001
15.153 -4.645 0.266
15.142 -4.6620002 0.242
15.133 -4.6760001 0.21699999
15.126 -4.6869998 0.193
15.084 -4.7519999 0.168
15.056 -4.7950001 0.14300001
15.184 -4.6469998 0.56099999
15.204 -4.6139998 0.53500003
15.202 -4.618 0.51099998
15.196 -4.6259999 0.48699999
15.196 -4.6259999 0.46200001
15.19 -4.6339998 0.43799999
15.187 -4.6399999 0.41299999
15.192 -4.632 0.389
15.18 -4.6490002 0.36399999
15.196 -4.6240001 0.33899999
15.185 -4.6409998 0.315
15.185 -4.6409998 0.28999999
15.178 -4.651 0.266
15.169 -4.664 0.241
15.145 -4.7020001 0.21699999
15.106 -4.7639999 0.193
15.09 -4.7880001 0.168
15.23 -4.6209998 0.60900003
15.225 -4.6279998 0.58399999
15.242 -4.6009998 0.55900002
15.231 -4.618 0.53500003
15.23 -4.618 0.50999999
15.214 -4.6430001 0.48699999
15.212 -4.6459999 0.46200001
15.221 -4.632 0.43700001
15.221 -4.632 0.41299999
15.218 -4.6360002 0.38800001
15.215 -4.6409998 0.36399999
15.212 -4.645 0.33899999
15.195 -4.671 0.315
15.211 -4.6459999 0.28999999
15.197 -4.6669998 0.266
15.165 -4.717 0.242
15.121 -4.7859998 0.21699999
15.265 -4.612 0.63200003
15.26 -4.619 0.60799998
15.259 -4.6199999 0.583
15.254 -4.6269999 0.55900002
15.254 -4.6269999 0.53500003
15.25 -4.6329999 0.50999999
15.247 -4.6370001 0.486
15.247 -4.6370001 0.461
15.25 -4.6329999 0.43700001
15.242 -4.645 0.412
15.244 -4.6409998 0.38800001
15.235 -4.6539998 0.36399999
15.233 -4.6570001 0.33899999
15.23 -4.6620002 0.315
15.223 -4.6729999 0.28999999
15.174 -4.75 0.266
15.146 -4.7940001 0.242
15.125 -4.8280001 0.21799999
15.293 -4.6139998 0.63099998
15.289 -4.6199999 0.60699999
15.284 -4.6259999 0.583
15.291 -4.6160002 0.55800003
15.28 -4.631 0.53399998
15.283 -4.6279998 0.509
15.279 -4.632 0.48500001
15.275 -4.6399999 0.461
15.273 -4.6420002 0.43599999
15.265 -4.6539998 0.412
15.265 -4.6539998 0.38800001
15.269 -4.6469998 0.36300001
15.253 -4.6719999 0.33899999
15.23 -4.7069998 0.315
15.195 -4.763 0.29100001
15.327 -4.6069999 0.704
15.324 -4.6110001 0.67900002
15.32 -4.6170001 0.63099998
15.319 -4.6170001 0.60600001
15.314 -4.625 0.58200002
15.308 -4.6339998 0.55800003
15.309 -4.632 0.53299999
15.309 -4.632 0.509
15.311 -4.6279998 0.484
15.302 -4.6420002 0.46000001
15.291 -4.6589999 0.43599999
15.286 -4.6669998 0.412
15.29 -4.6599998 0.38699999
15.275 -4.6830001 0.36300001
15.246 -4.73 0.33899999
15.204 -4.7969999 0.31600001
15.2 -4.802 0.266
15.353 -4.6100001 0.75199997
15.356 -4.605 0.727
15.345 -4.6240001 0.704
15.352 -4.6110001 0.67900002
15.349 -4.6149998 0.63
15.351 -4.612 0.60500002
15.344 -4.6220002 0.58099997
15.341 -4.6279998 0.55699998
15.335 -4.6360002 0.53299999
15.335 -4.6370001 0.509
15.334 -4.6370001 0.484
15.328 -4.6459999 0.46000001
15.317 -4.6630001 0.43599999
15.319 -4.6599998 0.41100001
15.305 -4.6820002 0.38699999
15.262 -4.7509999 0.36399999
15.224 -4.8109999 0.34099999
15.383 -4.6090002 0.77499998
15.387 -4.6009998 0.75099999
15.378 -4.6160002 0.727
15.38 -4.6129999 0.70200002
15.374 -4.6199999 0.62900001
15.365 -4.6360002 0.60600001
15.362 -4.6399999 0.58099997
15.364 -4.6370001 0.55699998
15.363 -4.6370001 0.53200001
15.36 -4.6420002 0.50800002
15.36 -4.6420002 0.484
15.352 -4.6550002 0.46000001
15.339 -4.6750002 0.43599999
15.32 -4.7049999 0.412
15.276 -4.776 0.389
15.253 -4.8130002 0.36500001
15.417 -4.6020002 0.79799998
15.416 -4.6030002 0.77399999
15.415 -4.6040001 0.75
15.412 -4.6090002 0.72600001
15.404 -4.6220002 0.70200002
15.397 -4.631 0.62900001
15.399 -4.6269999 0.60500002
15.393 -4.6360002 0.58099997
15.387 -4.645 0.55599999
15.387 -4.6459999 0.53200001
15.389 -4.6420002 0.50800002
15.384 -4.6490002 0.48300001
15.364 -4.6820002 0.46000001
15.33 -4.7360001 0.43700001
15.287 -4.8049998 0.414
15.413 -4.6560001 0.84899998
15.447 -4.6009998 0.82200003
15.445 -4.6030002 0.79799998
15.431 -4.625 0.77399999
15.44 -4.6100001 0.74900001
15.43 -4.6259999 0.72600001
15.432 -4.6220002 0.70099998
15.432 -4.6230001 0.62800002
15.418 -4.645 0.60500002
15.425 -4.632 0.57999998
15.419 -4.6409998 0.55599999
15.424 -4.6329999 0.53100002
15.41 -4.6560001 0.50700003
15.391 -4.6859999 0.484
15.345 -4.7610002 0.46200001
15.322 -4.7979999 0.43799999
15.474 -4.6040001 0.87
15.476 -4.5999999 0.84500003
15.475 -4.6009998 0.82099998
15.477 -4.5960002 0.796
15.473 -4.6030002 0.77200001
15.457 -4.6290002 0.74900001
15.464 -4.6170001 0.72399998
15.459 -4.6240001 0.69999999
15.452 -4.6350002 0.62800002
15.443 -4.6479998 0.60399997
15.451 -4.6360002 0.579
15.442 -4.6500001 0.55500001
15.43 -4.6690001 0.53200001
15.4 -4.717 0.509
15.356 -4.7880001 0.486
15.342 -4.8109999 0.46200001
15.505 -4.5999999 0.89300001
15.502 -4.6040001 0.86900002
15.497 -4.612 0.84500003
15.496 -4.6129999 0.82099998
15.502 -4.6020002 0.796
15.494 -4.6149998 0.77200001
15.487 -4.6269999 0.74800003
15.486 -4.6279998 0.72399998
15.483 -4.6329999 0.69999999
15.478 -4.6389999 0.62699997
15.472 -4.6479998 0.60299999
15.466 -4.658 0.579
15.447 -4.6890001 0.55599999
15.402 -4.763 0.53399998
15.378 -4.802 0.51099998
15.528 -4.6079998 0.84399998
15.517 -4.6259999 0.81999999
15.521 -4.618 0.796
15.519 -4.6220002 0.77200001
15.515 -4.6269999 0.74800003
15.515 -4.6279998 0.72299999
15.509 -4.6370001 0.699
15.501 -4.6479998 0.62699997
15.499 -4.652 0.60299999
15.474 -4.6919999 0.57999998
15.426 -4.7709999 0.55800003
15.549 -4.619 0.81900001
15.547 -4.6209998 0.79500002
15.539 -4.6339998 0.77100003
15.543 -4.6269999 0.74699998
15.535 -4.6399999 0.72299999
15.534 -4.6409998 0.699
15.516 -4.6690001 0.62699997
15.482 -4.7259998 0.60500002
15.435 -4.802 0.58399999
15.968 -4.0100002 2.9809999
15.957 -4.0289998 2.9619999
15.956 -4.0289998 2.938
15.57 -4.631 0.76999998
15.564 -4.6399999 0.74699998
15.559 -4.6490002 0.72299999
15.562 -4.6430001 0.69800001
15.495 -4.7519999 0.63
15.995 -4.0100002 2.9779999
15.982 -4.0320001 2.9590001
15.974 -4.0450001 2.938
15.962 -4.0640001 2.9189999
15.94 -4.0999999 2.904
15.599 -4.6300001 0.76899999
15.586 -4.651 0.74599999
15.589 -4.645 0.722
15.583 -4.6550002 0.69800001
16.021 -4.0120001 2.9749999
16.006001 -4.0370002 2.957
16.007999 -4.033 2.9319999
15.979 -4.0799999 2.9200001
15.971 -4.0939999 2.9000001
15.957 -4.118 2.881
15.611 -4.6560001 0.72100002
15.56 -4.7410002 0.70099998
16.047001 -4.013 2.9719999
16.035 -4.033 2.9530001
16.028999 -4.0419998 2.931
16.018999 -4.0580001 2.9119999
16 -4.0900002 2.895
15.987 -4.1129999 2.8770001
15.978 -4.1259999 2.8559999
15.958 -4.1599998 2.8399999
15.957 -4.1609998 2.816
16.087 -3.9909999 2.987
16.077999 -4.006 2.967
16.066999 -4.0229998 2.948
16.049999 -4.052 2.931
16.042 -4.066 2.9100001
16.032 -4.0830002 2.891
16.018 -4.105 2.872
16.004 -4.1290002 2.8540001
15.99 -4.152 2.835
15.983 -4.164 2.8139999
15.961 -4.1999998 2.7980001
15.952 -4.2150002 2.777
16.110001 -3.997 2.9860001
16.106001 -4.0040002 2.9630001
16.087 -4.0349998 2.947
16.084999 -4.039 2.925
16.068001 -4.0679998 2.908
16.056 -4.086 2.888
16.044001 -4.1069999 2.869
16.024 -4.1409998 2.8529999
16.02 -4.1469998 2.8310001
16.011 -4.1620002 2.8099999
15.993 -4.191 2.793
15.978 -4.217 2.7750001
15.958 -4.25 2.7579999
15.943 -4.2750001 2.74
16.113001 -4.0380001 2.9690001
16.115 -4.0349998 2.944
16.108 -4.046 2.9230001
16.098 -4.0619998 2.9030001
16.084 -4.086 2.885
16.076 -4.0999999 2.8640001
16.049 -4.1440001 2.8510001
16.028999 -4.178 2.835
16.027 -4.1820002 2.812
16.018999 -4.1939998 2.7909999
16.002001 -4.223 2.7739999
15.997 -4.2319999 2.7509999
15.979 -4.2620001 2.734
15.964 -4.2870002 2.7160001
15.951 -4.309 2.6960001
15.943 -4.3210001 2.675
16.121 -4.072 2.974
16.118999 -4.0739999 2.951
16.107 -4.0939999 2.9319999
16.106001 -4.0960002 2.908
16.115999 -4.0780001 2.8800001
16.096001 -4.112 2.8640001
16.089001 -4.1240001 2.8429999
16.075001 -4.1469998 2.825
16.063 -4.1669998 2.8050001
16.042 -4.2020001 2.79
16.031 -4.2210002 2.77
16.027 -4.2270002 2.747
16.006001 -4.263 2.7309999
15.991 -4.289 2.7130001
15.979 -4.3080001 2.6930001
15.966 -4.3309999 2.674
15.948 -4.3610001 2.6559999
15.94 -4.3740001 2.635
16.118999 -4.1209998 2.984
16.124001 -4.112 2.957
16.118 -4.1209998 2.9349999
16.110001 -4.1360002 2.915
16.111 -4.132 2.8900001
16.111 -4.1329999 2.8659999
16.104 -4.1440001 2.845
16.101999 -4.1479998 2.822
16.091 -4.1659999 2.802
16.07 -4.2010002 2.7869999
16.055 -4.2259998 2.7679999
16.041 -4.25 2.75
16.035 -4.2600002 2.7279999
16.021999 -4.2820001 2.7090001
16.004 -4.3130002 2.691
15.994 -4.3280001 2.671
15.981 -4.3499999 2.651
15.971 -4.3670001 2.631
15.95 -4.402 2.6140001
15.937 -4.4260001 2.5940001
15.973 -4.3130002 0.044
15.972 -4.3140001 0.021
16.121 -4.1630001 2.967
16.124001 -4.158 2.9419999
16.115 -4.1739998 2.921
16.122 -4.1599998 2.8940001
16.117001 -4.1680002 2.872
16.112 -4.1760001 2.8499999
16.107 -4.1849999 2.8280001
16.115 -4.1700001 2.8
16.098 -4.198 2.783
16.08 -4.23 2.766
16.075001 -4.2379999 2.744
16.061001 -4.2610002 2.7249999
16.049999 -4.2810001 2.7060001
16.037001 -4.303 2.6860001
16.02 -4.3309999 2.668
16.000999 -4.3639998 2.651
16.000999 -4.362 2.6270001
15.985 -4.3909998 2.609
15.964 -4.4260001 2.592
15.947 -4.4549999 2.5739999
15.942 -4.4629998 2.5510001
15.944 -4.4590001 2.526
15.964 -4.3759999 0.114
15.97 -4.3649998 0.090999998
15.973 -4.3600001 0.067000002
15.99 -4.329 0.044
15.987 -4.335 0.021
16.115999 -4.2179999 2.977
16.113001 -4.223 2.9549999
16.115 -4.2189999 2.9289999
16.122 -4.2059999 2.902
16.125 -4.2010002 2.8770001
16.115 -4.2189999 2.8570001
16.114 -4.2179999 2.8329999
16.115 -4.2160001 2.8080001
16.114 -4.2189999 2.7850001
16.115 -4.2160001 2.76
16.099001 -4.243 2.7420001
16.083 -4.27 2.724
16.083 -4.27 2.7
16.068001 -4.2950001 2.6819999
16.047001 -4.3319998 2.6659999
16.035999 -4.3499999 2.6459999
16.021999 -4.3740001 2.6270001
16.007999 -4.3979998 2.6070001
15.993 -4.4229999 2.5880001
15.969 -4.4640002 2.573
15.968 -4.4650002 2.549
15.951 -4.4949999 2.53
15.949 -4.4970002 2.506
15.934 -4.5229998 2.487
15.966 -4.4200001 0.185
15.967 -4.4190001 0.161
15.972 -4.4099998 0.138
15.989 -4.3800001 0.114
15.989 -4.3790002 0.090999998
16.004 -4.3530002 0.067000002
16.014999 -4.3340001 0.044
16.028 -4.3099999 0.021
16.110001 -4.2750001 2.964
16.112 -4.2719998 2.9389999
16.117001 -4.2620001 2.9130001
16.120001 -4.257 2.8870001
16.113001 -4.2690001 2.8659999
16.115999 -4.263 2.8399999
16.118999 -4.256 2.8150001
16.117001 -4.2600002 2.7909999
16.113001 -4.2670002 2.7690001
16.113001 -4.2649999 2.7449999
16.115 -4.2620001 2.72
16.101999 -4.2839999 2.701
16.083 -4.316 2.684
16.075001 -4.3309999 2.6630001
16.058001 -4.3579998 2.645
16.045 -4.381 2.625
16.035999 -4.3969998 2.605
16.021999 -4.4200001 2.585
16.009001 -4.4429998 2.566
15.993 -4.4689999 2.5469999
15.984 -4.4850001 2.526
15.968 -4.5120001 2.507
15.955 -4.5339999 2.487
15.943 -4.5549998 2.467
15.931 -4.5760002 2.4460001
15.88 -4.6430001 1.4119999
15.958 -4.4840002 0.25600001
15.966 -4.4689999 0.23199999
15.975 -4.454 0.208
15.988 -4.4310002 0.185
15.99 -4.4260001 0.161
16.002001 -4.4050002 0.138
16.013 -4.3860002 0.114
16.02 -4.3720002 0.090999998
16.039 -4.3400002 0.067000002
16.049 -4.3210001 0.044
16.056999 -4.3070002 0.021
16.1 -4.3400002 2.928
16.112 -4.3169999 2.8989999
16.115999 -4.3109999 2.8729999
16.125999 -4.2919998 2.8440001
16.118 -4.3049998 2.823
16.117001 -4.3070002 2.8
16.118 -4.3049998 2.7750001
16.122 -4.2969999 2.7490001
16.115 -4.309 2.727
16.115 -4.3080001 2.7030001
16.108 -4.3210001 2.6819999
16.096001 -4.3400002 2.6619999
16.091 -4.3499999 2.6400001
16.079 -4.369 2.6199999
16.063 -4.3959999 2.602
16.049 -4.421 2.5829999
16.042 -4.4330001 2.5610001
16.027 -4.4580002 2.5420001
16.01 -4.487 2.5239999
15.999 -4.5050001 2.503
15.976 -4.5469999 2.487
15.968 -4.559 2.4649999
15.963 -4.5679998 2.4419999
15.943 -4.6020002 2.424
15.939 -4.6079998 2.401
15.939 -4.6090002 2.3770001
15.947 -4.5949998 2.3499999
15.947 -4.5929999 2.325
15.938 -4.6090002 2.303
15.938 -4.6079998 2.279
15.942 -4.6009998 2.253
15.951 -4.5840001 2.2260001
15.939 -4.6059999 2.2049999
15.946 -4.592 2.178
15.935 -4.6110001 2.1570001
15.945 -4.5939999 2.1300001
15.939 -4.6020002 2.0829999
15.935 -4.6090002 2.0109999
15.91 -4.6389999 1.41
15.938 -4.5900002 1.38
15.944 -4.5780001 1.355
15.95 -4.5469999 0.32800001
15.966 -4.5180001 0.303
15.97 -4.5110002 0.28
15.974 -4.5029998 0.25600001
15.991 -4.473 0.23199999
15.998 -4.461 0.208
16.009001 -4.441 0.184
16.023001 -4.415 0.161
16.033001 -4.3979998 0.13699999
16.042 -4.382 0.114
16.049 -4.369 0.090000004
16.056999 -4.3540001 0.067000002
16.072001 -4.3280001 0.044
16.080999 -4.3109999 0.021
15.992 -4.5770001 2.983
15.989 -4.5819998 2.9590001
16.087 -4.408 2.8929999
16.108 -4.3730001 2.8599999
16.115 -4.3600001 2.8329999
16.125 -4.342 2.8039999
16.120001 -4.3499999 2.7820001
16.118999 -4.3499999 2.7579999
16.117001 -4.3540001 2.7349999
16.110001 -4.3660002 2.7130001
16.118 -4.3509998 2.6860001
16.107 -4.3699999 2.6659999
16.112 -4.3610001 2.6400001
16.099001 -4.3829999 2.6199999
16.094999 -4.3889999 2.5969999
16.073999 -4.4250002 2.5810001
16.063999 -4.4439998 2.5599999
16.054001 -4.46 2.54
16.035999 -4.4910002 2.5220001
16.028 -4.5050001 2.5
16.011999 -4.5320001 2.4809999
16.006001 -4.5419998 2.4590001
15.979 -4.5900002 2.444
15.967 -4.6100001 2.4230001
15.974 -4.5960002 2.3959999
15.972 -4.5999999 2.372
15.967 -4.6069999 2.349
15.975 -4.5929999 2.322
15.975 -4.592 2.2980001
15.964 -4.612 2.277
15.969 -4.6030002 2.2509999
15.967 -4.6059999 2.227
15.967 -4.605 2.2030001
15.97 -4.599 2.177
15.958 -4.619 2.1559999
15.961 -4.6139998 2.131
15.968 -4.5999999 2.1040001
15.957 -4.619 2.0829999
15.961 -4.6129999 2.0580001
15.961 -4.612 2.033
15.956 -4.619 2.01
15.958 -4.6160002 1.9859999
15.952 -4.6259999 1.9630001
15.962 -4.6069999 1.936
15.957 -4.6149998 1.913
15.95 -4.6269999 1.89
15.958 -4.6129999 1.864
15.951 -4.625 1.841
15.959 -4.6100001 1.8150001
15.961 -4.6059999 1.79
15.957 -4.6129999 1.767
15.948 -4.6269999 1.745
15.955 -4.6149998 1.719
15.959 -4.6090002 1.694
15.953 -4.6170001 1.671
15.951 -4.6209998 1.647
15.949 -4.6230001 1.623
15.952 -4.6170001 1.599
15.954 -4.6139998 1.574
15.946 -4.6269999 1.551
15.951 -4.618 1.526
15.945 -4.6269999 1.503
15.947 -4.6230001 1.479
15.95 -4.618 1.454
15.96 -4.5999999 1.428
15.966 -4.5890002 1.403
15.969 -4.5840001 1.378
15.965 -4.5900002 1.355
15.963 -4.5929999 1.331
15.965 -4.5700002 0.35100001
15.977 -4.5479999 0.32699999
15.991 -4.5229998 0.303
15.999 -4.5079999 0.27900001
16 -4.506 0.255
16.011999 -4.4829998 0.23199999
16.030001 -4.4520001 0.208
16.037001 -4.4400001 0.184
16.049 -4.4169998 0.161
16.058001 -4.402 0.13699999
16.059999 -4.3969998 0.114
16.079 -4.3629999 0.090000004
16.094 -4.3369999 0.067000002
16.094999 -4.3340001 0.044
16.108999 -4.3099999 0.021
16.01 -4.5929999 2.984
16.023001 -4.5700002 2.9530001
16.014 -4.585 2.9319999
16.016001 -4.5819998 2.9070001
16.028 -4.5599999 2.8770001
16.107 -4.4190001 2.8199999
16.117001 -4.401 2.7909999
16.114 -4.4070001 2.7679999
16.113001 -4.4070001 2.744
16.127001 -4.381 2.714
16.117001 -4.4000001 2.694
16.114 -4.4029999 2.6700001
16.106001 -4.4180002 2.6489999
16.104 -4.421 2.6259999
16.105 -4.4180002 2.6010001
16.101 -4.4239998 2.5780001
16.094 -4.4369998 2.556
16.087999 -4.447 2.5339999
16.070999 -4.4770002 2.516
16.047001 -4.5180001 2.5
16.033001 -4.5430002 2.4809999
16.028999 -4.5489998 2.4579999
16.009001 -4.5840001 2.4400001
16.01 -4.5799999 2.415
15.997 -4.6040001 2.395
16 -4.598 2.3699999
16 -4.598 2.345
16.003 -4.592 2.3199999
15.999 -4.5999999 2.2969999
16.000999 -4.5939999 2.2709999
15.992 -4.6100001 2.25
15.992 -4.6090002 2.2249999
15.99 -4.612 2.2019999
15.988 -4.6149998 2.178
15.989 -4.6139998 2.1530001
15.989 -4.6129999 2.1289999
15.987 -4.6149998 2.105
15.988 -4.6139998 2.0799999
15.977 -4.632 2.059
15.984 -4.6199999 2.033
15.987 -4.6139998 2.007
15.99 -4.6079998 1.982
15.981 -4.6240001 1.96
15.984 -4.618 1.9349999
15.982 -4.6199999 1.911
15.983 -4.618 1.887
15.984 -4.6160002 1.862
15.984 -4.6149998 1.8380001
15.981 -4.6199999 1.8150001
15.983 -4.6149998 1.79
15.977 -4.6259999 1.767
15.983 -4.6160002 1.7410001
15.974 -4.631 1.719
15.982 -4.6160002 1.693
15.982 -4.6149998 1.669
15.979 -4.6209998 1.646
15.979 -4.619 1.6210001
15.978 -4.6209998 1.597
15.976 -4.6240001 1.574
15.975 -4.6259999 1.55
15.976 -4.6230001 1.525
15.97 -4.6329999 1.502
15.975 -4.6230001 1.477
15.979 -4.6160002 1.452
15.992 -4.592 1.426
15.992 -4.592 1.402
15.998 -4.5799999 1.376
15.992 -4.5910001 1.354
15.984 -4.6040001 1.331
15.983 -4.605 1.307
16.004 -4.5479999 0.32699999
16.016001 -4.527 0.303
16.024 -4.5120001 0.27900001
16.035999 -4.4899998 0.255
16.049999 -4.4650002 0.23100001
16.055 -4.4549999 0.207
16.063999 -4.4400001 0.184
16.073999 -4.4219999 0.16
16.091 -4.3920002 0.13699999
16.087 -4.3990002 0.113
16.101999 -4.3709998 0.090000004
16.120001 -4.3390002 0.067000002
16.125 -4.329 0.044
16.122999 -4.3319998 0.02
16.052 -4.5689998 2.974
16.045 -4.5809999 2.9530001
16.040001 -4.5900002 2.9300001
16.044001 -4.5819998 2.904
16.052999 -4.5650001 2.875
16.042 -4.5840001 2.855
16.044001 -4.5799999 2.829
16.097 -4.4850001 2.783
16.108999 -4.4640002 2.7539999
16.115 -4.4530001 2.727
16.108999 -4.4619999 2.7049999
16.120001 -4.4429998 2.6760001
16.117001 -4.448 2.6530001
16.108999 -4.46 2.631
16.105 -4.467 2.608
16.104 -4.4689999 2.585
16.106001 -4.4640002 2.559
16.1 -4.4749999 2.5369999
16.098 -4.4780002 2.5139999
16.087999 -4.4949999 2.493
16.066999 -4.5310001 2.4760001
16.054001 -4.5539999 2.4560001
16.035999 -4.586 2.438
16.025 -4.6040001 2.4170001
16.033001 -4.5900002 2.3900001
16.028 -4.598 2.3670001
16.025999 -4.6009998 2.3429999
16.031 -4.5910001 2.3169999
16.024 -4.6030002 2.2950001
16.027 -4.598 2.27
16.032 -4.5879998 2.244
16.018 -4.612 2.224
16.025999 -4.598 2.197
16.018999 -4.6100001 2.175
16.018999 -4.6079998 2.1500001
16.021999 -4.6030002 2.125
16.023001 -4.6009998 2.0999999
16.021 -4.6040001 2.076
16.021 -4.6030002 2.052
16.017 -4.6100001 2.029
16.018 -4.6079998 2.0039999
16.025 -4.5949998 1.978
16.018999 -4.605 1.956
16.021 -4.5999999 1.931
16.02 -4.6030002 1.9069999
16.023001 -4.5970001 1.882
16.018999 -4.6030002 1.859
16.014 -4.6100001 1.835
16.018 -4.6040001 1.8099999
16.018 -4.6020002 1.786
16.014999 -4.6090002 1.763
16.021 -4.599 1.737
16.016001 -4.605 1.714
16.021999 -4.5949998 1.689
16.007999 -4.618 1.668
16.025999 -4.586 1.6390001
16.018 -4.6009998 1.617
16.009001 -4.6160002 1.595
16.011999 -4.6100001 1.5700001
16.011 -4.612 1.546
16.018 -4.5970001 1.521
16.011 -4.6110001 1.498
16.021 -4.5929999 1.472
16.030001 -4.5749998 1.446
16.030001 -4.5760002 1.4220001
16.024 -4.5840001 1.399
16.018 -4.5949998 1.376
16.02 -4.592 1.352
16.021 -4.5890002 1.3279999
16.009001 -4.6090002 1.306
16.007999 -4.6100001 1.2819999
16.002001 -4.6209998 1.2589999
16.045 -4.5250001 0.30199999
16.052 -4.5110002 0.278
16.065001 -4.4889998 0.255
16.079 -4.4640002 0.23100001
16.086 -4.4499998 0.207
16.094999 -4.4330001 0.184
16.099001 -4.427 0.16
16.125999 -4.3779998 0.13699999
16.118 -4.3920002 0.113
16.122 -4.3829999 0.090000004
16.125 -4.3779998 0.067000002
16.135 -4.3600001 0.043000001
16.118999 -4.388 0.02
16.077 -4.573 2.9719999
16.083 -4.5630002 2.9449999
16.066999 -4.5910001 2.927
16.077 -4.5710001 2.898
16.077999 -4.5700002 2.8729999
16.073999 -4.5760002 2.8499999
16.073999 -4.5760002 2.825
16.066999 -4.5869999 2.803
16.070999 -4.5799999 2.777
16.093 -4.539 2.743
16.111 -4.507 2.7119999
16.113001 -4.5040002 2.687
16.121 -4.4879999 2.6589999
16.118999 -4.4910002 2.635
16.111 -4.5050001 2.6140001
16.108999 -4.5079999 2.5899999
16.114 -4.4990001 2.5639999
16.107 -4.5110002 2.5420001
16.101 -4.52 2.52
16.094999 -4.5310001 2.4979999
16.094 -4.5310001 2.473
16.084 -4.5489998 2.4530001
16.076 -4.5619998 2.431
16.058001 -4.5939999 2.4130001
16.051001 -4.6059999 2.391
16.056 -4.5960002 2.3640001
16.058001 -4.5939999 2.3399999
16.051001 -4.6059999 2.3169999
16.052 -4.6020002 2.2920001
16.049999 -4.605 2.2690001
16.049 -4.6059999 2.2449999
16.052 -4.6030002 2.22
16.054001 -4.5970001 2.194
16.052 -4.5999999 2.171
16.049999 -4.6030002 2.1470001
16.048 -4.6059999 2.1229999
16.058001 -4.5879998 2.096
16.054001 -4.5960002 2.073
16.049999 -4.6020002 2.05
16.049999 -4.6009998 2.0250001
16.051001 -4.5999999 2.0009999
16.044001 -4.6100001 1.978
16.052 -4.5970001 1.952
16.049999 -4.599 1.928
16.056 -4.5890002 1.903
16.056 -4.5869999 1.878
16.045 -4.6069999 1.857
16.049999 -4.5960002 1.831
16.041 -4.612 1.8099999
16.045 -4.6059999 1.785
16.049999 -4.5949998 1.7589999
16.046 -4.6020002 1.7359999
16.042 -4.6079998 1.7130001
16.045 -4.6020002 1.688
16.044001 -4.6040001 1.664
16.040001 -4.6110001 1.641
16.041 -4.6090002 1.6160001
16.044001 -4.6020002 1.592
16.051001 -4.5890002 1.566
16.039 -4.6110001 1.545
16.041 -4.6069999 1.52
16.049 -4.5910001 1.494
16.049 -4.5910001 1.47
16.045 -4.5970001 1.447
16.046 -4.5949998 1.423
16.044001 -4.598 1.399
16.047001 -4.592 1.375
16.037001 -4.6090002 1.353
16.035999 -4.6110001 1.329
16.037001 -4.6079998 1.304
16.031 -4.618 1.2819999
16.030001 -4.6199999 1.258
16.018999 -4.638 1.2359999
16.080999 -4.5079999 0.278
16.087999 -4.4959998 0.25400001
16.098 -4.4770002 0.23100001
16.111 -4.454 0.207
16.110001 -4.454 0.183
16.115 -4.447 0.16
16.125 -4.427 0.13600001
16.118 -4.4390001 0.113
16.136 -4.4060001 0.090000004
16.132 -4.414 0.066
16.129 -4.4190001 0.043000001
16.135 -4.4060001 0.018999999
16.101 -4.579 2.971
16.101999 -4.5770001 2.9460001
16.103001 -4.5749998 2.921
16.1 -4.5799999 2.8970001
16.091 -4.5939999 2.8759999
16.097 -4.5840001 2.849
16.101 -4.5770001 2.823
16.098 -4.5819998 2.799
16.099001 -4.579 2.7739999
16.089001 -4.5949998 2.753
16.093 -4.5890002 2.727
16.091 -4.5900002 2.7030001
16.106001 -4.5640001 2.6730001
16.110001 -4.5570002 2.6470001
16.113001 -4.5510001 2.6210001
16.108 -4.5580001 2.598
16.111 -4.553 2.573
16.112 -4.5510001 2.5480001
16.108 -4.5580001 2.5250001
16.103001 -4.5650001 2.5020001
16.098 -4.573 2.4790001
16.099001 -4.5710001 2.454
16.094 -4.5799999 2.4319999
16.080999 -4.6030002 2.4119999
16.073 -4.6160002 2.3900001
16.073999 -4.6129999 2.365
16.076 -4.6090002 2.3399999
16.070999 -4.6170001 2.3169999
16.073999 -4.612 2.2920001
16.073 -4.6129999 2.2679999
16.079 -4.6030002 2.2420001
16.072001 -4.6139998 2.2190001
16.076 -4.6069999 2.194
16.073999 -4.6100001 2.1700001
16.077 -4.6040001 2.145
16.075001 -4.6069999 2.1210001
16.073999 -4.6079998 2.0969999
16.073999 -4.6069999 2.073
16.077 -4.6009998 2.0480001
16.075001 -4.6040001 2.0239999
16.068001 -4.6160002 2.0009999
16.069 -4.6139998 1.977
16.075001 -4.6040001 1.951
16.063 -4.6240001 1.9299999
16.066 -4.618 1.905
16.073999 -4.6030002 1.8789999
16.07 -4.6100001 1.8559999
16.076 -4.599 1.83
16.077 -4.5960002 1.8049999
16.065001 -4.6170001 1.784
16.061001 -4.6240001 1.761
16.075001 -4.598 1.734
16.068001 -4.6110001 1.711
16.072001 -4.6030002 1.686
16.07 -4.6069999 1.663
16.083 -4.5830002 1.635
16.066 -4.6129999 1.615
16.07 -4.605 1.59
16.075001 -4.5960002 1.5650001
16.070999 -4.6020002 1.5420001
16.079 -4.5869999 1.516
16.080999 -4.5830002 1.492
16.077 -4.5890002 1.469
16.070999 -4.5999999 1.446
16.072001 -4.5970001 1.4220001
16.077999 -4.586 1.397
16.059999 -4.618 1.376
16.063 -4.612 1.351
16.062 -4.6129999 1.3279999
16.056 -4.6240001 1.3049999
16.052 -4.6300001 1.281
16.056 -4.6230001 1.257
16.024 -4.678 1.238
16.027 -4.6739998 1.214
16.114 -4.4959998 0.23
16.112 -4.5 0.207
16.111 -4.5009999 0.183
16.118999 -4.4860001 0.16
16.122 -4.4809999 0.13600001
16.127001 -4.4710002 0.113
16.128 -4.4679999 0.089000002
16.129999 -4.4650002 0.066
16.129999 -4.4640002 0.041999999
16.136 -4.4530001 0.018999999
16.134001 -4.5689998 2.9649999
16.131001 -4.573 2.9419999
16.118999 -4.5939999 2.9219999
16.125999 -4.5809999 2.8940001
16.125999 -4.5809999 2.8699999
16.134001 -4.566 2.842
16.127001 -4.5780001 2.8199999
16.124001 -4.5840001 2.7969999
16.118 -4.5929999 2.7739999
16.131001 -4.5700002 2.7449999
16.118999 -4.5900002 2.7249999
16.120001 -4.5879998 2.7
16.118 -4.5910001 2.6760001
16.113001 -4.599 2.6530001
16.124001 -4.579 2.6240001
16.118 -4.5890002 2.602
16.118 -4.5890002 2.5769999
16.115 -4.5939999 2.5539999
16.118 -4.5869999 2.5280001
16.115999 -4.592 2.5050001
16.115 -4.5929999 2.4809999
16.104 -4.6110001 2.46
16.108 -4.6040001 2.434
16.115999 -4.5890002 2.4070001
16.110001 -4.599 2.3840001
16.108999 -4.5999999 2.3599999
16.103001 -4.6100001 2.3380001
16.106001 -4.605 2.313
16.110001 -4.5970001 2.2869999
16.110001 -4.5960002 2.2620001
16.106001 -4.6030002 2.2390001
16.101999 -4.6090002 2.2160001
16.098 -4.6149998 2.1930001
16.103001 -4.6069999 2.1670001
16.105 -4.6020002 2.142
16.101999 -4.6079998 2.119
16.108999 -4.5929999 2.092
16.1 -4.6090002 2.0710001
16.097 -4.6149998 2.0480001
16.101999 -4.605 2.0220001
16.098 -4.6129999 1.999
16.103001 -4.6040001 1.973
16.093 -4.6199999 1.952
16.101 -4.605 1.925
16.1 -4.6079998 1.902
16.094999 -4.6149998 1.878
16.086 -4.6300001 1.857
16.096001 -4.6129999 1.83
16.084999 -4.631 1.808
16.086 -4.6290002 1.784
16.083 -4.6339998 1.761
16.080999 -4.638 1.737
16.089001 -4.6230001 1.711
16.083 -4.6329999 1.688
16.080999 -4.6360002 1.665
16.080999 -4.6360002 1.641
16.073 -4.6490002 1.618
16.082001 -4.632 1.592
16.101 -4.598 1.564
16.108 -4.585 1.538
16.110001 -4.5799999 1.5140001
16.105 -4.5890002 1.4910001
16.093 -4.6100001 1.469
16.104 -4.5900002 1.443
16.107 -4.5830002 1.419
16.089001 -4.6149998 1.398
16.09 -4.6129999 1.374
16.084 -4.6230001 1.351
16.09 -4.612 1.326
16.077 -4.6350002 1.304
16.073 -4.6409998 1.281
16.038 -4.7030001 1.263
16.073 -4.6399999 1.233
16.073999 -4.6370001 1.209
16.077999 -4.6300001 1.184
16.129999 -4.5149999 0.183
16.124001 -4.526 0.16
16.127001 -4.5190001 0.13600001
16.125 -4.5229998 0.113
16.125999 -4.5209999 0.089000002
16.125999 -4.52 0.064999998
16.120001 -4.5310001 0.041999999
16.127001 -4.5170002 0.017999999
16.157 -4.5760002 2.964
16.152 -4.585 2.9419999
16.152 -4.585 2.9170001
16.152 -4.5840001 2.892
16.155001 -4.5780001 2.8659999
16.149 -4.5879998 2.8440001
16.142 -4.6009998 2.822
16.15 -4.586 2.7939999
16.164 -4.5599999 2.7639999
16.153 -4.579 2.744
16.146 -4.5910001 2.7219999
16.153 -4.5770001 2.694
16.148001 -4.586 2.6719999
16.146999 -4.5869999 2.648
16.146 -4.5890002 2.6240001
16.143999 -4.592 2.5999999
16.141001 -4.5960002 2.576
16.146 -4.5869999 2.55
16.139 -4.599 2.5280001
16.139 -4.598 2.503
16.139 -4.5970001 2.4790001
16.135 -4.605 2.4560001
16.132999 -4.6090002 2.4319999
16.138 -4.599 2.4059999
16.132 -4.6090002 2.3840001
16.136 -4.6009998 2.358
16.136 -4.5999999 2.3340001
16.135 -4.6020002 2.3099999
16.134001 -4.6030002 2.286
16.129 -4.6110001 2.263
16.132 -4.605 2.237
16.135 -4.5999999 2.2119999
16.131001 -4.605 2.1889999
16.125999 -4.6139998 2.1659999
16.125999 -4.6129999 2.142
16.128 -4.6100001 2.1170001
16.132 -4.6020002 2.092
16.129999 -4.605 2.0680001
16.124001 -4.6160002 2.046
16.129 -4.6059999 2.02
16.125 -4.6129999 1.997
16.132 -4.598 1.97
16.118999 -4.6230001 1.95
16.118999 -4.6209998 1.926
16.120001 -4.619 1.901
16.128 -4.605 1.875
16.122999 -4.6129999 1.852
16.114 -4.6300001 1.831
16.118 -4.6209998 1.8049999
16.117001 -4.6230001 1.781
16.121 -4.6139998 1.756
16.108999 -4.6370001 1.735
16.129 -4.5999999 1.706
16.114 -4.6259999 1.686
16.118 -4.618 1.661
16.114 -4.6240001 1.637
16.117001 -4.619 1.613
16.108999 -4.6329999 1.59
16.121 -4.6110001 1.564
16.111 -4.6279998 1.5420001
16.120001 -4.6110001 1.516
16.122 -4.6079998 1.492
16.121 -4.6090002 1.4680001
16.115 -4.619 1.4450001
16.108999 -4.6290002 1.4220001
16.127001 -4.5960002 1.395
16.114 -4.618 1.373
16.110001 -4.6259999 1.35
16.108999 -4.6259999 1.326
16.096001 -4.6490002 1.304
16.066999 -4.7010002 1.286
16.094 -4.6529999 1.257
16.094 -4.652 1.233
16.1 -4.6399999 1.2079999
16.104 -4.6329999 1.183
16.107 -4.6259999 1.159
16.097 -4.645 1.137
16.125999 -4.5710001 0.16
16.125999 -4.5700002 0.13600001
16.131001 -4.5609999 0.112
16.122999 -4.5739999 0.089000002
16.125999 -4.5689998 0.064999998
16.106001 -4.6030002 0.041000001
16.059999 -4.6849999 0.017000001
16.181999 -4.5809999 2.987
16.177999 -4.5890002 2.964
16.176001 -4.5900002 2.9400001
16.183001 -4.5780001 2.9119999
16.184 -4.5760002 2.8870001
16.18 -4.5809999 2.8640001
16.176001 -4.5890002 2.8410001
16.190001 -4.5640001 2.8110001
16.177999 -4.5840001 2.7909999
16.174 -4.5910001 2.7679999
16.177999 -4.5830002 2.7420001
16.181999 -4.5749998 2.7160001
16.176001 -4.585 2.6930001
16.172001 -4.5929999 2.671
16.176001 -4.5840001 2.6440001
16.162001 -4.6090002 2.625
16.174 -4.5879998 2.596
16.174999 -4.5840001 2.5710001
16.162001 -4.6069999 2.5510001
16.18 -4.5739999 2.52
16.164 -4.6030002 2.5020001
16.167 -4.5960002 2.4760001
16.167 -4.5960002 2.4519999
16.167999 -4.5929999 2.427
16.166 -4.5960002 2.4030001
16.159 -4.6100001 2.382
16.166 -4.5960002 2.355
16.164 -4.598 2.3310001
16.157 -4.612 2.309
16.162001 -4.6020002 2.283
16.157 -4.6090002 2.26
16.155001 -4.6129999 2.2360001
16.148001 -4.6240001 2.214
16.160999 -4.6009998 2.1860001
16.164 -4.5960002 2.161
16.152 -4.6160002 2.1400001
16.160999 -4.5999999 2.1129999
16.158001 -4.605 2.0899999
16.159 -4.6009998 2.0650001
16.146999 -4.6230001 2.0450001
16.152 -4.6129999 2.0190001
