ply
format ascii 1.0
comment PCL generated
element vertex 659
property float x
property float y
property float z
element camera 1
property float view_px
property float view_py
property float view_pz
property float x_axisx
property float x_axisy
property float x_axisz
property float y_axisx
property float y_axisy
property float y_axisz
property float z_axisx
property float z_axisy
property float z_axisz
property float focal
property float scalex
property float scaley
property float centerx
property float centery
property int viewportx
property int viewporty
property float k1
property float k2
end_header
-4.2365713 -4.4110003 0.009142857
-4.1481466 -4.4196768 0.022000002
-4.2520595 -4.3532557 0.048333324
-4.1245847 -4.3569183 0.04897562
-4.0962501 -4.31425 0.034499999
-4.2575331 -4.2483001 0.055700004
-4.1106777 -4.2695808 0.065741934
-4.0534382 -4.2382684 0.045349598
-3.9968002 -4.2050004 0.046399999
-4.2322249 -4.1444254 0.056149997
-4.1862497 -4.14675 0.052000001
-4.0087132 -4.1600981 0.050831679
-3.9957931 -4.1402059 0.046285722
-3.2233045 -4.1616087 0.073869571
-3.1488254 -4.1728716 0.051511627
-3.040117 -4.1608329 0.056841664
-4.2241573 -4.0499606 0.049058836
-4.1845555 -4.0324445 0.063888885
-4.0306988 -4.0274177 0.049874987
-3.9926326 -4.0500889 0.049311996
-3.2322679 -4.0300713 0.066053577
-3.150691 -4.0180488 0.048487812
-3.0388408 -4.0292592 0.056361981
-5.2354374 -3.9054375 0.041437499
-5.1537614 -3.9283488 0.044478253
-5.0429664 -3.9381664 0.051377773
-4.9908185 -3.9173636 0.082909085
-4.2175436 -3.9453256 0.051217385
-4.1848574 -3.9628572 0.032285716
-4.0581198 -3.9482172 0.048383463
-3.9790001 -3.9995 0.072999999
-3.2539999 -3.997 0.085000001
-3.1355 -3.9980001 0.070500001
-3.06375 -3.9970002 0.087000005
-5.3084998 -3.8852501 0.0092500001
-5.2570219 -3.8533909 0.047499999
-5.136539 -3.8073847 0.054384615
-5.0420194 -3.8364148 0.043669812
-4.9839044 -3.8511908 0.077071436
-4.2103877 -3.8561628 0.052367344
-4.1529078 -3.8229303 0.064755812
-4.0564013 -3.8497849 0.048808385
-5.2300596 -3.7711599 0.038879994
-5.1536489 -3.7826102 0.049844172
-5.0754819 -3.7935193 0.06088889
-4.2089996 -3.7758751 0.020499999
-4.1623888 -3.7833149 0.026277781
-4.0619688 -3.790844 0.015156248
-4.2297502 -4.317625 0.112625
-4.1395574 -4.3256745 0.12420931
-4.0900002 -4.3325 0.1035
-4.2531137 -4.2566819 0.14936367
-4.1221452 -4.2639527 0.15575902
-4.0411062 -4.224597 0.14821278
-3.9987781 -4.2155557 0.16033335
-4.2498856 -4.1421595 0.15488636
-4.0115728 -4.1498537 0.14711817
-3.9953997 -4.1452184 0.15278181
-3.3206666 -4.1548333 0.17333335
-3.2497411 -4.1656795 0.15061729
-3.1428268 -4.1582999 0.15580003
-3.0678046 -4.1338139 0.13468626
-4.2300715 -4.0475717 0.15478572
-4.1929998 -4.0630002 0.13
-4.0236111 -4.0305195 0.14512964
-3.9922912 -4.0464411 0.14855915
-3.3230543 -4.0259733 0.17151354
-3.2526073 -4.0133619 0.14707844
-3.1411347 -4.0193667 0.15515491
-3.0660243 -4.045517 0.13345966
-5.212667 -3.9073334 0.10833333
-5.1412854 -3.9191716 0.14522856
-5.046 -3.9496665 0.14541028
-4.9511824 -3.9432905 0.15042724
-4.8882003 -3.9122002 0.19200002
-4.2208552 -3.9466527 0.15715942
-4.1486425 -3.9148571 0.18464285
-4.0589876 -3.9476283 0.15323079
-3.974 -3.9949999 0.161
-3.3272998 -3.9915001 0.17519999
-3.25 -3.9974999 0.14310001
-3.1584001 -3.9962003 0.15090001
-3.0686669 -3.9956665 0.13266668
-5.2113338 -3.8573337 0.10833333
-5.1609716 -3.8450575 0.15017143
-5.0455117 -3.8122001 0.14848891
-4.9500723 -3.8444402 0.14543332
-4.8853531 -3.8575587 0.18323529
-4.2101049 -3.8751583 0.14110528
-4.1528983 -3.870337 0.13814287
-4.0681338 -3.8776276 0.12735821
-5.1401615 -3.7830155 0.13949998
-5.0618448 -3.7919776 0.15517777
-4.2363334 -4.2190833 0.21575001
-4.135437 -4.2280726 0.23459998
-4.0374708 -4.2179036 0.2524097
-3.9911249 -4.2146254 0.24624999
-4.2420425 -4.1543822 0.25178722
-4.1618891 -4.1967783 0.28388891
-4.0108609 -4.1583643 0.25112152
-3.9943852 -4.1358595 0.24889477
-3.4200671 -4.1538672 0.2820667
-3.3507242 -4.1608043 0.25113797
-3.2440944 -4.1574998 0.25516042
-3.1647305 -4.1331 0.23322999
-4.895 -4.0019999 0.236
-4.2364807 -4.0487885 0.2520577
-4.1529999 -4.0066667 0.287
-4.0203547 -4.033463 0.24681722
-3.9907839 -4.0462394 0.24911575
-3.4211051 -4.0333681 0.27589473
-3.3475194 -4.0120268 0.24578662
-3.2411487 -4.0154581 0.25118077
-3.1624599 -4.0441475 0.2404379
-5.1105719 -3.9189999 0.21571429
-5.0513897 -3.9340487 0.25141463
-4.9462852 -3.9626603 0.23941073
-4.8532519 -3.9494438 0.25465187
-4.7919998 -3.9059999 0.292
-4.216784 -3.955786 0.25035447
-4.1507463 -3.9524693 0.24976511
-4.0614772 -3.9744029 0.24211927
-3.9875998 -3.9944005 0.26500002
-3.4179997 -3.9921002 0.28049999
-3.3573101 -3.9943335 0.2554048
-3.2562654 -3.9970887 0.2577647
-3.1761665 -3.9970002 0.23333333
-5.1151819 -3.864182 0.21318182
-5.0484691 -3.8287969 0.25203121
-4.9498129 -3.8226132 0.24847527
-4.8506494 -3.8552623 0.24917169
-4.7920771 -3.8660002 0.2875385
-5.1055999 -3.7902 0.20679998
-5.050271 -3.7918921 0.23702702
-4.9675002 -3.799 0.27675
-4.1253505 -4.2055507 0.34890002
-4.0342703 -4.2157707 0.34932432
-3.994 -4.2208338 0.35766667
-4.2256904 -4.1538572 0.34169051
-4.1699696 -4.193697 0.3501212
-4.0124931 -4.1583819 0.35421184
-3.9943869 -4.135613 0.34812242
-3.5079999 -4.1469998 0.37924999
-3.4485481 -4.1570411 0.35117802
-3.3442209 -4.1529288 0.35639
-3.2623181 -4.1291537 0.33734065
-4.8136668 -4.0053334 0.33300003
-4.761375 -4.0039997 0.3795
-4.2328362 -4.0500984 0.34827864
-4.1228333 -4.0045004 0.37033337
-4.0188189 -4.0250149 0.35419452
-3.9902818 -4.0476575 0.34712982
-3.52005 -4.0376506 0.38215002
-3.4584858 -4.0277715 0.34159997
-3.3408098 -4.0102625 0.35264286
-3.254725 -4.0428267 0.34507141
-5.0188336 -3.9263334 0.32374999
-4.9485784 -3.9487329 0.35053331
-4.8407936 -3.9767761 0.34201726
-4.7598052 -3.9492736 0.35670313
-4.2203217 -3.9765005 0.35219648
-4.1546984 -3.9815361 0.35003251
-4.0538583 -3.9908123 0.34875819
-3.9869199 -3.99436 0.35132
-3.5172224 -3.9908888 0.38544443
-3.4450526 -3.9927096 0.35443416
-3.350816 -3.9931586 0.35297373
-3.2746537 -3.9955003 0.34003851
-5.0153337 -3.8655558 0.32077777
-4.946229 -3.825285 0.34818348
-4.8496633 -3.8395677 0.3470673
-4.7555699 -3.8680246 0.35396922
-5.0100002 -3.8 0.30000001
-4.9730592 -3.7902353 0.34829411
-4.1136665 -4.204134 0.44126672
-4.0318918 -4.2120004 0.44808212
-3.9896367 -4.2140908 0.45272729
-4.2228332 -4.1588097 0.44747618
-4.1612897 -4.1924734 0.45228943
-4.0136032 -4.1566577 0.45281479
-3.9959998 -4.133523 0.44327277
-3.60625 -4.1412501 0.48874998
-3.5411561 -4.1492195 0.45093754
-3.4494872 -4.1539874 0.45052564
-3.365582 -4.1328154 0.44603896
-4.7283502 -4.0072002 0.43205005
-4.6793637 -4.0103641 0.47531822
-4.2261553 -4.0491385 0.44481045
-4.1090002 -4.0095 0.4585
-4.0243998 -4.0324397 0.44538015
-3.9904652 -4.0465822 0.45059693
-3.61025 -4.0267496 0.484
-3.5529573 -4.0222549 0.44680849
-3.466923 -4.0074611 0.45569232
-3.3460364 -4.0459275 0.44914031
-3.2965715 -4.0554285 0.40514287
-4.9241176 -3.938412 0.42370594
-4.8556442 -3.9615211 0.45406255
-4.7354355 -3.974597 0.43306455
-4.6645379 -3.9481359 0.46168268
-4.2210498 -3.9773276 0.44857368
-4.1537218 -3.9790165 0.45073041
-4.0492988 -3.9864292 0.44836444
-3.9878395 -3.9929595 0.45200002
-3.6076667 -3.9826667 0.48833334
-3.5423734 -3.99 0.45743379
-3.4489093 -3.9921002 0.4509393
-3.3609531 -3.9935148 0.44235939
-3.3 -3.9979999 0.41100001
-4.9130869 -3.8440433 0.42104352
-4.8514986 -3.8369484 0.44891229
-4.7536011 -3.8551352 0.44700006
-4.6695328 -3.8767974 0.4540886
-4.5770001 -3.895 0.493
-4.1140003 -4.2020001 0.53149998
-4.0353012 -4.2114792 0.54827392
-3.9960001 -4.2049999 0.51550001
-4.309 -4.1230001 0.53500003
-4.2293653 -4.1504383 0.5490731
-4.1521821 -4.1898179 0.54895449
-4.01476 -4.1597848 0.55014658
-3.9961994 -4.1375093 0.54707277
-3.7019999 -4.1370001 0.58700001
-3.6373749 -4.1447706 0.5587917
-3.5476809 -4.1489081 0.54761338
-3.4519427 -4.1295667 0.54620194
-3.3967998 -4.1130004 0.5126
-4.7020001 -4.0029998 0.53100002
-4.643218 -4.0142183 0.54425448
-4.5780001 -4.0168395 0.57811999
-4.2249389 -4.0456738 0.54720402
-4.0131254 -4.0396504 0.54499996
-3.9911125 -4.0502477 0.54951215
-3.707 -4.0489998 0.55900002
-3.6556828 -4.0392694 0.5463903
-3.5457916 -4.0083337 0.55150008
-3.4415669 -4.0428395 0.55786669
-3.3914075 -4.0527411 0.50944448
-4.826571 -3.9523211 0.53532147
-4.7554169 -3.9781883 0.55599999
-4.6209059 -3.9603765 0.52158487
-4.5682855 -3.949038 0.56676638
-4.4770002 -3.9170001 0.579
-4.221797 -3.9769833 0.54844075
-4.1532936 -3.9781904 0.55009526
-4.0528483 -3.9857416 0.54908031
-3.9904761 -3.9921668 0.55273807
-3.7060001 -3.9960001 0.59399998
-3.6406915 -3.9869168 0.56153584
-3.551285 -3.9877973 0.55027521
-3.459101 -3.9895396 0.54248303
-3.3960001 -3.9965 0.51174998
-4.8234134 -3.8510649 0.52393484
-4.7514911 -3.850347 0.55133909
-4.6528745 -3.8690083 0.54940534
-4.5761142 -3.8854084 0.55999994
-4.1114998 -4.2020001 0.61900002
-4.0273051 -4.2067966 0.65062708
-4.2323575 -4.1489768 0.64942849
-4.1521401 -4.1866593 0.65226007
-4.0173984 -4.1626902 0.64767241
-3.9963148 -4.1340179 0.65403706
-3.7319727 -4.1421666 0.6618889
-3.6520464 -4.1434064 0.6477657
-3.5510919 -4.1308675 0.6520102
-3.4878697 -4.1155653 0.62060869
-4.7010002 -4.0019999 0.611
-4.6362925 -4.0102091 0.643875
-4.5441489 -4.0222974 0.64418906
-4.4837728 -4.0229998 0.68254548
-4.2250223 -4.044909 0.64934105
-4.1110001 -4.0025001 0.66250002
-4.0091624 -4.0507574 0.65929735
-3.9913869 -4.0476584 0.64751166
-3.8610001 -4.0440001 0.65100002
-3.7452066 -4.0395169 0.65310341
-3.6525717 -4.0145717 0.64771432
-3.5336902 -4.044261 0.66326809
-3.4871402 -4.0531006 0.61696005
-4.7322383 -3.9533095 0.64033347
-4.6794643 -3.9737859 0.66775
-4.5275731 -3.9493146 0.62725914
-4.4711227 -3.933913 0.6705088
-4.302 -3.9719999 0.69400001
-4.2211709 -3.972981 0.64835846
-4.1531429 -3.9753048 0.65002561
-4.0503535 -3.9818945 0.64965487
-3.9883497 -3.9902008 0.65377492
-3.7345726 -3.9826314 0.6608088
-3.6528997 -3.9824364 0.64979815
-3.5546055 -3.984467 0.64577973
-3.4902501 -3.9925001 0.61362505
-4.7273331 -3.8599477 0.6313684
-4.6501999 -3.8640256 0.65069556
-4.554512 -3.8820229 0.65242225
-4.4874544 -3.8925457 0.67054546
-4.118 -4.2010002 0.755
-4.038435 -4.2045217 0.74541306
-3.9949999 -4.2065001 0.74549997
-4.2355132 -4.1447182 0.74848711
-4.1531658 -4.1853132 0.75245833
-4.0208116 -4.1648197 0.74972987
-3.9954126 -4.1382823 0.74345642
-3.8259528 -4.1313806 0.76495242
-3.7500341 -4.1400514 0.74963802
-3.6484609 -4.1299543 0.75046074
-3.583905 -4.1173334 0.72171426
-4.6207147 -4.0072856 0.73314279
-4.5525994 -4.0216222 0.74977785
-4.4493051 -4.0389128 0.74760872
-4.3810835 -4.0248337 0.78474998
-4.230834 -4.0564003 0.74729997
-4.0145316 -4.0457439 0.74444675
-3.9887981 -4.0494127 0.75139445
-3.8403335 -4.0323749 0.75041664
-3.7534001 -4.0274005 0.73579997
-3.6230357 -4.048512 0.77016652
-3.5812433 -4.0516572 0.72415709
-4.6474767 -3.9493632 0.74506831
-4.5456252 -3.9220002 0.75749999
-4.4360123 -3.9295063 0.73885876
-4.3784227 -3.9395998 0.77626675
-4.2179151 -3.9671493 0.74497861
-4.1501222 -3.9709671 0.75033605
-4.0499911 -3.9808621 0.74919653
-3.9881303 -3.9907827 0.74408698
-3.8333154 -3.978807 0.76473677
-3.7509837 -3.9790578 0.7499916
-3.6503029 -3.9806585 0.74915153
-3.5817239 -3.9848619 0.71713781
-4.6314001 -3.8684566 0.73437148
-4.5519996 -3.8787549 0.75089616
-4.46176 -3.8919997 0.75601995
-4.0420756 -4.2052751 0.8389501
-4.2386756 -4.143775 0.85162497
-4.1554675 -4.1839361 0.85072333
-4.0270548 -4.1643019 0.85608602
-3.9781156 -4.1285005 0.84357703
-3.8465538 -4.1315179 0.85196418
-3.7483137 -4.1277151 0.85299987
-3.6742353 -4.1167355 0.82273537
-4.5362501 -4.0177183 0.84018749
-4.4536738 -4.0374417 0.85255814
-4.3449326 -4.0365229 0.84159088
-4.2443466 -4.056808 0.86157691
-4.1160002 -4.0019999 0.81599998
-4.0162268 -4.0538635 0.84127283
-3.9811373 -4.049274 0.83838332
-3.8755996 -4.0232 0.81300002
-3.714509 -4.0504904 0.87986779
-3.6725106 -4.0523238 0.83336294
-4.6046004 -3.9554002 0.80460006
-4.552865 -3.9455259 0.84961015
-4.4355907 -3.9110909 0.84181815
-4.3452663 -3.932528 0.84763628
-4.2460575 -3.9601922 0.8572309
-4.1498785 -3.9674206 0.85016817
-4.0525713 -3.9777138 0.85044754
-3.9581828 -3.9820731 0.86505443
-3.8504126 -3.9734213 0.85163748
-3.7474966 -3.9747434 0.85482478
-3.6764681 -3.9813194 0.82542545
-4.6040001 -3.8800001 0.80400002
-4.5382762 -3.8791735 0.83750731
-4.453352 -3.8890679 0.84829712
-4.3898573 -3.8965714 0.85785723
-4.0324621 -4.2058854 0.94665384
-4.2344995 -4.1461053 0.9548158
-4.153635 -4.1816921 0.94780767
-4.0290861 -4.1669917 0.94940943
-3.9488115 -4.1257358 0.95266026
-3.8472798 -4.122529 0.94929415
-3.7659001 -4.1147342 0.92719996
-4.5009999 -4.02 0.912
-4.4486771 -4.0261931 0.94022572
-4.3475299 -4.0539412 0.9517647
-4.2473531 -4.0644116 0.94652951
-4.0432501 -4.0275002 0.92250001
-3.987 -4.0535002 0.90925002
-3.8124449 -4.0560555 0.98599988
-3.7630887 -4.0511527 0.94380277
-4.508182 -3.962091 0.91563636
-4.4479308 -3.9334865 0.95537496
-4.3461061 -3.9184382 0.94990295
-4.2520814 -3.9444516 0.95013338
-4.1500502 -3.9659142 0.94780332
-4.0520978 -3.9744916 0.95014292
-3.9497721 -3.9696932 0.94840366
-3.8457639 -3.9681573 0.95156693
-3.7721283 -3.9758601 0.93943024
-4.5122499 -3.8880002 0.90525001
-4.445271 -3.8912547 0.93859327
-4.3813338 -3.8971999 0.93573338
-4.0246878 -4.2043748 1.05
-4.2321858 -4.1466861 1.049185
-4.1493258 -4.179739 1.0476956
-4.0312433 -4.1688876 1.0502335
-3.949297 -4.1175942 1.05125
-3.8693433 -4.1139059 1.0313437
-4.4083338 -4.0156665 1.0083334
-4.3565927 -4.0297413 1.0528519
-4.2538333 -4.0728326 1.0513889
-4.0703335 -4.0136671 1.0305002
-3.8499508 -4.0504384 1.0476439
-4.4090004 -3.9579999 1.0140909
-4.347765 -3.9279034 1.0472957
-4.249609 -3.9322519 1.0485826
-4.1503081 -3.9587147 1.0494145
-4.0489998 -3.9671464 1.0498627
-3.9461887 -3.9637017 1.0498462
-3.8602688 -3.9710772 1.0398957
-4.4054999 -3.8935001 1.0115
-4.3701115 -3.8953333 1.0403334
-4.028873 -4.1670094 1.1501111
-3.9681158 -4.1198268 1.1422883
-3.9000001 -4.105 1.101
-4.3196669 -4.0201669 1.1195002
-4.2548499 -4.0558004 1.1550499
-4.0076671 -4.0929999 1.1916666
-3.9393795 -4.0494914 1.1535162
-3.893667 -4.0524673 1.1051334
-4.3145719 -3.9445236 1.112381
-4.2527084 -3.9353945 1.1477258
-4.1515841 -3.9471588 1.1456289
-4.0476842 -3.9528713 1.1497948
-3.9522276 -3.9661202 1.1441842
-3.8924999 -3.9808335 1.1035
-4.2653332 -3.8933334 1.115
-4.184 -3.8970001 1.117
-3.9962859 -4.1316433 1.2410002
-4.2327809 -4.0506363 1.2509273
-4.0090737 -4.0583973 1.258118
-3.9926507 -4.0417948 1.2490962
-4.2239518 -3.957963 1.2465854
-4.1480865 -3.9492788 1.2475961
-4.0465069 -3.9603987 1.2507142
-3.9917178 -3.9753702 1.2412609
-4.1521492 -3.9574964 1.35208
-4.0494967 -3.9712632 1.3491126
-3.9909387 -3.9821634 1.3523673
-3.9957345 -3.9810333 1.550667
-4.0443063 -3.970211 1.6521099
-3.9942496 -3.9804442 1.64475
-4.0100603 -4.0540338 1.7490524
-3.9971218 -4.0382123 1.7476666
-4.2286 -3.9524536 1.7517869
-4.1515145 -3.9495449 1.7482181
-4.0389433 -3.9699905 1.7489341
-3.9943674 -3.9805336 1.7488331
-3.9995 -4.1335001 1.8385
-4.0122266 -4.0511289 1.8486663
-3.9988 -4.0311003 1.8478998
-4.2289882 -3.9512253 1.8486376
-4.1475677 -3.9475117 1.8470446
-4.0372334 -3.9676216 1.8517102
-3.9959521 -3.9725721 1.8320476
-4.2407179 -4.1388488 1.9524149
-4.1517258 -4.1590586 1.9480784
-4.0289264 -4.1500807 1.949123
-4.244082 -4.0526333 1.9453468
-4.0150151 -4.0491738 1.9493263
-4 -4.0605001 1.9330001
-4.2294216 -3.9516983 1.9503132
-4.1501245 -3.9466701 1.9474545
-4.0358419 -3.9660354 1.9508216
-3.9956665 -3.9619999 1.9323334
-4.2410927 -4.1355181 2.0474632
-4.1495676 -4.1562943 2.0500982
-4.0291886 -4.1484661 2.0476601
-4.2427821 -4.0489454 2.0496001
-4.0149078 -4.0505624 2.0494158
-3.9965713 -4.0304289 2.044857
-4.2282186 -3.9506402 2.0499103
-4.1499777 -3.9439316 2.0488851
-4.0369854 -3.9646418 2.0489554
-3.9981112 -3.9754443 2.0501111
-4.2407064 -4.1349993 2.1480198
-4.1545882 -4.1539407 2.1481373
-4.0336542 -4.1478839 2.1483061
-4.2493405 -4.050106 2.1514041
-4.0153141 -4.0515757 2.1487982
-3.9980001 -4.0159998 2.1735001
-4.231184 -3.9499879 2.1489885
-4.1481037 -3.941349 2.1487789
-4.0351863 -3.9653444 2.1476908
-3.9977002 -3.9751 2.1500001
-4.2402296 -4.1347294 2.2498958
-4.1508846 -4.1535583 2.2472305
-4.0331869 -4.1463442 2.2494173
-4.2495432 -4.0518475 2.2457612
-4.0164905 -4.0505652 2.25003
-4.2383943 -3.9445734 2.2490001
-4.1442995 -3.9325905 2.24927
-4.0376949 -3.9666438 2.2471013
-3.9953749 -3.9716251 2.2545002
-4.2328334 -3.8896666 2.2878337
-4.156579 -3.8886318 2.2915263
-4.2415557 -4.1340556 2.3425558
-4.1540604 -4.1521397 2.3487396
-4.0357704 -4.1446233 2.350178
-4.2443142 -4.0506291 2.3368282
-4.0200887 -4.0497913 2.3502719
-4.2471433 -3.9504857 2.3391426
-4.1124249 -3.9333036 2.3445156
-4.0359402 -3.9641743 2.3495736
-3.9979999 -3.9633331 2.3436668
-4.2289376 -3.8532925 2.3413384
-4.1374874 -3.8494291 2.3503649
-4.0980554 -3.8639443 2.3663888
-4.2207861 -3.789 2.3898575
-4.1527619 -3.7912381 2.3901906
-4.0964999 -3.7950001 2.388
-4.2382898 -4.137032 2.4497743
-4.1504602 -4.1518111 2.4492166
-4.0353642 -4.1445069 2.4487703
-4.2456188 -4.0514293 2.4464762
-4.0190091 -4.0485153 2.4495697
-4.2368178 -3.9437275 2.4498181
-4.106966 -3.9271374 2.446759
-4.0398526 -3.9614537 2.449537
-3.997 -3.954 2.4170001
-4.2382355 -3.8416469 2.4514115
-4.1066036 -3.84689 2.447794
-4.0967293 -3.8441694 2.450254
-4.2244744 -3.7442365 2.4505932
-4.1370277 -3.7495036 2.4475789
-4.094738 -3.7584519 2.4639997
-4.2225718 -3.6854286 2.4894288
-4.1525259 -3.6891046 2.4886317
-4.2315001 -4.1410389 2.5504231
-4.1533613 -4.148499 2.5491946
-4.0404119 -4.1399574 2.5512278
-4.2512174 -4.0511308 2.5486088
-4.0232434 -4.0501652 2.5499685
-4.2368097 -3.9522855 2.5465238
-4.1228385 -3.9347413 2.5551615
-4.0355616 -3.9628446 2.5504718
-3.9949999 -3.9605 2.5415001
-4.2329288 -3.834286 2.5405717
-4.1124854 -3.8549147 2.540257
-4.0947399 -3.8354201 2.5440431
-4.2331667 -3.7445002 2.551111
-4.1076469 -3.7490001 2.5384409
-4.0919509 -3.7492599 2.5535402
-4.2226763 -3.6494153 2.5442154
-4.1418386 -3.6474307 2.5436499
-4.0898166 -3.655426 2.5640919
-4.2121668 -3.5953336 2.5866668
-4.1426668 -3.5901251 2.5879169
-4.091167 -3.5934999 2.5910001
-4.3130002 -4.1079998 2.6340001
-4.2342257 -4.1365156 2.6584194
-4.1494875 -4.1481218 2.6518052
-4.0400753 -4.1376815 2.649339
-4.256815 -4.0563703 2.658
-4.0254192 -4.0495954 2.6490541
-4.2421875 -3.9568441 2.6608438
-4.1472235 -3.9379201 2.655524
-4.0376744 -3.9604776 2.6486588
-3.9955001 -3.9605 2.6589999
-4.2273998 -3.8174 2.6222
-4.1397858 -3.8303571 2.6240716
-4.0941429 -3.8111432 2.6065717
-4.2220869 -3.7430429 2.6562607
-4.1284623 -3.7556155 2.6579614
-4.0884042 -3.7401745 2.6429689
-4.2228618 -3.6453335 2.6587498
-4.1117063 -3.6567059 2.6458232
-4.0849037 -3.6468644 2.6491685
-4.2205672 -3.5500002 2.6512003
-4.1487484 -3.543349 2.6441031
-4.0849247 -3.5564542 2.6580751
-4.2090001 -3.4896667 2.6853333
-4.1403809 -3.4878097 2.6889997
-4.0857277 -3.4877276 2.6885455
-4.2173338 -4.2036667 2.7910001
-4.1702499 -4.2060003 2.78725
-4.3070002 -4.1589999 2.7950001
-4.2481146 -4.1556392 2.7502465
-4.1537929 -4.166976 2.7519391
-4.0453105 -4.1376233 2.7505112
-4.2636228 -4.0496793 2.7494724
-4.0266619 -4.0531325 2.748389
-4.2386708 -3.9435649 2.7541182
-4.1511192 -3.9353573 2.7507463
-4.0384054 -3.9584851 2.7491019
-4.0739999 -3.8989999 2.7479999
-4.2095003 -3.7216001 2.7149999
-4.1454997 -3.7187002 2.7221
-4.0904446 -3.7104442 2.7151113
-4.2162147 -3.6499765 2.7431431
-4.1390009 -3.6588566 2.7579641
-4.0840101 -3.6439397 2.7402322
-4.2170005 -3.5526254 2.7461457
-4.1533003 -3.5397 2.7514002
-4.0804639 -3.5498214 2.7506933
-4.2150974 -3.4554257 2.7491148
-4.1489296 -3.4445817 2.7428086
-4.082489 -3.4538701 2.758924
-4.2137499 -3.3902502 2.7874999
-4.140758 -3.3902426 2.7888784
-4.0912499 -3.3907502 2.7902501
-4.2386284 -4.2238846 2.8581164
-4.1624918 -4.2242708 2.8589325
-4.3169999 -4.1900001 2.8670001
-4.2702374 -4.1562376 2.8425713
-4.1299171 -4.172101 2.8457167
-4.044517 -4.1360364 2.848882
-4.2644162 -4.0507355 2.8488865
-4.0284996 -4.0480242 2.8484509
-4.2411332 -3.9421225 2.8514779
-4.1542788 -3.9371042 2.8520348
-4.0386415 -3.9589837 2.849158
-4.092 -3.882 2.845
-4.2129998 -3.6140001 2.8269999
-4.1631546 -3.6228464 2.8198464
-4.0872226 -3.6171107 2.8115554
-4.2119164 -3.5456669 2.8385832
-4.1622 -3.5561595 2.8708801
-4.0794373 -3.5444069 2.8414171
-4.2130904 -3.4501631 2.8461633
-4.1672311 -3.4445386 2.849231
-4.0737042 -3.4515221 2.8483655
-4.2113194 -3.3557 2.8565204
-4.152348 -3.3435485 2.8437161
-4.0780497 -3.3565209 2.8540645
-4.2080002 -3.3 2.8970001
-4.14887 -3.288044 2.8900001
-4.0768237 -3.2899997 2.8872936
-4.2210002 -4.3010001 2.994
-4.3113999 -4.2346001 2.9466002
-4.2543178 -4.2590871 2.9517832
-4.1571417 -4.2497778 2.9523535
-4.0935001 -4.2075 2.9790001
-4.3039999 -4.1479998 2.994
-4.2855482 -4.1539669 2.9460001
-4.1267114 -4.1669111 2.9489112
-4.0483589 -4.1344843 2.9502132
-4.3010001 -4.052 2.987
-4.2696419 -4.0497742 2.9486225
-4.0302701 -4.0494499 2.949333
-4.3129997 -3.9643333 2.9666667
-4.2414513 -3.938957 2.9514945
-4.1523571 -3.9320102 2.9482632
-4.0412583 -3.9561701 2.9497128
-4.2084002 -3.5162003 2.9176002
-4.1524444 -3.5212224 2.9223337
-4.0855551 -3.516 2.9143331
-4.2086458 -3.4405484 2.9428711
-4.1686783 -3.4594646 2.9586072
-4.0730925 -3.4423828 2.9421687
-4.2126279 -3.3520198 2.94402
-4.1784005 -3.3494003 2.9480002
-4.0674028 -3.3482776 2.948911
-4.2169275 -3.2672687 2.956439
-4.1508117 -3.2452679 2.9447989
-4.0731215 -3.2542491 2.9554431
-4.137723 -3.1905 2.9895003
-4.0773997 -3.1912003 2.9880667
0 0 0 1 0 0 0 1 0 0 0 1 0 0 0 0 0 659 1 0 0
