ply
format ascii 1.0
comment PCL generated
element vertex 2040
property float x
property float y
property float z
element camera 0
property float view_px
property float view_py
property float view_pz
property float x_axisx
property float x_axisy
property float x_axisz
property float y_axisx
property float y_axisy
property float y_axisz
property float z_axisx
property float z_axisy
property float z_axisz
property float focal
property float scalex
property float scaley
property float centerx
property float centery
property int viewportx
property int viewporty
property float k1
property float k2
end_header
3.579 10.459 2.194
3.592 10.478 2.1989999
3.5899999 10.475 2.1889999
3.592 10.478 2.1819999
3.5940001 10.481 2.175
3.6010001 10.491 2.1730001
3.609 10.502 2.1730001
3.612 10.506 2.1670001
3.619 10.518 2.1659999
3.622 10.521 2.1600001
3.6240001 10.524 2.1530001
3.6259999 10.528 2.1459999
3.622 10.521 2.1329999
3.6340001 10.54 2.1370001
3.628 10.53 2.122
3.6359999 10.542 2.1210001
3.645 10.555 2.122
3.638 10.545 2.1059999
3.6489999 10.561 2.108
3.651 10.564 2.1010001
3.655 10.57 2.096
3.6600001 10.577 2.092
3.661 10.578 2.0840001
3.6619999 10.579 2.076
3.6730001 10.596 2.079
3.6760001 10.6 2.072
3.6730001 10.595 2.0599999
3.6789999 10.604 2.0569999
3.6830001 10.609 2.053
3.687 10.616 2.0480001
3.687 10.615 2.039
3.6960001 10.629 2.039
3.691 10.621 2.0250001
3.6930001 10.624 2.0190001
3.697 10.63 2.0139999
3.688 10.615 1.9960001
3.6949999 10.626 1.994
3.6949999 10.626 1.985
3.691 10.62 1.973
3.6930001 10.622 1.966
3.6960001 10.626 1.959
3.6930001 10.621 1.948
3.698 10.629 1.944
3.6889999 10.616 1.928
3.6849999 10.609 1.915
3.6930001 10.622 1.914
3.698 10.628 1.909
3.694 10.623 1.898
3.687 10.611 1.882
3.6949999 10.624 1.881
3.7 10.631 1.877
3.6930001 10.619 1.862
3.7 10.63 1.86
3.697 10.625 1.849
3.701 10.63 1.8430001
3.7 10.629 1.834
3.6949999 10.621 1.822
3.6919999 10.616 1.8099999
3.701 10.63 1.8099999
3.6960001 10.622 1.7970001
3.6949999 10.62 1.7869999
3.6949999 10.619 1.779
3.6960001 10.62 1.771
3.6949999 10.62 1.763
3.701 10.628 1.7589999
3.697 10.622 1.748
3.691 10.613 1.734
3.7030001 10.631 1.7359999
3.6900001 10.611 1.717
3.694 10.616 1.712
3.7 10.625 1.7079999
3.6989999 10.624 1.7
3.7 10.624 1.692
3.697 10.619 1.681
3.7 10.625 1.676
3.701 10.625 1.6670001
3.7 10.623 1.659
3.691 10.61 1.6440001
3.6930001 10.613 1.637
3.6989999 10.622 1.6339999
3.694 10.614 1.622
3.698 10.62 1.617
3.698 10.618 1.608
3.6889999 10.605 1.5930001
3.6960001 10.615 1.59
3.6949999 10.614 1.582
3.6919999 10.608 1.571
3.6930001 10.611 1.564
3.691 10.607 1.554
3.6960001 10.615 1.55
3.7030001 10.625 1.548
3.7049999 10.628 1.541
3.694 10.61 1.525
3.698 10.617 1.52
3.6989999 10.619 1.513
3.691 10.605 1.499
3.707 10.629 1.502
3.6949999 10.611 1.4859999
3.701 10.62 1.482
3.6900001 10.602 1.466
3.6960001 10.612 1.4630001
3.687 10.598 1.449
3.694 10.609 1.446
3.698 10.615 1.441
3.698 10.614 1.433
3.7 10.617 1.426
3.7019999 10.62 1.42
3.697 10.611 1.408
3.6930001 10.606 1.398
3.7 10.615 1.395
3.6930001 10.606 1.383
3.6919999 10.604 1.374
3.6989999 10.614 1.3710001
3.698 10.612 1.362
3.6949999 10.607 1.352
3.7030001 10.62 1.35
3.7 10.614 1.34
3.684 10.59 1.322
3.698 10.61 1.324
3.691 10.6 1.312
3.701 10.614 1.3099999
3.701 10.615 1.303
3.7 10.613 1.294
3.694 10.603 1.283
3.6960001 10.606 1.276
3.6889999 10.596 1.265
3.691 10.598 1.258
3.7 10.612 1.256
3.6960001 10.605 1.2460001
3.6949999 10.603 1.238
3.7019999 10.614 1.234
3.6949999 10.603 1.223
3.6989999 10.609 1.217
3.7030001 10.614 1.212
3.7060001 10.619 1.206
3.698 10.606 1.194
3.698 10.607 1.187
3.7 10.609 1.1799999
3.694 10.6 1.169
3.6930001 10.598 1.161
3.6889999 10.592 1.152
3.7019999 10.612 1.152
3.698 10.606 1.142
3.694 10.6 1.132
3.694 10.598 1.124
3.6949999 10.601 1.118
3.6800001 10.577 1.102
3.6849999 10.584 1.097
3.7019999 10.61 1.099
3.688 10.589 1.084
3.698 10.604 1.082
3.688 10.589 1.0700001
3.6949999 10.599 1.066
3.6930001 10.596 1.057
3.6989999 10.604 1.053
3.6900001 10.591 1.041
3.6889999 10.589 1.033
3.6930001 10.594 1.028
3.6889999 10.588 1.018
3.6889999 10.588 1.011
3.6830001 10.578 1.001
3.7 10.604 1.002
3.7 10.604 0.995
3.6989999 10.603 0.98699999
3.688 10.585 0.97399998
3.7019999 10.606 0.97399998
3.7030001 10.608 0.96700001
3.6949999 10.595 0.95499998
3.704 10.608 0.95200002
3.698 10.6 0.94300002
3.698 10.599 0.935
3.6919999 10.59 0.92500001
3.6960001 10.595 0.92000002
3.701 10.604 0.91500002
3.6960001 10.595 0.90499997
3.698 10.598 0.89899999
3.697 10.596 0.89099997
3.7019999 10.603 0.88599998
3.701 10.602 0.87900001
3.7090001 10.613 0.875
3.6989999 10.599 0.86400002
3.6960001 10.593 0.85500002
3.707 10.609 0.852
3.697 10.595 0.84100002
3.6949999 10.592 0.833
3.6949999 10.591 0.82599998
3.6989999 10.597 0.81999999
3.6949999 10.591 0.81199998
3.701 10.6 0.80699998
3.7030001 10.602 0.80000001
3.7049999 10.605 0.79400003
3.704 10.603 0.78600001
3.7019999 10.6 0.77899998
3.6949999 10.59 0.76899999
3.701 10.598 0.764
3.7019999 10.599 0.75700003
3.7060001 10.605 0.75199997
3.7019999 10.599 0.74299997
3.697 10.591 0.73400003
3.701 10.596 0.72799999
3.6989999 10.593 0.72100002
3.7019999 10.599 0.71499997
3.6949999 10.587 0.70499998
3.7030001 10.6 0.70099998
3.6989999 10.594 0.69300002
3.7 10.595 0.68599999
3.7030001 10.599 0.68000001
3.7019999 10.597 0.67199999
3.7030001 10.597 0.66500002
3.6900001 10.578 0.65399998
3.704 10.6 0.65200001
3.7049999 10.601 0.64499998
3.7 10.592 0.63599998
3.6949999 10.586 0.62800002
3.7019999 10.595 0.62300003
3.707 10.603 0.61799997
3.698 10.589 0.60799998
3.7030001 10.596 0.602
3.7049999 10.599 0.59600002
3.7 10.591 0.58700001
3.71 10.607 0.58399999
3.6960001 10.586 0.57200003
3.707 10.601 0.56900001
3.7049999 10.598 0.56099999
3.7030001 10.595 0.55400002
3.7019999 10.593 0.546
3.701 10.592 0.53899997
3.6919999 10.578 0.52999997
3.7049999 10.597 0.52600002
3.704 10.595 0.51899999
3.7060001 10.598 0.51300001
3.7 10.589 0.50400001
3.714 10.61 0.50099999
3.698 10.586 0.49000001
3.6989999 10.587 0.48300001
3.7030001 10.592 0.477
3.7049999 10.595 0.47
3.704 10.594 0.463
3.704 10.593 0.456
3.71 10.602 0.45100001
3.7049999 10.595 0.44299999
3.698 10.583 0.43399999
3.711 10.604 0.43000001
3.7019999 10.589 0.421
3.7019999 10.588 0.414
3.7 10.586 0.40700001
3.7019999 10.588 0.40099999
3.704 10.592 0.39399999
3.7030001 10.589 0.38699999
3.704 10.591 0.38100001
3.7160001 10.608 0.37599999
3.697 10.581 0.366
3.701 10.585 0.359
3.698 10.582 0.352
3.7079999 10.595 0.347
3.71 10.598 0.34
3.7090001 10.596 0.333
3.704 10.589 0.32600001
3.7049999 10.59 0.31900001
3.704 10.589 0.31200001
3.707 10.593 0.30599999
3.7060001 10.591 0.29899999
3.704 10.588 0.29100001
3.704 10.587 0.28400001
3.71 10.596 0.27900001
3.7049999 10.589 0.271
3.7049999 10.589 0.264
3.704 10.586 0.257
3.71 10.596 0.25099999
3.7119999 10.598 0.245
3.71 10.596 0.23800001
3.714 10.601 0.23100001
3.707 10.591 0.223
3.7060001 10.589 0.21699999
3.7060001 10.588 0.20999999
3.707 10.59 0.20299999
3.707 10.59 0.19599999
3.7090001 10.593 0.19
3.701 10.58 0.182
3.7019999 10.581 0.175
3.7049999 10.586 0.169
3.7 10.578 0.161
3.6960001 10.572 0.154
3.6989999 10.576 0.148
3.7049999 10.586 0.142
3.707 10.588 0.13500001
3.707 10.587 0.12800001
3.7130001 10.597 0.122
3.7090001 10.591 0.115
3.698 10.573 0.107
3.7 10.577 0.1
3.7049999 10.583 0.093999997
3.7079999 10.588 0.086999997
3.714 10.597 0.081
3.711 10.592 0.074000001
3.707 10.586 0.067000002
3.7130001 10.594 0.059999999
3.707 10.585 0.052999999
3.7049999 10.582 0.046999998
3.7149999 10.597 0.039999999
3.7119999 10.592 0.033
3.701 10.576 0.026000001
3.7090001 10.587 0.02
3.71 10.588 0.013
3.7119999 10.591 0.0060000001
3.6689999 10.629 2.9820001
3.674 10.636 2.9779999
3.6689999 10.628 2.9590001
3.6689999 10.628 2.9489999
3.6900001 10.659 2.967
3.697 10.67 2.9660001
3.6719999 10.632 2.9200001
3.671 10.63 2.9070001
3.6670001 10.624 2.892
3.664 10.618 2.8759999
3.6600001 10.612 2.8599999
3.665 10.619 2.8559999
3.668 10.624 2.8499999
3.658 10.608 2.825
3.6630001 10.614 2.8199999
3.6589999 10.609 2.8050001
3.6559999 10.603 2.79
3.661 10.61 2.786
3.517 10.389 2.5840001
3.513 10.382 2.5680001
3.507 10.373 2.5510001
3.5139999 10.383 2.55
3.5150001 10.384 2.5409999
3.5150001 10.384 2.5320001
3.5109999 10.378 2.5179999
3.516 10.385 2.5139999
3.516 10.385 2.5050001
3.5150001 10.382 2.493
3.5150001 10.382 2.484
3.5150001 10.382 2.4749999
3.5150001 10.383 2.4660001
3.516 10.383 2.4560001
3.5139999 10.379 2.444
3.5139999 10.38 2.4349999
3.5220001 10.391 2.4360001
3.53 10.404 2.437
3.5250001 10.396 2.421
3.5190001 10.387 2.404
3.52 10.387 2.395
3.52 10.387 2.3859999
3.5239999 10.394 2.3829999
3.516 10.38 2.3629999
3.52 10.387 2.359
3.527 10.396 2.358
3.5220001 10.389 2.3429999
3.5179999 10.383 2.329
3.5179999 10.383 2.3199999
3.5179999 10.383 2.3110001
3.523 10.39 2.3080001
3.5179999 10.382 2.293
3.526 10.393 2.2920001
3.5209999 10.386 2.2780001
3.527 10.394 2.2750001
3.5350001 10.406 2.276
3.533 10.404 2.2650001
3.5350001 10.406 2.2579999
3.5409999 10.415 2.256
3.543 10.417 2.2490001
3.5439999 10.419 2.2409999
3.5450001 10.421 2.234
3.55 10.427 2.23
3.563 10.448 2.2360001
3.563 10.447 2.227
3.5680001 10.454 2.223
3.5639999 10.449 2.21
3.5739999 10.463 2.2119999
3.5780001 10.469 2.2079999
3.582 10.475 2.2030001
3.5780001 10.469 2.1900001
3.586 10.481 2.1900001
3.5840001 10.477 2.178
3.5899999 10.486 2.1760001
3.5880001 10.484 2.165
3.5969999 10.496 2.165
3.5999999 10.501 2.1600001
3.602 10.503 2.1530001
3.6099999 10.515 2.152
3.608 10.513 2.142
3.6099999 10.515 2.135
3.6210001 10.532 2.138
3.625 10.538 2.1329999
3.628 10.542 2.1270001
3.628 10.542 2.118
3.6340001 10.55 2.1159999
3.638 10.556 2.1099999
3.6440001 10.565 2.108
3.648 10.571 2.1029999
3.6530001 10.578 2.099
3.6559999 10.583 2.0940001
3.6589999 10.588 2.0880001
3.6570001 10.584 2.0769999
3.6630001 10.592 2.0739999
3.6619999 10.591 2.0639999
3.6689999 10.601 2.062
3.6719999 10.606 2.056
3.668 10.599 2.043
3.6830001 10.621 2.049
3.6849999 10.624 2.0420001
3.6849999 10.624 2.0339999
3.6889999 10.63 2.029
3.688 10.629 2.0190001
3.6819999 10.62 2.0050001
3.6849999 10.624 1.998
3.691 10.633 1.995
3.687 10.626 1.982
3.6860001 10.625 1.973
3.6860001 10.624 1.964
3.6919999 10.634 1.962
3.6900001 10.63 1.951
3.684 10.621 1.937
3.684 10.62 1.928
3.687 10.625 1.9220001
3.6819999 10.617 1.909
3.6819999 10.617 1.9
3.6889999 10.627 1.898
3.688 10.625 1.8890001
3.6860001 10.622 1.878
3.6849999 10.62 1.869
3.691 10.629 1.865
3.697 10.638 1.862
3.6889999 10.625 1.846
3.687 10.622 1.836
3.6860001 10.62 1.827
3.691 10.628 1.823
3.688 10.623 1.812
3.6900001 10.625 1.8049999
3.687 10.62 1.794
3.698 10.636 1.795
3.684 10.616 1.775
3.6930001 10.629 1.774
3.688 10.621 1.761
3.6849999 10.616 1.75
3.6919999 10.627 1.748
3.688 10.62 1.7359999
3.6860001 10.616 1.726
3.6919999 10.626 1.723
3.6930001 10.628 1.716
3.688 10.62 1.7029999
3.6849999 10.615 1.693
3.687 10.617 1.686
3.6819999 10.61 1.674
3.6860001 10.615 1.668
3.6889999 10.62 1.663
3.684 10.612 1.651
3.6830001 10.61 1.641
3.6930001 10.624 1.641
3.6889999 10.618 1.63
3.688 10.618 1.6210001
3.697 10.631 1.62
3.6849999 10.611 1.602
3.688 10.617 1.597
3.688 10.615 1.5880001
3.684 10.61 1.5779999
3.687 10.614 1.572
3.684 10.608 1.561
3.6860001 10.612 1.5549999
3.6789999 10.6 1.5420001
3.6949999 10.624 1.545
3.6889999 10.615 1.533
3.6900001 10.616 1.526
3.6919999 10.619 1.5190001
3.697 10.627 1.515
3.687 10.612 1.5
3.6860001 10.611 1.4910001
3.688 10.614 1.485
3.6919999 10.619 1.48
3.6860001 10.61 1.4680001
3.6900001 10.615 1.462
3.6819999 10.603 1.449
3.6860001 10.609 1.444
3.6900001 10.614 1.439
3.6949999 10.621 1.434
3.691 10.615 1.424
3.688 10.611 1.414
3.691 10.615 1.408
3.6949999 10.621 1.403
3.688 10.611 1.391
3.6849999 10.606 1.381
3.687 10.608 1.374
3.691 10.613 1.369
3.684 10.604 1.357
3.6849999 10.605 1.35
3.6930001 10.616 1.347
3.691 10.613 1.3380001
3.688 10.608 1.3279999
3.6889999 10.61 1.322
3.694 10.616 1.317
3.687 10.605 1.3049999
3.698 10.623 1.304
3.687 10.606 1.29
3.684 10.6 1.28
3.6889999 10.607 1.275
3.698 10.622 1.274
3.688 10.606 1.2589999
3.694 10.615 1.256
3.6860001 10.602 1.243
3.687 10.603 1.2359999
3.687 10.604 1.229
3.698 10.619 1.227
3.6930001 10.612 1.217
3.6919999 10.61 1.209
3.6900001 10.607 1.2
3.687 10.602 1.191
3.6930001 10.611 1.187
3.684 10.597 1.174
3.6930001 10.61 1.1720001
3.687 10.602 1.161
3.688 10.603 1.154
3.6789999 10.589 1.142
3.6889999 10.603 1.1390001
3.687 10.6 1.131
3.6830001 10.595 1.122
3.6800001 10.59 1.112
3.6800001 10.59 1.105
3.691 10.605 1.103
3.6789999 10.588 1.09
3.678 10.586 1.082
3.6800001 10.588 1.075
3.6830001 10.593 1.0700001
3.6800001 10.587 1.0599999
3.6730001 10.577 1.05
3.678 10.585 1.045
3.678 10.584 1.038
3.674 10.577 1.028
3.6800001 10.587 1.024
3.6830001 10.592 1.018
3.6819999 10.589 1.01
3.6860001 10.595 1.005
3.6819999 10.589 0.99599999
3.6849999 10.593 0.99000001
3.6819999 10.588 0.98100001
3.681 10.587 0.97299999
3.6860001 10.594 0.96799999
3.6819999 10.587 0.95899999
3.6849999 10.592 0.95300001
3.6830001 10.588 0.94499999
3.6930001 10.603 0.94300002
3.6930001 10.604 0.93599999
3.687 10.594 0.92500001
3.688 10.596 0.91900003
3.694 10.605 0.91399997
3.687 10.594 0.90399998
3.6819999 10.586 0.89499998
3.6919999 10.601 0.89200002
3.684 10.589 0.88099998
3.694 10.604 0.87800002
3.6849999 10.59 0.86699998
3.697 10.607 0.86500001
3.687 10.592 0.85399997
3.7 10.612 0.852
3.6849999 10.589 0.838
3.6900001 10.595 0.833
3.7 10.611 0.82999998
3.691 10.597 0.81900001
3.6889999 10.593 0.81099999
3.6900001 10.595 0.80500001
3.688 10.592 0.79699999
3.6900001 10.594 0.79000002
3.6900001 10.595 0.78299999
3.6889999 10.593 0.77600002
3.6919999 10.597 0.76999998
3.6949999 10.602 0.764
3.694 10.599 0.75599998
3.697 10.604 0.75
3.688 10.59 0.74000001
3.694 10.598 0.73500001
3.6900001 10.592 0.72600001
3.6949999 10.6 0.72100002
3.6889999 10.591 0.71200001
3.6919999 10.595 0.70599997
3.6900001 10.591 0.69800001
3.688 10.589 0.69099998
3.684 10.582 0.68199998
3.6819999 10.58 0.67400002
3.6930001 10.595 0.671
3.694 10.597 0.66399997
3.6919999 10.594 0.65700001
3.6930001 10.595 0.64999998
3.694 10.597 0.64300001
3.6919999 10.593 0.63599998
3.691 10.59 0.62800002
3.6889999 10.588 0.62099999
3.691 10.591 0.61400002
3.6900001 10.589 0.60699999
3.698 10.601 0.602
3.6849999 10.582 0.59200001
3.691 10.59 0.58600003
3.698 10.6 0.58099997
3.691 10.589 0.57200003
3.698 10.6 0.56699997
3.6949999 10.595 0.56
3.7030001 10.607 0.55500001
3.6960001 10.596 0.546
3.698 10.599 0.54000002
3.6919999 10.589 0.53100002
3.704 10.607 0.52700001
3.6960001 10.596 0.51800001
3.7019999 10.605 0.51300001
3.6989999 10.6 0.505
3.7 10.601 0.498
3.6960001 10.595 0.49000001
3.6960001 10.594 0.48300001
3.691 10.587 0.47499999
3.6960001 10.593 0.47
3.6930001 10.589 0.46200001
3.698 10.596 0.456
3.691 10.586 0.44800001
3.697 10.595 0.442
3.6960001 10.593 0.435
3.694 10.589 0.428
3.7019999 10.602 0.42300001
3.6960001 10.593 0.414
3.7 10.598 0.40799999
3.6960001 10.592 0.40099999
3.697 10.593 0.39399999
3.6960001 10.592 0.38699999
3.6919999 10.585 0.37900001
3.6960001 10.591 0.373
3.7 10.597 0.36700001
3.6900001 10.582 0.35800001
3.6949999 10.589 0.352
3.697 10.591 0.34599999
3.697 10.591 0.33899999
3.691 10.582 0.331
3.6949999 10.588 0.32499999
3.6989999 10.593 0.31900001
3.7019999 10.598 0.31200001
3.6949999 10.587 0.30399999
3.6949999 10.587 0.29800001
3.6989999 10.593 0.29100001
3.697 10.589 0.28400001
3.701 10.596 0.278
3.6989999 10.593 0.271
3.6960001 10.588 0.264
3.7030001 10.598 0.25799999
3.698 10.591 0.25
3.701 10.594 0.244
3.694 10.583 0.236
3.698 10.589 0.23
3.698 10.589 0.223
3.6989999 10.591 0.21600001
3.6989999 10.591 0.20900001
3.7 10.592 0.20299999
3.704 10.598 0.19599999
3.6930001 10.581 0.18799999
3.7 10.591 0.182
3.697 10.586 0.175
3.7019999 10.594 0.169
3.707 10.601 0.163
3.698 10.587 0.155
3.698 10.588 0.148
3.7019999 10.593 0.142
3.7030001 10.595 0.13500001
3.7 10.59 0.12800001
3.707 10.599 0.122
3.7030001 10.594 0.115
3.687 10.569 0.107
3.7030001 10.593 0.101
3.6989999 10.587 0.093999997
3.697 10.583 0.086999997
3.7049999 10.595 0.081
3.7030001 10.593 0.074000001
3.698 10.585 0.067000002
3.7030001 10.591 0.059999999
3.697 10.583 0.052999999
3.697 10.582 0.046
3.6960001 10.581 0.039999999
3.7 10.587 0.033
3.7 10.587 0.026000001
3.698 10.583 0.018999999
3.6989999 10.584 0.013
3.704 10.592 0.0060000001
3.665 10.635 2.9949999
3.665 10.636 2.9849999
3.6600001 10.627 2.9660001
3.6630001 10.631 2.9590001
3.6659999 10.636 2.9519999
3.6619999 10.63 2.9360001
3.6570001 10.621 2.918
3.658 10.622 2.908
3.661 10.627 2.901
3.655 10.617 2.882
3.6559999 10.618 2.8729999
3.6570001 10.619 2.8629999
3.6530001 10.613 2.8469999
3.6619999 10.627 2.849
3.658 10.621 2.8329999
3.655 10.615 2.8180001
3.651 10.609 2.802
3.6589999 10.62 2.802
3.661 10.624 2.7939999
3.6559999 10.615 2.776
3.661 10.622 2.7720001
3.54 10.436 2.602
3.5190001 10.403 2.5639999
3.527 10.414 2.5639999
3.5209999 10.404 2.546
3.5190001 10.401 2.5339999
3.5150001 10.395 2.5190001
3.52 10.402 2.516
3.527 10.412 2.5150001
3.527 10.413 2.506
3.51 10.386 2.4749999
3.5209999 10.403 2.48
3.5190001 10.4 2.4679999
3.52 10.4 2.4590001
3.5220001 10.404 2.4519999
3.5220001 10.404 2.4430001
3.5179999 10.397 2.428
3.5139999 10.39 2.4130001
3.5209999 10.401 2.4130001
3.529 10.413 2.4130001
3.5280001 10.41 2.402
3.5209999 10.401 2.385
3.526 10.407 2.381
3.5190001 10.396 2.3640001
3.5309999 10.415 2.369
3.527 10.408 2.355
3.529 10.411 2.348
3.5250001 10.404 2.3340001
3.5250001 10.404 2.325
3.5250001 10.404 2.316
3.527 10.407 2.309
3.529 10.41 2.303
3.5250001 10.402 2.2880001
3.527 10.406 2.2820001
3.52 10.396 2.2650001
3.52 10.395 2.256
3.526 10.404 2.2539999
3.536 10.418 2.256
3.54 10.424 2.2509999
3.5369999 10.42 2.2390001
3.5450001 10.432 2.2390001
3.5510001 10.441 2.237
3.5539999 10.445 2.2309999
3.5580001 10.451 2.227
3.5580001 10.45 2.2179999
3.556 10.447 2.207
3.563 10.458 2.2060001
3.5739999 10.475 2.2090001
3.5699999 10.469 2.1960001
3.5780001 10.48 2.1949999
3.582 10.487 2.191
3.585 10.491 2.1849999
3.5840001 10.49 2.1760001
3.596 10.507 2.1789999
3.5910001 10.5 2.165
3.5940001 10.504 2.1600001
3.598 10.51 2.155
3.6010001 10.514 2.1489999
3.6070001 10.522 2.1459999
3.612 10.53 2.1429999
3.612 10.529 2.1340001
3.6140001 10.533 2.1270001
3.6199999 10.541 2.1240001
3.618 10.538 2.1129999
3.635 10.564 2.122
3.6270001 10.552 2.105
3.6329999 10.561 2.1029999
3.6329999 10.561 2.0940001
3.642 10.574 2.0940001
3.651 10.587 2.0940001
3.651 10.587 2.085
3.652 10.588 2.0769999
3.6489999 10.584 2.0650001
3.668 10.612 2.076
3.654 10.591 2.053
3.6630001 10.604 2.052
3.6689999 10.614 2.05
3.668 10.611 2.04
3.678 10.627 2.0420001
3.6789999 10.628 2.033
3.675 10.622 2.0209999
3.6730001 10.619 2.01
3.6659999 10.607 1.994
3.6789999 10.627 1.998
3.664 10.604 1.975
3.681 10.629 1.982
3.675 10.62 1.9680001
3.6800001 10.627 1.964
3.6819999 10.631 1.957
3.675 10.619 1.941
3.681 10.628 1.939
3.6760001 10.62 1.926
3.678 10.623 1.918
3.6860001 10.636 1.918
3.6819999 10.629 1.905
3.681 10.627 1.896
3.681 10.626 1.887
3.6700001 10.61 1.869
3.6830001 10.629 1.8710001
3.6800001 10.624 1.86
3.6819999 10.626 1.853
3.674 10.614 1.8380001
3.678 10.621 1.8329999
3.677 10.619 1.824
3.678 10.621 1.817
3.6849999 10.631 1.814
3.6930001 10.642 1.812
3.684 10.628 1.796
3.684 10.628 1.788
3.678 10.619 1.774
3.675 10.614 1.763
3.6849999 10.628 1.763
3.677 10.616 1.748
3.681 10.623 1.744
3.678 10.617 1.732
3.6719999 10.609 1.72
3.6819999 10.623 1.719
3.688 10.633 1.716
3.6819999 10.623 1.7029999
3.677 10.615 1.6900001
3.6789999 10.617 1.684
3.674 10.609 1.671
3.684 10.625 1.6720001
3.6800001 10.618 1.66
3.6800001 10.618 1.652
3.681 10.619 1.6440001
3.6819999 10.62 1.637
3.681 10.619 1.628
3.688 10.629 1.625
3.691 10.634 1.62
3.678 10.614 1.601
3.687 10.628 1.601
3.6819999 10.619 1.5880001
3.674 10.607 1.574
3.6730001 10.604 1.5650001
3.6789999 10.614 1.562
3.6789999 10.614 1.554
3.6849999 10.623 1.55
3.6860001 10.624 1.543
3.6789999 10.613 1.53
3.688 10.626 1.528
3.6819999 10.617 1.516
3.6800001 10.614 1.507
3.675 10.605 1.495
3.687 10.624 1.4960001
3.6830001 10.617 1.485
3.6789999 10.611 1.474
3.6760001 10.606 1.464
3.677 10.608 1.457
3.674 10.602 1.447
3.678 10.608 1.442
3.677 10.607 1.434
3.678 10.609 1.427
3.675 10.604 1.4170001
3.687 10.621 1.4170001
3.671 10.597 1.398
3.6819999 10.613 1.398
3.6760001 10.604 1.386
3.6819999 10.613 1.382
3.6819999 10.612 1.374
3.6800001 10.609 1.365
3.681 10.611 1.359
3.6800001 10.609 1.35
3.677 10.604 1.34
3.6789999 10.606 1.334
3.6789999 10.607 1.327
3.6800001 10.608 1.319
3.6819999 10.611 1.313
3.677 10.603 1.302
3.6819999 10.61 1.2970001
3.681 10.609 1.289
3.6900001 10.622 1.2869999
3.687 10.618 1.278
3.674 10.598 1.262
3.675 10.598 1.255
3.691 10.622 1.257
3.6830001 10.61 1.245
3.6800001 10.606 1.2359999
3.6849999 10.613 1.2309999
3.681 10.607 1.221
3.6819999 10.608 1.214
3.688 10.617 1.21
3.6800001 10.604 1.197
3.684 10.61 1.192
3.6800001 10.603 1.182
3.6830001 10.608 1.177
3.677 10.599 1.166
3.675 10.596 1.1569999
3.6930001 10.623 1.16
3.6760001 10.597 1.143
3.678 10.599 1.136
3.6760001 10.597 1.128
3.678 10.598 1.1210001
3.674 10.592 1.112
3.675 10.594 1.105
3.675 10.595 1.098
3.675 10.593 1.09
3.668 10.582 1.079
3.674 10.592 1.075
3.675 10.593 1.068
3.677 10.595 1.062
3.6700001 10.585 1.051
3.675 10.592 1.046
3.6760001 10.593 1.039
3.6800001 10.6 1.034
3.6730001 10.589 1.023
3.6689999 10.583 1.0140001
3.6730001 10.588 1.0089999
3.6730001 10.587 1.001
3.6789999 10.597 0.99699998
3.678 10.596 0.98900002
3.681 10.599 0.98299998
3.6789999 10.595 0.97500002
3.6789999 10.596 0.96799999
3.6789999 10.596 0.96100003
3.681 10.599 0.954
3.6800001 10.597 0.94700003
3.681 10.598 0.94
3.6800001 10.597 0.93199998
3.6789999 10.595 0.92400002
3.681 10.597 0.91799998
3.6830001 10.6 0.91100001
3.6719999 10.583 0.89899999
3.678 10.593 0.89499998
3.6819999 10.598 0.88999999
3.6860001 10.603 0.884
3.684 10.601 0.87599999
3.6900001 10.61 0.87199998
3.6860001 10.603 0.86199999
3.671 10.581 0.84899998
3.6789999 10.593 0.84500003
3.6830001 10.598 0.83999997
3.6789999 10.592 0.83099997
3.687 10.604 0.82700002
3.6800001 10.593 0.81699997
3.6819999 10.595 0.81099999
3.678 10.589 0.80199999
3.6860001 10.602 0.79799998
3.6789999 10.59 0.78799999
3.6900001 10.607 0.78500003
3.6730001 10.582 0.77200001
3.6789999 10.59 0.76700002
3.681 10.592 0.75999999
3.6819999 10.593 0.75400001
3.677 10.586 0.745
3.681 10.591 0.73900002
3.6860001 10.6 0.73400003
3.677 10.585 0.72399998
3.6830001 10.594 0.71899998
3.6830001 10.594 0.71200001
3.6900001 10.604 0.70700002
3.678 10.585 0.69599998
3.6830001 10.593 0.69
3.6849999 10.596 0.68400002
3.687 10.599 0.67799997
3.6819999 10.592 0.66900003
3.6860001 10.597 0.66299999
3.6919999 10.605 0.65799999
3.6800001 10.587 0.64700001
3.6800001 10.587 0.63999999
3.6860001 10.597 0.63499999
3.6819999 10.589 0.62699997
3.6800001 10.586 0.61900002
3.677 10.582 0.61199999
3.6800001 10.586 0.60600001
3.688 10.598 0.60100001
3.681 10.587 0.59200001
3.688 10.598 0.58700001
3.6830001 10.591 0.579
3.6919999 10.604 0.574
3.6930001 10.605 0.56800002
3.6889999 10.599 0.55900002
3.6949999 10.608 0.55400002
3.6849999 10.592 0.54400003
3.678 10.581 0.53500003
3.6849999 10.592 0.53100002
3.6789999 10.583 0.52200001
3.677 10.58 0.51499999
3.6819999 10.587 0.509
3.6860001 10.593 0.50300002
3.684 10.589 0.49599999
3.6900001 10.598 0.49000001
3.6849999 10.59 0.48199999
3.6860001 10.592 0.47499999
3.6860001 10.591 0.46900001
3.671 10.568 0.458
3.6819999 10.585 0.454
3.688 10.593 0.44800001
3.6789999 10.579 0.43900001
3.684 10.587 0.43399999
3.684 10.587 0.42699999
3.6830001 10.585 0.41999999
3.6849999 10.588 0.41299999
3.678 10.577 0.405
3.687 10.59 0.40000001
3.6900001 10.595 0.39399999
3.6919999 10.598 0.38699999
3.6819999 10.582 0.37799999
3.6930001 10.599 0.37400001
3.691 10.595 0.366
3.684 10.585 0.35800001
3.681 10.58 0.35100001
3.6960001 10.602 0.347
3.6830001 10.583 0.33700001
3.694 10.598 0.33199999
3.687 10.588 0.324
3.684 10.583 0.317
3.6889999 10.591 0.31099999
3.6989999 10.605 0.30599999
3.6860001 10.586 0.29699999
3.688 10.589 0.28999999
3.6960001 10.6 0.285
3.6819999 10.579 0.27599999
3.6849999 10.584 0.27000001
3.6830001 10.579 0.26199999
3.6889999 10.589 0.25600001
3.691 10.592 0.25
3.688 10.586 0.243
3.6919999 10.593 0.236
3.6930001 10.594 0.23
3.6860001 10.584 0.222
3.688 10.586 0.215
3.6949999 10.597 0.20999999
3.7019999 10.608 0.204
3.6919999 10.591 0.19599999
3.6900001 10.588 0.189
3.6949999 10.596 0.182
3.6930001 10.593 0.175
3.694 10.593 0.168
3.694 10.594 0.162
3.6900001 10.588 0.155
3.691 10.588 0.148
3.691 10.588 0.141
3.7 10.602 0.13500001
3.691 10.588 0.127
3.6949999 10.594 0.121
3.684 10.577 0.113
3.698 10.598 0.108
3.6819999 10.573 0.1
3.6930001 10.59 0.093999997
3.6960001 10.594 0.086999997
3.697 10.596 0.079999998
3.687 10.581 0.072999999
3.691 10.586 0.066
3.691 10.586 0.059999999
3.6860001 10.579 0.052999999
3.6889999 10.583 0.046
3.694 10.59 0.039999999
3.687 10.579 0.033
3.6889999 10.582 0.026000001
3.687 10.578 0.018999999
3.6849999 10.575 0.012
3.6900001 10.583 0.0060000001
3.6500001 10.625 2.9820001
3.6559999 10.633 2.9790001
3.652 10.627 2.9630001
3.6619999 10.642 2.9649999
3.6459999 10.617 2.931
3.6500001 10.624 2.927
3.6489999 10.622 2.915
3.652 10.625 2.9070001
3.6470001 10.617 2.8889999
3.6500001 10.621 2.882
3.6500001 10.622 2.8729999
3.651 10.623 2.8629999
3.6500001 10.62 2.8499999
3.6500001 10.621 2.8399999
3.651 10.621 2.8299999
3.6429999 10.609 2.809
3.648 10.616 2.8050001
3.648 10.616 2.7950001
3.6470001 10.614 2.783
3.648 10.615 2.773
3.6459999 10.612 2.7609999
3.6470001 10.613 2.7509999
3.6470001 10.613 2.7409999
3.5510001 10.464 2.6029999
3.523 10.42 2.5569999
3.5179999 10.411 2.539
3.5209999 10.415 2.5339999
3.5190001 10.412 2.5220001
3.5150001 10.406 2.507
3.5309999 10.43 2.517
3.5179999 10.41 2.4920001
3.5220001 10.416 2.4879999
3.5139999 10.404 2.4679999
3.5209999 10.414 2.467
3.5209999 10.414 2.4579999
3.517 10.407 2.4430001
3.5220001 10.414 2.4389999
3.52 10.411 2.427
3.513 10.401 2.4100001
3.5179999 10.408 2.4059999
3.526 10.42 2.4070001
3.5280001 10.423 2.4000001
3.5239999 10.417 2.3859999
3.5220001 10.413 2.3740001
3.52 10.41 2.3629999
3.523 10.415 2.3570001
3.5239999 10.415 2.348
3.5209999 10.411 2.336
3.5280001 10.421 2.335
3.5239999 10.414 2.3210001
3.5239999 10.413 2.3110001
3.526 10.417 2.3050001
3.52 10.407 2.2880001
3.527 10.417 2.2869999
3.52 10.406 2.27
3.5309999 10.424 2.2750001
3.5239999 10.413 2.2579999
3.5239999 10.413 2.2490001
3.5220001 10.408 2.2360001
3.5350001 10.428 2.243
3.5439999 10.442 2.244
3.546 10.445 2.237
3.549 10.449 2.2320001
3.5420001 10.439 2.2149999
3.546 10.444 2.21
3.562 10.468 2.2190001
3.5569999 10.461 2.2049999
3.5639999 10.472 2.204
3.5639999 10.47 2.1949999
3.5610001 10.466 2.1819999
3.5769999 10.491 2.1919999
3.5739999 10.486 2.1789999
3.5810001 10.496 2.178
3.586 10.503 2.174
3.5810001 10.495 2.1600001
3.595 10.517 2.1659999
3.5929999 10.513 2.155
3.599 10.522 2.152
3.5969999 10.519 2.142
3.5969999 10.519 2.1329999
3.5969999 10.519 2.1240001
3.612 10.542 2.131
3.615 10.547 2.125
3.6140001 10.544 2.115
3.619 10.551 2.1110001
3.6140001 10.543 2.0969999
3.625 10.561 2.0999999
3.6289999 10.567 2.095
3.6340001 10.574 2.0910001
3.6289999 10.566 2.0769999
3.6440001 10.589 2.0840001
3.648 10.595 2.079
3.651 10.598 2.073
3.652 10.6 2.0650001
3.6570001 10.607 2.0610001
3.664 10.618 2.059
3.661 10.614 2.0480001
3.6719999 10.63 2.049
3.6719999 10.63 2.0409999
3.6670001 10.622 2.027
3.664 10.618 2.016
3.6730001 10.631 2.0150001
3.6730001 10.631 2.007
3.6689999 10.624 1.994
3.661 10.611 1.977
3.668 10.622 1.975
3.6719999 10.629 1.971
3.6719999 10.628 1.962
3.664 10.615 1.9450001
3.671 10.626 1.944
3.6730001 10.628 1.936
3.6719999 10.627 1.927
3.6700001 10.623 1.916
3.6719999 10.627 1.91
3.6689999 10.621 1.898
3.6659999 10.617 1.887
3.6700001 10.622 1.882
3.675 10.63 1.878
3.6719999 10.624 1.8660001
3.6800001 10.637 1.865
3.6700001 10.622 1.848
3.6670001 10.616 1.837
3.6730001 10.626 1.834
3.674 10.627 1.826
3.6730001 10.624 1.816
3.678 10.632 1.812
3.6670001 10.615 1.795
3.6730001 10.625 1.7920001
3.668 10.616 1.779
3.6700001 10.619 1.772
3.6800001 10.633 1.772
3.678 10.631 1.762
3.671 10.619 1.748
3.6700001 10.618 1.739
3.6689999 10.617 1.73
3.674 10.623 1.725
3.6719999 10.62 1.715
3.668 10.614 1.704
3.6659999 10.61 1.694
3.6700001 10.616 1.689
3.6659999 10.61 1.678
3.6700001 10.616 1.673
3.6600001 10.6 1.656
3.6760001 10.625 1.661
3.671 10.616 1.649
3.6700001 10.615 1.64
3.6760001 10.624 1.637
3.668 10.612 1.622
3.664 10.606 1.6109999
3.671 10.615 1.608
3.671 10.615 1.6
3.675 10.621 1.595
3.671 10.615 1.584
3.6719999 10.617 1.577
3.6760001 10.622 1.572
3.671 10.614 1.5599999
3.6800001 10.627 1.559
3.675 10.62 1.5470001
3.678 10.624 1.541
3.6700001 10.611 1.527
3.6700001 10.611 1.5190001
3.668 10.608 1.51
3.6689999 10.61 1.503
3.6670001 10.606 1.493
3.6719999 10.614 1.489
3.675 10.617 1.483
3.677 10.62 1.477
3.6789999 10.623 1.47
3.674 10.616 1.459
3.6659999 10.603 1.4450001
3.674 10.615 1.443
3.671 10.61 1.433
3.6789999 10.622 1.431
3.6730001 10.612 1.419
3.6719999 10.61 1.41
3.6689999 10.607 1.401
3.668 10.605 1.392
3.674 10.614 1.3890001
3.6719999 10.61 1.3789999
3.668 10.603 1.369
3.677 10.617 1.367
3.671 10.608 1.3559999
3.6800001 10.621 1.354
3.664 10.596 1.335
3.671 10.607 1.332
3.6730001 10.61 1.326
3.6730001 10.61 1.318
3.6689999 10.603 1.308
3.671 10.606 1.302
3.678 10.617 1.299
3.6760001 10.614 1.29
3.674 10.611 1.281
3.678 10.617 1.276
3.681 10.62 1.27
3.6760001 10.612 1.2589999
3.675 10.611 1.251
3.6789999 10.617 1.2460001
3.6760001 10.611 1.2359999
3.678 10.614 1.23
3.6800001 10.617 1.223
3.671 10.604 1.211
3.6730001 10.606 1.204
3.6789999 10.615 1.2
3.6730001 10.606 1.189
3.671 10.603 1.181
3.6730001 10.606 1.174
3.6689999 10.599 1.164
3.665 10.593 1.155
3.674 10.607 1.152
3.668 10.597 1.142
3.675 10.607 1.138
3.6700001 10.6 1.128
3.6719999 10.602 1.1210001
3.668 10.596 1.112
3.674 10.605 1.108
3.6700001 10.599 1.098
3.6659999 10.593 1.089
3.6619999 10.586 1.079
3.668 10.595 1.075
3.664 10.589 1.0650001
3.6630001 10.586 1.057
3.6719999 10.6 1.0549999
3.6730001 10.601 1.048
3.6689999 10.595 1.038
3.6719999 10.599 1.033
3.668 10.593 1.023
3.6670001 10.592 1.016
3.661 10.582 1.005
3.6659999 10.59 1.001
3.6659999 10.589 0.99299997
3.6719999 10.598 0.98900002
3.668 10.591 0.97899997
3.6719999 10.598 0.97399998
3.6700001 10.595 0.96600002
3.671 10.595 0.95899999
3.6730001 10.599 0.95300001
3.675 10.601 0.94599998
3.6730001 10.599 0.93900001
3.6719999 10.597 0.93099999
3.6670001 10.589 0.921
3.6719999 10.596 0.91600001
3.6619999 10.58 0.90399998
3.664 10.583 0.898
3.6670001 10.588 0.89300001
3.6670001 10.588 0.88499999
3.675 10.599 0.88099998
3.684 10.612 0.87800002
3.687 10.617 0.87199998
3.674 10.598 0.86000001
3.668 10.588 0.85000002
3.6760001 10.6 0.84600002
3.671 10.593 0.83700001
3.6689999 10.589 0.829
3.6789999 10.603 0.82599998
3.6689999 10.589 0.815
3.675 10.597 0.81
3.6730001 10.595 0.80199999
3.6789999 10.603 0.79699999
3.674 10.594 0.78799999
3.6860001 10.614 0.78600001
3.6719999 10.592 0.773
3.6730001 10.593 0.76700002
3.6789999 10.601 0.76200002
3.6789999 10.602 0.755
3.6800001 10.603 0.74800003
3.6689999 10.586 0.73699999
3.678 10.599 0.73299998
3.681 10.604 0.727
3.671 10.588 0.71600002
3.6719999 10.59 0.70999998
3.675 10.594 0.704
3.6819999 10.605 0.699
3.691 10.617 0.69499999
3.6830001 10.605 0.685
3.6849999 10.608 0.67900002
3.677 10.596 0.66900003
3.681 10.601 0.66299999
3.675 10.593 0.65499997
3.674 10.59 0.64700001
3.6800001 10.599 0.64200002
3.6719999 10.588 0.63300002
3.6730001 10.588 0.62599999
3.6760001 10.593 0.62
3.6789999 10.597 0.61400002
3.681 10.6 0.60699999
3.684 10.604 0.60100001
3.6819999 10.602 0.59399998
3.6800001 10.598 0.58600003
3.6760001 10.591 0.57800001
3.684 10.603 0.57300001
3.6789999 10.596 0.565
3.675 10.589 0.55699998
3.6830001 10.601 0.55199999
3.678 10.594 0.54400003
3.6830001 10.601 0.53799999
3.674 10.588 0.52899998
3.678 10.593 0.523
3.677 10.592 0.51599997
3.6819999 10.599 0.50999999
3.681 10.596 0.50300002
3.681 10.596 0.49599999
3.6730001 10.585 0.48699999
3.674 10.586 0.48100001
3.6849999 10.603 0.477
3.6760001 10.588 0.46700001
3.681 10.595 0.46200001
3.6830001 10.599 0.45500001
3.681 10.595 0.44800001
3.677 10.589 0.44
3.684 10.599 0.435
3.681 10.594 0.42699999
3.678 10.589 0.419
3.6849999 10.599 0.414
3.684 10.598 0.40700001
3.6819999 10.595 0.40000001
3.684 10.597 0.39300001
3.6730001 10.58 0.384
3.675 10.584 0.37799999
3.6819999 10.594 0.37200001
3.688 10.603 0.36700001
3.6830001 10.596 0.359
3.684 10.596 0.352
3.6889999 10.604 0.34599999
3.6800001 10.59 0.338
3.6819999 10.593 0.331
3.6800001 10.59 0.324
3.6800001 10.589 0.317
3.6789999 10.588 0.31
3.6900001 10.604 0.30500001
3.6860001 10.598 0.29800001
3.681 10.59 0.28999999
3.6860001 10.597 0.28400001
3.6730001 10.578 0.27500001
3.684 10.593 0.27000001
3.691 10.604 0.264
3.6849999 10.594 0.257
3.681 10.588 0.249
3.684 10.593 0.243
3.6789999 10.585 0.235
3.6830001 10.591 0.229
3.674 10.578 0.221
3.677 10.582 0.215
3.6860001 10.596 0.20900001
3.6849999 10.594 0.20200001
3.677 10.581 0.19400001
3.684 10.591 0.18799999
3.6830001 10.591 0.182
3.6919999 10.603 0.176
3.684 10.591 0.168
3.6730001 10.575 0.16
3.675 10.577 0.154
3.674 10.575 0.147
3.6800001 10.584 0.141
3.6830001 10.589 0.134
3.691 10.6 0.12800001
3.691 10.6 0.121
3.687 10.594 0.114
3.6849999 10.59 0.107
3.6760001 10.577 0.1
3.6949999 10.606 0.093999997
3.677 10.578 0.086000003
3.6949999 10.605 0.081
3.677 10.578 0.072999999
3.6900001 10.597 0.067000002
3.688 10.593 0.059999999
3.6949999 10.603 0.052999999
3.684 10.587 0.046
3.6819999 10.583 0.039000001
3.6760001 10.574 0.032000002
3.6830001 10.585 0.026000001
3.684 10.586 0.018999999
3.6830001 10.585 0.012
3.6789999 10.578 0.0049999999
3.6489999 10.635 2.9879999
3.6500001 10.636 2.9779999
3.6489999 10.634 2.9660001
3.6429999 10.625 2.947
3.642 10.623 2.934
3.641 10.621 2.921
3.645 10.628 2.9159999
3.6429999 10.623 2.902
3.6429999 10.624 2.892
3.642 10.622 2.8789999
3.6359999 10.612 2.8610001
3.6389999 10.616 2.8540001
3.6329999 10.607 2.835
3.645 10.625 2.8399999
3.641 10.619 2.825
3.641 10.619 2.8139999
3.6459999 10.626 2.8099999
3.6470001 10.628 2.8010001
3.641 10.618 2.783
3.6400001 10.615 2.77
3.645 10.623 2.766
3.648 10.627 2.76
3.6370001 10.61 2.7349999
3.6400001 10.614 2.7279999
3.642 10.618 2.721
3.642 10.617 2.71
3.5280001 10.44 2.5510001
3.526 10.435 2.5380001
3.52 10.426 2.5209999
3.5209999 10.427 2.5120001
3.5209999 10.427 2.5020001
3.5209999 10.427 2.493
3.5190001 10.424 2.4809999
3.5179999 10.421 2.47
3.516 10.418 2.4579999
3.5209999 10.425 2.454
3.5190001 10.421 2.4419999
3.5190001 10.421 2.4319999
3.517 10.418 2.421
3.526 10.431 2.4230001
3.513 10.411 2.3970001
3.5220001 10.424 2.3989999
3.52 10.421 2.3870001
3.53 10.436 2.3900001
3.53 10.437 2.381
3.5220001 10.424 2.362
3.523 10.425 2.3540001
3.5250001 10.428 2.3469999
3.5250001 10.428 2.3380001
3.53 10.435 2.3340001
3.526 10.428 2.3199999
3.526 10.428 2.3110001
3.5250001 10.427 2.3010001
3.53 10.435 2.2980001
3.53 10.435 2.289
3.53 10.434 2.28
3.526 10.427 2.266
3.53 10.434 2.2620001
3.5209999 10.419 2.2420001
3.527 10.428 2.24
3.523 10.422 2.2260001
3.5350001 10.441 2.2320001
3.5420001 10.45 2.23
3.543 10.452 2.2219999
3.539 10.446 2.2090001
3.546 10.456 2.2079999
3.5550001 10.47 2.2090001
3.556 10.471 2.201
3.552 10.465 2.188
3.5550001 10.469 2.1819999
3.5599999 10.477 2.1789999
3.5710001 10.493 2.1819999
3.5710001 10.493 2.1730001
3.5799999 10.507 2.174
3.579 10.505 2.164
3.585 10.514 2.1619999
3.5899999 10.521 2.158
3.586 10.515 2.145
3.5899999 10.521 2.1400001
3.595 10.528 2.1359999
3.5910001 10.521 2.1229999
3.5929999 10.525 2.1170001
3.6010001 10.537 2.1159999
3.6040001 10.542 2.1110001
3.609 10.548 2.1059999
3.6199999 10.565 2.109
3.618 10.563 2.099
3.6199999 10.565 2.0910001
3.631 10.581 2.0940001
3.638 10.593 2.0929999
3.6300001 10.58 2.075
3.6300001 10.579 2.066
3.645 10.603 2.073
3.648 10.607 2.0669999
3.6470001 10.604 2.0569999
3.6489999 10.607 2.05
3.664 10.63 2.056
3.6630001 10.629 2.046
3.6670001 10.635 2.0409999
3.664 10.631 2.03
3.6600001 10.623 2.017
3.6589999 10.622 2.007
3.6589999 10.621 1.998
3.658 10.62 1.989
3.661 10.624 1.982
3.6670001 10.633 1.98
3.6530001 10.611 1.957
3.6589999 10.62 1.955
3.6630001 10.626 1.95
3.654 10.611 1.932
3.658 10.618 1.928
3.6619999 10.624 1.923
3.665 10.629 1.9170001
3.6670001 10.631 1.91
3.6730001 10.64 1.9069999
3.6619999 10.623 1.888
3.665 10.627 1.882
3.661 10.621 1.8710001
3.661 10.621 1.862
3.6570001 10.615 1.85
3.664 10.625 1.848
3.6600001 10.619 1.836
3.6670001 10.628 1.8329999
3.6670001 10.629 1.825
3.6600001 10.618 1.8099999
3.665 10.625 1.807
3.6659999 10.626 1.798
3.665 10.625 1.79
3.6600001 10.617 1.777
3.6670001 10.626 1.774
3.664 10.622 1.763
3.6589999 10.614 1.751
3.668 10.628 1.75
3.664 10.622 1.739
3.668 10.627 1.734
3.665 10.622 1.723
3.6630001 10.619 1.7130001
3.665 10.622 1.706
3.6619999 10.617 1.6950001
3.661 10.615 1.687
3.664 10.619 1.6799999
3.668 10.625 1.675
3.6589999 10.611 1.66
3.6630001 10.618 1.655
3.6570001 10.608 1.642
3.6589999 10.611 1.636
3.6600001 10.612 1.6289999
3.6619999 10.615 1.622
3.6619999 10.614 1.614
3.6670001 10.621 1.609
3.668 10.623 1.602
3.6670001 10.621 1.5930001
3.6689999 10.624 1.587
3.6619999 10.613 1.574
3.6689999 10.624 1.571
3.6559999 10.603 1.553
3.665 10.617 1.552
3.6659999 10.619 1.545
3.658 10.605 1.53
3.6600001 10.609 1.524
3.6659999 10.617 1.52
3.6730001 10.628 1.517
3.6689999 10.622 1.507
3.658 10.604 1.4910001
3.6619999 10.611 1.4859999
3.661 10.609 1.477
3.671 10.623 1.476
3.6619999 10.609 1.462
3.664 10.612 1.456
3.6659999 10.615 1.449
3.671 10.623 1.4450001
3.6600001 10.606 1.4299999
3.6689999 10.619 1.428
3.6619999 10.608 1.415
3.665 10.612 1.409
3.6659999 10.615 1.403
3.6630001 10.609 1.393
3.6700001 10.619 1.3890001
3.661 10.606 1.376
3.665 10.612 1.3710001
3.6670001 10.614 1.364
3.6630001 10.608 1.354
3.661 10.605 1.345
3.6659999 10.612 1.34
3.6600001 10.603 1.329
3.6589999 10.601 1.321
3.658 10.599 1.312
3.6619999 10.605 1.307
3.658 10.599 1.2970001
3.665 10.609 1.294
3.6589999 10.599 1.2819999
3.6600001 10.601 1.275
3.6589999 10.599 1.267
3.6570001 10.597 1.2589999
3.6589999 10.599 1.252
3.665 10.608 1.248
3.664 10.606 1.24
3.6630001 10.604 1.232
3.6589999 10.598 1.222
3.665 10.608 1.2180001
3.664 10.605 1.21
3.6600001 10.599 1.2
3.6619999 10.601 1.193
3.6630001 10.603 1.186
3.6619999 10.6 1.178
3.6600001 10.598 1.17
3.6659999 10.607 1.166
3.6619999 10.601 1.156
3.661 10.599 1.148
3.6670001 10.608 1.1440001
3.6589999 10.595 1.132
3.665 10.604 1.128
3.664 10.602 1.12
3.6619999 10.599 1.112
3.661 10.597 1.103
3.6570001 10.591 1.094
3.658 10.592 1.087
3.6570001 10.59 1.079
3.6600001 10.595 1.074
3.664 10.601 1.068
3.6570001 10.59 1.057
3.6630001 10.599 1.053
3.6570001 10.589 1.0420001
3.6570001 10.589 1.035
3.661 10.595 1.03
3.6600001 10.593 1.022
3.6570001 10.588 1.013
3.6670001 10.604 1.011
3.6600001 10.593 1
3.6600001 10.593 0.99299997
3.6589999 10.59 0.98500001
3.6600001 10.592 0.97799999
3.6570001 10.587 0.97000003
3.661 10.593 0.96399999
3.6589999 10.59 0.95599997
3.6659999 10.6 0.95200002
3.6619999 10.594 0.94300002
3.658 10.587 0.93400002
3.6559999 10.584 0.926
3.6570001 10.586 0.91900003
3.658 10.587 0.91299999
3.652 10.577 0.90200001
3.658 10.586 0.898
3.654 10.58 0.889
3.6619999 10.592 0.88499999
3.651 10.575 0.87300003
3.665 10.596 0.87199998
3.684 10.625 0.87300003
3.6800001 10.619 0.86500001
3.668 10.6 0.852
3.671 10.605 0.84600002
3.6619999 10.59 0.83499998
3.6670001 10.598 0.82999998
3.6719999 10.606 0.82499999
3.6730001 10.607 0.81900001
3.674 10.609 0.81199998
3.671 10.603 0.80299997
3.6689999 10.6 0.796
3.665 10.594 0.787
3.668 10.598 0.78100002
3.6619999 10.588 0.77100003
3.6719999 10.604 0.76800001
3.671 10.601 0.76099998
3.6760001 10.61 0.75599998
3.6670001 10.596 0.745
3.6719999 10.603 0.74000001
3.6659999 10.594 0.73100001
3.6670001 10.595 0.72399998
3.661 10.585 0.71499997
3.6659999 10.593 0.70999998
3.6719999 10.602 0.70499998
3.6700001 10.598 0.69700003
3.674 10.604 0.69099998
3.675 10.605 0.68400002
3.6700001 10.598 0.676
3.674 10.603 0.67000002
3.6700001 10.597 0.662
3.675 10.604 0.65600002
3.668 10.594 0.64700001
3.675 10.604 0.64200002
3.6670001 10.592 0.63300002
3.668 10.593 0.62599999
3.684 10.617 0.62400001
3.6630001 10.585 0.611
3.665 10.587 0.60399997
3.674 10.602 0.60000002
3.6670001 10.59 0.59100002
3.675 10.602 0.58600003
3.671 10.595 0.57800001
3.675 10.601 0.57200003
3.6789999 10.608 0.56699997
3.6670001 10.589 0.55599999
3.665 10.586 0.54900002
3.671 10.595 0.54299998
3.668 10.59 0.53600001
3.6760001 10.603 0.53100002
3.674 10.599 0.523
3.671 10.594 0.51599997
3.664 10.584 0.50700003
3.6689999 10.591 0.50099999
3.6670001 10.587 0.49399999
3.6760001 10.601 0.48899999
3.6659999 10.586 0.47999999
3.678 10.603 0.47600001
3.6719999 10.594 0.46799999
3.665 10.583 0.45899999
3.671 10.592 0.454
3.6600001 10.576 0.44400001
3.6670001 10.586 0.43900001
3.6700001 10.59 0.433
3.6630001 10.579 0.42399999
3.6760001 10.598 0.41999999
3.6659999 10.584 0.41100001
3.6830001 10.609 0.40799999
3.665 10.581 0.39700001
3.665 10.581 0.38999999
3.6689999 10.586 0.384
3.671 10.59 0.37799999
3.6719999 10.592 0.37099999
3.6760001 10.596 0.36500001
3.6730001 10.592 0.35800001
3.6630001 10.577 0.34900001
3.6689999 10.586 0.34299999
3.671 10.589 0.33700001
3.6689999 10.585 0.33000001
3.6719999 10.59 0.324
3.678 10.598 0.31799999
3.6760001 10.595 0.31099999
3.6659999 10.58 0.30199999
3.6689999 10.584 0.296
3.6719999 10.589 0.28999999
3.6760001 10.594 0.28299999
3.6700001 10.585 0.27599999
3.6700001 10.586 0.26899999
3.668 10.582 0.26199999
3.6659999 10.579 0.255
3.6689999 10.583 0.248
3.6719999 10.587 0.242
3.6760001 10.592 0.236
3.675 10.592 0.229
3.6730001 10.588 0.222
3.678 10.596 0.215
3.677 10.594 0.20900001
3.681 10.599 0.20200001
3.677 10.593 0.19499999
3.675 10.591 0.18799999
3.678 10.594 0.18099999
3.674 10.588 0.17399999
3.681 10.598 0.168
3.671 10.583 0.16
3.671 10.584 0.154
3.6800001 10.597 0.148
3.6789999 10.595 0.141
3.6819999 10.599 0.134
3.6789999 10.594 0.127
3.684 10.601 0.121
3.684 10.602 0.114
3.671 10.582 0.106
3.681 10.596 0.1
3.674 10.585 0.093000002
3.671 10.58 0.086000003
3.678 10.591 0.079999998
3.6789999 10.592 0.072999999
3.674 10.584 0.066
3.674 10.584 0.059
3.6719999 10.582 0.052000001
3.674 10.584 0.046
3.6760001 10.587 0.039000001
3.6789999 10.591 0.032000002
3.6730001 10.581 0.025
3.6730001 10.582 0.018999999
3.6789999 10.591 0.012
3.6600001 10.562 0.0049999999
3.6389999 10.634 2.994
3.6429999 10.639 2.9879999
3.638 10.631 2.9690001
3.628 10.616 2.9449999
3.638 10.63 2.947
3.6300001 10.617 2.924
3.635 10.624 2.921
3.6289999 10.615 2.902
3.6300001 10.617 2.8929999
3.6289999 10.614 2.8800001
3.632 10.619 2.8729999
3.6370001 10.626 2.869
3.631 10.617 2.8510001
3.631 10.617 2.8399999
3.6370001 10.625 2.8369999
3.6370001 10.625 2.8269999
3.6359999 10.623 2.8150001
3.6340001 10.621 2.802
3.635 10.621 2.7920001
3.631 10.615 2.777
3.6329999 10.618 2.7690001
3.6300001 10.612 2.753
3.6329999 10.616 2.747
3.6359999 10.62 2.74
3.6370001 10.622 2.7309999
3.6340001 10.617 2.7179999
3.631 10.613 2.704
3.6329999 10.616 2.6960001
3.638 10.622 2.6919999
3.5469999 10.48 2.563
3.5320001 10.456 2.533
3.5309999 10.454 2.5220001
3.5250001 10.444 2.5050001
3.5250001 10.445 2.4949999
3.523 10.441 2.483
3.5150001 10.428 2.4630001
3.5150001 10.428 2.454
3.5239999 10.442 2.4560001
3.523 10.439 2.444
3.5209999 10.436 2.4319999
3.5250001 10.443 2.4289999
3.5280001 10.446 2.4219999
3.523 10.439 2.4070001
3.5239999 10.439 2.398
3.5250001 10.441 2.391
3.5220001 10.436 2.3770001
3.526 10.442 2.3729999
3.53 10.448 2.368
3.5220001 10.436 2.3499999
3.527 10.442 2.346
3.5309999 10.45 2.3429999
3.5309999 10.449 2.3329999
3.5339999 10.453 2.3269999
3.523 10.435 2.3039999
3.523 10.435 2.2950001
3.5309999 10.448 2.296
3.529 10.444 2.2850001
3.529 10.443 2.2750001
3.5309999 10.447 2.2690001
3.5250001 10.437 2.253
3.5250001 10.437 2.244
3.5339999 10.45 2.2449999
3.5250001 10.436 2.2260001
3.527 10.439 2.2190001
3.5309999 10.445 2.214
3.5280001 10.44 2.2019999
3.543 10.464 2.211
3.5450001 10.466 2.204
3.55 10.474 2.2
3.5469999 10.468 2.188
3.552 10.476 2.184
3.559 10.486 2.1830001
3.5580001 10.486 2.174
3.5680001 10.501 2.1760001
3.5699999 10.503 2.1689999
3.576 10.512 2.1659999
3.579 10.517 2.161
3.573 10.507 2.145
3.5799999 10.518 2.1440001
3.592 10.536 2.1470001
3.5880001 10.529 2.1340001
3.5969999 10.544 2.1359999
3.5940001 10.539 2.1240001
3.592 10.535 2.112
3.599 10.546 2.1110001
3.6010001 10.548 2.1040001
3.608 10.559 2.102
3.612 10.566 2.098
3.6159999 10.571 2.0929999
3.6229999 10.581 2.0910001
3.6259999 10.586 2.085
3.6229999 10.581 2.073
3.6340001 10.598 2.076
3.6359999 10.601 2.069
3.6389999 10.605 2.063
3.6440001 10.613 2.059
3.642 10.609 2.0480001
3.6459999 10.615 2.0439999
3.652 10.624 2.0409999
3.6559999 10.631 2.036
3.654 10.627 2.0250001
3.6489999 10.619 2.0109999
3.6559999 10.629 2.0090001
3.6489999 10.618 1.994
3.6500001 10.62 1.9859999
3.6500001 10.619 1.977
3.6570001 10.63 1.975
3.654 10.625 1.964
3.655 10.626 1.956
3.658 10.631 1.95
3.6500001 10.618 1.934
3.6589999 10.631 1.933
3.6589999 10.631 1.925
3.6489999 10.615 1.9069999
3.6530001 10.622 1.902
3.6500001 10.617 1.891
3.654 10.623 1.886
3.6559999 10.626 1.88
3.6489999 10.614 1.865
3.661 10.632 1.867
3.652 10.619 1.851
3.654 10.622 1.844
3.654 10.621 1.835
3.6570001 10.627 1.83
3.6530001 10.619 1.817
3.655 10.622 1.811
3.6570001 10.625 1.804
3.6630001 10.634 1.801
3.6530001 10.618 1.783
3.652 10.617 1.775
3.6559999 10.622 1.77
3.6570001 10.624 1.762
3.658 10.624 1.7539999
3.6489999 10.61 1.738
3.661 10.629 1.74
3.6630001 10.632 1.734
3.6530001 10.616 1.717
3.658 10.623 1.7130001
3.6570001 10.622 1.704
3.651 10.613 1.691
3.655 10.618 1.686
3.652 10.613 1.675
3.661 10.627 1.675
3.6570001 10.621 1.663
3.6500001 10.609 1.649
3.6589999 10.623 1.648
3.6630001 10.628 1.643
3.6619999 10.627 1.6339999
3.6570001 10.619 1.622
3.658 10.621 1.615
3.652 10.612 1.602
3.652 10.61 1.594
3.655 10.616 1.589
3.6600001 10.623 1.584
3.661 10.624 1.577
3.6600001 10.623 1.568
3.6500001 10.606 1.552
3.6659999 10.631 1.557
3.658 10.619 1.543
3.6600001 10.621 1.536
3.654 10.612 1.524
3.655 10.614 1.517
3.654 10.612 1.508
3.654 10.611 1.5
3.6530001 10.609 1.4910001
3.661 10.622 1.489
3.6659999 10.628 1.485
3.6600001 10.619 1.472
3.6489999 10.602 1.457
3.651 10.605 1.451
3.6570001 10.614 1.447
3.6570001 10.613 1.439
3.6500001 10.603 1.426
3.652 10.606 1.42
3.6530001 10.607 1.413
3.654 10.608 1.405
3.6589999 10.615 1.401
3.6530001 10.606 1.3890001
3.6589999 10.615 1.386
3.6530001 10.605 1.374
3.6570001 10.611 1.369
3.652 10.603 1.358
3.6600001 10.615 1.355
3.6589999 10.614 1.347
3.655 10.608 1.337
3.655 10.607 1.329
3.651 10.6 1.319
3.6570001 10.61 1.3150001
3.6500001 10.6 1.303
3.6600001 10.614 1.302
3.658 10.611 1.293
3.6570001 10.609 1.285
3.6600001 10.613 1.279
3.655 10.606 1.268
3.6589999 10.612 1.263
3.6600001 10.613 1.256
3.6570001 10.607 1.2460001
3.655 10.604 1.238
3.6619999 10.615 1.234
3.6670001 10.623 1.23
3.6600001 10.612 1.2180001
3.6619999 10.615 1.212
3.654 10.602 1.2
3.655 10.604 1.193
3.6559999 10.605 1.186
3.655 10.603 1.177
3.652 10.598 1.168
3.6600001 10.61 1.165
3.6570001 10.604 1.156
3.655 10.601 1.148
3.654 10.6 1.14
3.6559999 10.602 1.133
3.6589999 10.607 1.128
3.6530001 10.598 1.117
3.654 10.599 1.11
3.654 10.599 1.103
3.6530001 10.598 1.095
3.6470001 10.588 1.084
3.654 10.598 1.08
3.6470001 10.587 1.069
3.6530001 10.597 1.0650001
3.6559999 10.601 1.059
3.6500001 10.591 1.049
3.651 10.592 1.0420001
3.654 10.597 1.0369999
3.661 10.607 1.0319999
3.6489999 10.589 1.0190001
3.648 10.587 1.012
3.651 10.592 1.006
3.6530001 10.594 0.99900001
3.6589999 10.603 0.995
3.6530001 10.594 0.98500001
3.648 10.587 0.97500002
3.6470001 10.585 0.96799999
3.6530001 10.593 0.963
3.655 10.596 0.95700002
3.6600001 10.604 0.95200002
3.6459999 10.582 0.93800002
3.6600001 10.604 0.93800002
3.645 10.58 0.92299998
3.6589999 10.602 0.92299998
3.6489999 10.586 0.91100001
3.6530001 10.592 0.90600002
3.6489999 10.585 0.89700001
