ply
format ascii 1.0
comment PCL generated
element vertex 648
property float x
property float y
property float z
element camera 1
property float view_px
property float view_py
property float view_pz
property float x_axisx
property float x_axisy
property float x_axisz
property float y_axisx
property float y_axisy
property float y_axisz
property float z_axisx
property float z_axisy
property float z_axisz
property float focal
property float scalex
property float scaley
property float centerx
property float centery
property int viewportx
property int viewporty
property float k1
property float k2
end_header
-7.5050001 -3.7030001 0.033
-7.4656668 -3.7046669 0.017000001
-6.3370004 -3.7077005 0.0352
-6.2783999 -3.7057998 0.0068000006
-7.6062217 -3.631 0.037111111
-7.5678291 -3.6388509 0.039234035
-7.4472532 -3.6491096 0.047436371
-6.5296884 -3.6372671 0.064911105
-6.4633446 -3.658771 0.039901637
-6.3380995 -3.6636477 0.067084476
-6.2713165 -3.6466002 0.029583335
-7.6030002 -3.5891666 0.058333334
-7.5811729 -3.547807 0.049673073
-7.4115 -3.5705001 0.055714291
-7.3495917 -3.5243411 0.050477266
-6.5245948 -3.5542123 0.070744686
-6.4586687 -3.5427012 0.04559793
-6.3429632 -3.5590825 0.053835299
-6.271667 -3.5772915 0.034854159
-7.5700912 -3.4497843 0.050324321
-7.3263946 -3.4524403 0.046164833
-6.5100002 -3.4909999 0.094999999
-8.4163332 -3.3116665 0.011
-8.3566008 -3.3108003 0.068599999
-7.5556536 -3.3501437 0.050682701
-7.4366474 -3.3128824 0.07670588
-7.343029 -3.3506746 0.049217816
-7.2947702 -3.3627691 0.051461536
-8.6094999 -3.2314999 0.0025000002
-8.5492697 -3.2378516 0.045643467
-8.4500542 -3.2788393 0.047017854
-8.3512163 -3.2694907 0.047411777
-8.2868576 -3.2475004 0.090571433
-7.5305099 -3.2719829 0.037229508
-7.4547014 -3.266511 0.035510637
-7.3773937 -3.2780354 0.021142857
-8.5424061 -3.1508503 0.043300748
-8.4568129 -3.1284742 0.055627126
-8.349227 -3.158205 0.052727278
-8.2811432 -3.1750712 0.073785715
-8.5387497 -3.0977499 0.016999999
-7.5169997 -3.6076667 0.101
-7.469667 -3.6164999 0.10966667
-6.6230321 -3.6246128 0.16661289
-6.5578804 -3.6426377 0.1438621
-6.44274 -3.660548 0.15720968
-6.3710947 -3.6381111 0.13398415
-7.6033998 -3.5447998 0.127
-7.5656695 -3.5408766 0.14008643
-7.4492307 -3.544975 0.15658976
-7.3511047 -3.5267086 0.15272918
-6.6243043 -3.5508919 0.17739129
-6.5589075 -3.5325792 0.13899064
-6.4461255 -3.5355225 0.15289775
-6.3658681 -3.5608435 0.14077114
-7.6033335 -3.4860001 0.18366668
-7.5769601 -3.4486866 0.14944117
-7.3289328 -3.4510663 0.14773625
-6.6090002 -3.4983335 0.17366669
-6.5633631 -3.4946363 0.17909092
-6.4990001 -3.5 0.17200001
-8.3156004 -3.3080003 0.13530001
-8.2720528 -3.3097367 0.16915789
-7.5430937 -3.3465693 0.14993584
-7.4479036 -3.3235157 0.14782256
-7.337357 -3.3563454 0.14898129
-7.2964296 -3.3592861 0.14014286
-8.511137 -3.2372274 0.1105909
-8.4558887 -3.2482281 0.15422882
-8.3567867 -3.2902343 0.15029787
-8.2397614 -3.2505476 0.15273808
-8.19275 -3.2402499 0.19050001
-7.5174999 -3.2985001 0.12450001
-7.4931998 -3.2919998 0.156
-8.5050011 -3.1780002 0.10716667
-8.4488201 -3.1510563 0.14649595
-8.3526487 -3.142019 0.1569804
-8.2559538 -3.1712785 0.15534882
-8.1883335 -3.1846666 0.183
-6.7140002 -3.6075716 0.27514288
-6.6577196 -3.6212397 0.24817999
-6.544755 -3.6402264 0.25466037
-6.4630218 -3.6287231 0.23304252
-7.6020002 -3.5020001 0.22
-7.5526071 -3.5087066 0.24778429
-7.4487538 -3.5183337 0.24893332
-7.3558111 -3.5249438 0.24775475
-6.7213416 -3.5605609 0.2803902
-6.6652002 -3.545892 0.23395389
-6.5282335 -3.5217671 0.25541863
-6.462081 -3.548732 0.2442946
-6.3829999 -3.543 0.206
-7.5714698 -3.451026 0.24982299
-7.330678 -3.4522002 0.24705549
-6.7087998 -3.4748001 0.28940001
-6.6489482 -3.4849865 0.25920784
-6.5624881 -3.4925606 0.25231704
-6.4850001 -3.4990001 0.26300001
-8.2434111 -3.3113329 0.24917948
-8.1754694 -3.3148825 0.2752353
-7.5390887 -3.3456695 0.24993908
-7.4481401 -3.3201408 0.24764909
-7.3368578 -3.3534744 0.24674563
-7.2947502 -3.3500001 0.25325
-8.4162884 -3.2450264 0.21973683
-8.3602867 -3.2567039 0.25939134
-8.2636156 -3.2832308 0.23584616
-8.1503277 -3.2528436 0.25187501
-8.085 -3.2060001 0.29300001
-7.5175996 -3.2953999 0.25120002
-7.4770002 -3.3 0.24699999
-8.4098177 -3.1713638 0.20772727
-8.3522196 -3.1542301 0.24731852
-8.2537622 -3.1605394 0.25287303
-8.1606436 -3.1830955 0.25878572
-8.0986671 -3.1916666 0.29466671
-6.7251906 -3.6056669 0.33652386
-6.6454411 -3.6217215 0.35397679
-6.5678649 -3.6215141 0.33370277
-7.5370908 -3.5085154 0.34196967
-7.4466987 -3.5159535 0.3492094
-7.3639135 -3.5220854 0.35031915
-6.8173218 -3.5506451 0.38303223
-6.7679152 -3.5578189 0.34461442
-6.6136365 -3.5442731 0.37536368
-6.5499625 -3.546701 0.34815454
-6.4983339 -3.5209999 0.30300003
-7.6114001 -3.4891999 0.35459998
-7.565073 -3.4507046 0.35000932
-7.333734 -3.4530916 0.34686738
-6.8147497 -3.4683747 0.38725001
-6.7463784 -3.4652219 0.35276848
-6.6505651 -3.4762032 0.35175365
-6.5687628 -3.4910247 0.34740469
-8.2339067 -3.3068442 0.3454375
-8.1508522 -3.320508 0.35124588
-8.0801773 -3.3193531 0.37429413
-7.5401039 -3.3467474 0.34936532
-7.4470477 -3.3171291 0.35006452
-7.3385816 -3.3535416 0.35063922
-8.3220673 -3.2560678 0.32732427
-8.2769995 -3.2572665 0.3689734
-8.1086159 -3.264231 0.31569234
-8.0551386 -3.2482808 0.35975438
-7.5133004 -3.2915001 0.35780001
-7.474 -3.299 0.33199999
-8.3173695 -3.1714208 0.31221053
-8.2591581 -3.1590006 0.3515293
-8.1551523 -3.1756778 0.35213557
-8.075305 -3.1924782 0.36573914
-6.7161436 -3.6094289 0.44378576
-6.6733751 -3.6089375 0.42487499
-7.5265212 -3.5047388 0.44760874
-7.4498725 -3.5110424 0.44806385
-7.36375 -3.5184999 0.44782501
-6.9158669 -3.531667 0.4844667
-6.8520665 -3.5533109 0.44519997
-6.757483 -3.5932906 0.455129
-6.6442857 -3.5506058 0.44993621
-6.592 -3.552 0.41049999
-7.6231995 -3.4812 0.43619999
-7.5665641 -3.4512451 0.44759434
-7.333818 -3.4504428 0.45118186
-6.9062004 -3.4817998 0.48960003
-6.8480659 -3.4510102 0.45482418
-6.7494493 -3.4503465 0.44596165
-6.6551828 -3.4755774 0.44712672
-6.5910006 -3.4846668 0.4086667
-8.22293 -3.3050005 0.43278569
-8.1500177 -3.3155868 0.45051727
-8.0521841 -3.3304336 0.4537501
-7.9827003 -3.3117001 0.47499999
-7.542829 -3.3490677 0.44827622
-7.4432874 -3.3130002 0.44638467
-7.3383942 -3.3502409 0.4525947
-7.2969999 -3.3900001 0.44
-6.869 -3.3970001 0.49900001
-8.2320023 -3.25699 0.43411955
-8.1877222 -3.2462502 0.47713894
-8.0223742 -3.234417 0.43300003
-7.965765 -3.2387259 0.46482345
-7.8990002 -3.23 0.49700001
-7.5208931 -3.2933569 0.4496786
-7.4874291 -3.2947145 0.45600003
-8.2180872 -3.1722357 0.41929412
-8.1537886 -3.1694109 0.45405263
-8.0556202 -3.1885002 0.45261896
-7.9875002 -3.2 0.44749999
-6.763 -3.6093335 0.51366663
-7.5327501 -3.5022497 0.53687501
-7.449615 -3.5073075 0.54697442
-7.3627858 -3.5117388 0.54992861
-7.0084996 -3.519875 0.58462501
-6.9476209 -3.534914 0.54481035
-6.8474121 -3.5711305 0.55360878
-6.7456527 -3.5534115 0.54793686
-6.6936154 -3.5346925 0.51092315
-7.6020002 -3.4790001 0.56
-7.5622449 -3.4563723 0.55099034
-7.4584999 -3.5 0.59150004
-7.3342738 -3.4524412 0.55055952
-7.0074997 -3.457 0.58749998
-6.9438176 -3.4450483 0.5517115
-6.8479471 -3.4271469 0.54425317
-6.7480888 -3.4573145 0.55198878
-6.6883683 -3.4757891 0.51505268
-8.1309071 -3.313628 0.54253489
-8.0481625 -3.3310542 0.55065447
-7.9556131 -3.3380873 0.55357891
-7.8769999 -3.3115001 0.58025002
-7.5464725 -3.3474727 0.54890013
-7.4443111 -3.3097775 0.54555553
-7.3415127 -3.3499155 0.54955149
-7.2869177 -3.3532503 0.55508339
-6.9353333 -3.3926668 0.57277775
-8.2019997 -3.296 0.50599998
-8.1382322 -3.2539613 0.53914559
-8.0784798 -3.2300003 0.58099997
-7.9349246 -3.2273767 0.54175484
-7.8761625 -3.244622 0.5681892
-7.5249257 -3.2911851 0.55181479
-7.4793334 -3.2954166 0.55408335
-8.1206188 -3.1762941 0.52591175
-8.0544806 -3.181416 0.55327278
-7.9759293 -3.1947863 0.56349999
-7.5450001 -3.5009999 0.62800002
-7.4473848 -3.5048461 0.64910251
-7.3603644 -3.5074246 0.64487875
-7.1009998 -3.5039999 0.68099999
-7.0381026 -3.5192564 0.65261531
-6.9506598 -3.5445242 0.64997733
-6.8458862 -3.5471001 0.64862853
-6.783134 -3.5243335 0.61306679
-7.5606599 -3.4602978 0.64918679
-7.4759998 -3.4988334 0.65916669
-7.3344355 -3.4503896 0.65193337
-7.1035004 -3.4519999 0.68700004
-7.0441751 -3.45436 0.64885324
-6.9460807 -3.4125407 0.63813508
-6.8442411 -3.4405921 0.65362144
-6.7809114 -3.4596472 0.61744118
-8.1049995 -3.3139999 0.60000002
-8.0443668 -3.319983 0.6455667
-7.9474025 -3.3446329 0.6490832
-7.8549995 -3.3404324 0.65318924
-7.7834001 -3.3185997 0.69160002
-7.5482788 -3.345645 0.64859122
-7.4349313 -3.3097587 0.64813793
-7.3418155 -3.3438241 0.64847255
-7.2836666 -3.3474998 0.62833333
-7.0261374 -3.3846822 0.66468173
-6.9656005 -3.3925717 0.65188581
-8.0423355 -3.2518034 0.64721483
-7.9499621 -3.2128851 0.65907687
-7.8517489 -3.2324719 0.6462779
-7.7788258 -3.2559133 0.67678261
-7.5300012 -3.2907875 0.64896971
-7.4709673 -3.2911673 0.65119994
-8.0328045 -3.1841664 0.62630552
-7.9700556 -3.1872361 0.65685445
-7.4363489 -3.5044498 0.74189997
-7.3769474 -3.5056844 0.74163157
-7.1077499 -3.5035 0.76724994
-7.050796 -3.5177495 0.75109094
-6.9496231 -3.5311637 0.74750811
-6.8833857 -3.5294616 0.71346152
-7.5611653 -3.4607422 0.74810302
-7.4627142 -3.4979048 0.7591905
-7.3372889 -3.4493852 0.74903607
-7.2919998 -3.484 0.77466667
-7.142662 -3.4644074 0.75313562
-7.0745006 -3.4326999 0.71740001
-6.9301214 -3.436569 0.7608155
-6.8782411 -3.4463706 0.72374201
-8.0100002 -3.3206253 0.71175003
-7.9500265 -3.3288469 0.74920839
-7.8552256 -3.3568978 0.74783665
-7.7547412 -3.3441291 0.75725806
-7.6976671 -3.3143334 0.78566664
-7.5505795 -3.3423555 0.74870008
-7.434279 -3.3081195 0.74519998
-7.3409986 -3.3390522 0.74855208
-7.2972002 -3.3444002 0.75640005
-7.1351671 -3.3709583 0.77562499
-7.0499325 -3.3768113 0.74981093
-6.9627581 -3.3932118 0.74921215
-8.0074997 -3.2725 0.70200002
-7.9494944 -3.2491913 0.75010431
-7.8455563 -3.2165878 0.74779367
-7.7460332 -3.2507007 0.74954993
-7.6840763 -3.2663076 0.78169233
-7.5261354 -3.2882433 0.74767566
-7.4633875 -3.2934835 0.74800003
-7.368 -3.299 0.73799998
-7.9341145 -3.1899714 0.73525721
-7.884584 -3.1934166 0.77033341
-7.4212503 -3.50525 0.84462494
-7.3905001 -3.5028334 0.84216678
-7.1115003 -3.5026252 0.84512502
-7.0493875 -3.5164549 0.84724987
-6.9814544 -3.5160909 0.80972725
-7.5592413 -3.4596484 0.84836262
-7.4557586 -3.4949095 0.85087883
-7.3486905 -3.4574902 0.84758186
-7.2385778 -3.467577 0.84576911
-7.1572428 -3.4862189 0.84975588
-7.0249996 -3.4536579 0.87894744
-6.9743662 -3.4487171 0.82786661
-7.9138999 -3.32585 0.81560004
-7.8539596 -3.3377838 0.85558099
-7.7586565 -3.3693435 0.85290623
-7.6505594 -3.3296001 0.8473199
-7.5612922 -3.3532908 0.84401804
-7.4328818 -3.3086474 0.83788234
-7.3384099 -3.3337209 0.8481074
-7.2286663 -3.3512084 0.86833346
-7.1509585 -3.3550282 0.8499577
-7.0493464 -3.3748055 0.8544026
-6.9794345 -3.3913481 0.83547825
-7.9060001 -3.2577779 0.81088889
-7.8519249 -3.2399924 0.85080832
-7.7518892 -3.2290323 0.85163486
-7.6521411 -3.2611408 0.85101753
-7.5298963 -3.286931 0.84979314
-7.4557443 -3.2913847 0.84976929
-7.3990002 -3.2985001 0.86150002
-7.847693 -3.1939232 0.82884622
-7.3829999 -3.5009999 0.90700001
-7.1304998 -3.507 0.93924999
-7.0745001 -3.5057502 0.90700006
-7.5619903 -3.4576473 0.94863766
-7.4535494 -3.4905746 0.94917518
-7.3613639 -3.4718642 0.94620448
-7.2363553 -3.4700322 0.94916123
-7.1408095 -3.4733186 0.95607936
-7.0714526 -3.4491508 0.93164158
-7.8158617 -3.3341722 0.92379314
-7.7608895 -3.3487222 0.95955575
-7.6592698 -3.3802307 0.95200002
-7.5713639 -3.3690004 0.94203037
-7.4336152 -3.304846 0.95184618
-7.3441572 -3.3218138 0.94657135
-7.2458515 -3.3295369 0.95466679
-7.1479878 -3.351434 0.95407909
-7.0737958 -3.3751819 0.93654567
-7.8135452 -3.2619095 0.91481817
-7.7588816 -3.2404151 0.94988137
-7.6536498 -3.242233 0.95079994
-7.5546789 -3.2698545 0.9475807
-7.453043 -3.2914565 0.94626087
-7.3889999 -3.2969999 0.95074999
-7.7459998 -3.198 0.94300002
-7.3666668 -3.5050001 1.071
-7.605 -3.4629998 1.0615
-7.5696239 -3.4543636 1.050909
-7.4507341 -3.4857776 1.0480889
-7.357687 -3.4702086 1.0508125
-7.2283497 -3.4581394 1.0569769
-7.1661472 -3.4407411 1.0300554
-7.7249408 -3.3433874 1.0323058
-7.6607409 -3.3629515 1.0600969
-7.5722313 -3.3845387 1.0497692
-7.4276924 -3.3156152 1.0597694
-7.3398895 -3.3096895 1.0438
-7.2398691 -3.3316061 1.0562763
-7.1660008 -3.3603857 1.0377856
-7.7212186 -3.2660935 1.01925
-7.6601582 -3.2451673 1.054804
-7.55475 -3.2573128 1.047953
-7.4600992 -3.2818596 1.0496799
-7.3620005 -3.2932999 1.0654
-7.3855453 -3.506 1.1514544
-7.6020002 -3.4549999 1.1210001
-7.5699511 -3.4490771 1.1516572
-7.4531279 -3.4832129 1.1513191
-7.3527017 -3.4662981 1.1573334
-7.2654443 -3.4300003 1.1356388
-7.6339426 -3.3465285 1.137614
-7.5872068 -3.3675585 1.1662353
-7.319788 -3.3259094 1.1589696
-7.2573171 -3.3459339 1.1406921
-7.6225905 -3.2644873 1.1255126
-7.5578561 -3.2520967 1.1580601
-7.4559407 -3.2701013 1.1464349
-7.3485007 -3.2803328 1.1498835
-7.2980003 -3.299 1.1495
-7.3876371 -3.5050001 1.246091
-7.603334 -3.4563332 1.235
-7.5666213 -3.4474123 1.2497339
-7.4534998 -3.4798753 1.2516502
-7.3522696 -3.4553707 1.2506703
-7.5698819 -3.3498638 1.2503334
-7.3306556 -3.344882 1.2518922
-7.2979999 -3.3610001 1.2029999
-7.5438681 -3.2726316 1.2485
-7.451261 -3.2680008 1.2525386
-7.3648987 -3.2896504 1.244625
-7.5700173 -3.4441049 1.3502367
-7.4541135 -3.4768863 1.3507954
-7.3547854 -3.4541936 1.3476325
-7.5680285 -3.3502963 1.348781
-7.4274998 -3.3065 1.377
-7.3349137 -3.3419836 1.3500593
-7.5419765 -3.274766 1.3510495
-7.4482079 -3.2766507 1.3508097
-7.3651438 -3.2926786 1.3543929
-7.5709257 -3.3512967 1.4496207
-7.4239998 -3.302 1.413
-7.3347168 -3.3491225 1.4506038
-7.5414243 -3.2726007 1.4487762
-7.452033 -3.2769377 1.4518281
-7.3604231 -3.2922666 1.4481333
-7.5647602 -3.4387069 1.5473127
-7.3588462 -3.4536836 1.5519593
-7.570622 -3.3505325 1.5489908
-7.4569998 -3.3010001 1.538
-7.3387952 -3.346108 1.5502055
-7.5395651 -3.2706234 1.5492473
-7.4519224 -3.2741847 1.5501693
-7.3600183 -3.2891645 1.5494727
-7.5625296 -3.4392231 1.6492823
-7.3508554 -3.4535666 1.6525557
-7.5714164 -3.3514152 1.6493676
-7.3383832 -3.3473334 1.6521817
-7.5436282 -3.2694077 1.6486048
-7.4513426 -3.2689502 1.6471148
-7.3553381 -3.2866247 1.647071
-7.6059999 -3.4295001 1.7635
-7.5673499 -3.4333248 1.746838
-7.4509726 -3.462611 1.7584999
-7.5744042 -3.3510091 1.7494056
-7.3409905 -3.3470087 1.7512627
-7.5476632 -3.2661159 1.7508107
-7.4500442 -3.2675371 1.7510597
-7.3573399 -3.2852678 1.7505357
-7.6040001 -3.428 1.826
-7.5672112 -3.4323366 1.8504375
-7.4511366 -3.456773 1.8501819
-7.3639765 -3.4481087 1.8485054
-7.6020002 -3.3900001 1.86
-7.5762892 -3.3523357 1.8498726
-7.3382149 -3.3495305 1.8490205
-7.5434055 -3.2624514 1.8486056
-7.4457507 -3.2653906 1.8476564
-7.3559842 -3.2833796 1.847759
-7.6015 -3.418 1.928
-7.5647526 -3.4287922 1.9522209
-7.4494672 -3.4556885 1.9499782
-7.3637748 -3.4430001 1.9492145
-7.5766954 -3.3484862 1.949257
-7.3414388 -3.3488872 1.947045
-7.5463567 -3.2611837 1.9495965
-7.4467235 -3.2634208 1.9464492
-7.3559852 -3.2825582 1.9546475
-7.5633602 -3.4286401 2.0497065
-7.4429598 -3.4559219 2.0498433
-7.3631682 -3.4371369 2.0512877
-7.6489172 -3.3655002 2.0880835
-7.575736 -3.3507376 2.0489612
-7.3420205 -3.3515584 2.0474408
-7.5507226 -3.2613401 2.0488658
-7.451334 -3.2601998 2.0485604
-7.3535624 -3.2845933 2.049875
-7.6029997 -3.408 2.158
-7.5613213 -3.4278986 2.1478302
-7.4467502 -3.4520211 2.151792
-7.3677635 -3.440429 2.1490958
-7.6389742 -3.3442922 2.1485574
-7.5721455 -3.3558781 2.13761
-7.3440604 -3.3512988 2.1482782
-7.6303687 -3.2739997 2.1769733
-7.5508432 -3.2591121 2.1458652
-7.4481826 -3.2573516 2.1512964
-7.3574772 -3.2820003 2.1483881
-7.6069999 -3.4145 2.2175
-7.5639281 -3.4246001 2.250114
-7.4474673 -3.4477785 2.2505112
-7.3652177 -3.4362874 2.2485342
-7.6180296 -3.3392856 2.2472577
-7.5809269 -3.3744075 2.2536669
-7.3468704 -3.3479757 2.2455113
-7.6290302 -3.2463136 2.245899
-7.5473037 -3.239151 2.2322264
-7.4491339 -3.2456508 2.2477334
-7.3561673 -3.2790833 2.2496169
-7.6208668 -3.1586981 2.2659061
-7.5461612 -3.1601048 2.2595584
-7.4766483 -3.1645105 2.2666273
-7.6020002 -3.404 2.3369999
-7.5671749 -3.4218764 2.3446314
-7.449429 -3.4425144 2.3472574
-7.3647437 -3.4380469 2.3476975
-7.6082139 -3.3256431 2.3255002
-7.5760279 -3.3585272 2.3560941
-7.3422942 -3.3500195 2.347353
-7.6120987 -3.2471569 2.3382349
-7.574193 -3.2571735 2.3557308
-7.4444218 -3.2470222 2.3525555
-7.3558674 -3.2779438 2.3532829
-7.6168113 -3.1490333 2.3455336
-7.5723796 -3.1298647 2.3360543
-7.4561305 -3.1477559 2.3452682
-7.6134324 -3.071243 2.3709729
-7.5468349 -3.0611775 2.3582914
-7.4687376 -3.0575566 2.3640821
-7.6030002 -3.401 2.493
-7.5626311 -3.4195187 2.4492223
-7.4475174 -3.4394133 2.4473104
-7.366632 -3.4309733 2.4484999
-7.6009998 -3.3770001 2.4170001
-7.5746112 -3.3502424 2.4503102
-7.3440909 -3.3444905 2.4502909
-7.5569997 -3.2502453 2.4522023
-7.4512963 -3.2476821 2.450227
-7.3538013 -3.2695205 2.4477599
-7.607389 -3.1359999 2.4263334
-7.5860577 -3.1548004 2.4566143
-7.4352117 -3.142231 2.4373848
-7.6086688 -3.0441229 2.437439
-7.5753217 -3.0413237 2.4434359
-7.4412222 -3.049156 2.4495716
-7.6063886 -2.9797223 2.4726114
-7.5536442 -2.9627337 2.4626667
-7.4621468 -2.9665902 2.4576716
-7.605 -2.895 2.48
-7.5637765 -3.4158444 2.550667
-7.4441214 -3.4388776 2.5481706
-7.3682261 -3.4275486 2.549516
-7.6046667 -3.3713336 2.5469999
-7.5805497 -3.3468294 2.5484598
-7.3488641 -3.3502743 2.5517457
-7.5496707 -3.2463048 2.5499575
-7.4489388 -3.24388 2.5513401
-7.3518982 -3.2688367 2.5479181
-7.5641341 -3.1370494 2.5370495
-7.4422226 -3.1298888 2.5181112
-7.5781469 -3.0505853 2.5500956
-7.4243608 -3.0470216 2.5425105
-7.3953338 -3.0150001 2.547667
-7.6041255 -2.942625 2.5227499
-7.5795345 -2.9418585 2.5440197
-7.4351106 -2.9477637 2.5434585
-7.395 -2.984 2.5704999
-7.6029997 -2.8924999 2.5745001
-7.5581784 -2.8641489 2.5683882
-7.4507685 -2.8638988 2.5620005
-7.6040001 -3.4100001 2.6489999
-7.5636334 -3.4128532 2.646951
-7.4455123 -3.4340513 2.6538463
-7.3727064 -3.428097 2.6607563
-7.6040001 -3.3853335 2.6733336
-7.5804896 -3.3496041 2.6461039
-7.3526716 -3.3495293 2.6572423
-7.5532198 -3.2478459 2.6495855
-7.4471059 -3.2377577 2.6512272
-7.3542104 -3.2669024 2.6553869
-7.5306664 -3.1529999 2.6333334
-7.5535507 -3.0363464 2.6371834
-7.4359093 -3.0169094 2.6276364
-7.565659 -2.9514289 2.6475713
-7.4174767 -2.9465683 2.6506362
-7.395308 -2.929846 2.6393847
-7.5702491 -2.8448155 2.6445267
-7.4243994 -2.8475003 2.6443291
-7.3906846 -2.8569999 2.6748424
-7.5503755 -2.7590468 2.6685464
-7.4446292 -2.7626987 2.6636028
-7.4000001 -2.79 2.675
-7.5425 -2.6925001 2.697
-7.559967 -3.4165335 2.7562165
-7.4499254 -3.4279001 2.7501752
-7.3739333 -3.424818 2.7509317
-7.6040001 -3.3555002 2.73475
-7.5827289 -3.3501298 2.7496502
-7.3566175 -3.3515944 2.7497854
-7.6009998 -3.2939999 2.783
-7.5537543 -3.2451224 2.7490149
-7.4472103 -3.2361779 2.7501769
-7.3545251 -3.2650254 2.7515132
-7.5159998 -3.1984999 2.7680001
-7.5417662 -2.9422839 2.7348831
-7.4499207 -2.9279997 2.7325602
-7.5553489 -2.8492105 2.7517371
-7.4175367 -2.8592923 2.7429028
-7.3888626 -2.8356822 2.74825
-7.5579224 -2.7430644 2.7402985
-7.421896 -2.7384326 2.7357168
-7.3892746 -2.7578499 2.7599499
-7.5436406 -2.67156 2.7683198
-7.4424863 -2.662147 2.7629268
-7.392417 -2.6685836 2.7709999
-7.543942 -2.5567648 2.7500589
-7.527 -3.5020001 2.8829999
-7.6071339 -3.4479337 2.8808
-7.5693264 -3.4449701 2.8514333
-7.4580226 -3.4408414 2.8484542
-7.3773499 -3.4224751 2.8493001
-7.6081109 -3.346278 2.8398333
-7.5877585 -3.3524818 2.8513007
-7.3569336 -3.349479 2.849678
-7.6044998 -3.2904999 2.8734999
-7.556088 -3.2457175 2.8505478
-7.4448161 -3.2288594 2.8491273
-7.3567648 -3.2622466 2.8519747
-7.5155001 -3.1989999 2.8199999
-7.48 -3.198 2.8599999
-7.5313582 -2.8408091 2.8364999
-7.4554758 -2.833333 2.8311906
-7.396667 -2.8151665 2.8168333
-7.5439668 -2.7483838 2.8487003
-7.4257894 -2.7638421 2.8578422
-7.3845625 -2.7461741 2.8435507
-7.5447764 -2.6446979 2.8452895
-7.4251423 -2.639612 2.8241639
-7.3817353 -2.6539063 2.8583126
-7.6040001 -2.5829999 2.8740001
-7.5402598 -2.5668602 2.8623402
-7.4371195 -2.5577588 2.8647101
-7.3894382 -2.5762501 2.875875
-7.6111665 -3.5123892 2.9709446
-7.5473609 -3.52262 2.9621596
-7.4831433 -3.5110717 2.9679289
-7.6070795 -3.4518001 2.9593801
-7.5858312 -3.4588466 2.9361227
-7.4613757 -3.4576662 2.9480627
-7.3743129 -3.4171875 2.9499376
-7.6057224 -3.3604445 2.9555559
-7.5858045 -3.3427603 2.9459848
-7.3570681 -3.349195 2.9506552
-7.6020002 -3.2920001 2.905
-7.5533757 -3.2406578 2.952342
-7.450109 -3.2199636 2.9475815
-7.3599391 -3.2540188 2.9510884
-7.5211997 -3.197 2.9586
-7.4450002 -3.1995001 2.9524999
-7.5180001 -2.819 2.9030001
-7.5226841 -2.7371705 2.9367075
-7.4465551 -2.7317226 2.9370556
-7.3855557 -2.7141113 2.9150002
-7.5325437 -2.6451747 2.9531755
-7.4295001 -2.6766248 2.9662499
-7.377296 -2.6455774 2.9424927
-7.5358014 -2.5419738 2.9446058
-7.4481549 -2.522577 2.9161155
-7.377552 -2.5506382 2.9496696
-7.5265284 -2.4740002 2.9704902
-7.446279 -2.4654536 2.9560232
-7.383081 -2.4651623 2.9708922
0 0 0 1 0 0 0 1 0 0 0 1 0 0 0 0 0 648 1 0 0
