ply
format ascii 1.0
comment PCL generated
element vertex 1764
property float x
property float y
property float z
element camera 0
property float view_px
property float view_py
property float view_pz
property float x_axisx
property float x_axisy
property float x_axisz
property float y_axisx
property float y_axisy
property float y_axisz
property float z_axisx
property float z_axisy
property float z_axisz
property float focal
property float scalex
property float scaley
property float centerx
property float centery
property int viewportx
property int viewporty
property float k1
property float k2
end_header
-22.723 6.8569999 2.7750001
-22.733999 6.8499999 2.7690001
-22.743999 6.8429999 2.7620001
-22.735001 6.849 2.744
-22.746 6.842 2.737
-22.745001 6.842 2.724
-22.747999 6.8400002 2.7119999
-22.754999 6.836 2.7030001
-22.771999 6.8249998 2.7
-22.771 6.8260002 2.687
-22.766001 6.829 2.671
-22.782 6.8189998 2.6670001
-22.806 6.8039999 2.6670001
-22.813999 6.7989998 2.6589999
-22.826 6.7909999 2.6530001
-22.815001 6.7979999 2.6340001
-22.816 6.7969999 2.6210001
-22.82 6.7950001 2.6110001
-22.813 6.7989998 2.5940001
-22.812 6.7989998 2.5799999
-22.820999 6.7940001 2.572
-22.816999 6.796 2.5580001
-22.813999 6.7979999 2.543
-22.816999 6.796 2.5320001
-22.809999 6.8000002 2.5150001
-22.818001 6.7950001 2.507
-22.806999 6.802 2.4879999
-22.815001 6.7969999 2.4790001
-22.811001 6.7989998 2.4649999
-22.819 6.7940001 2.4560001
-22.806999 6.802 2.437
-22.799999 6.8049998 2.421
-22.819 6.7930002 2.418
-22.804001 6.803 2.398
-22.816 6.7950001 2.391
-22.82 6.7930002 2.381
-22.816 6.7950001 2.3659999
-22.816 6.7950001 2.3540001
-22.823999 6.79 2.345
-22.812 6.7969999 2.3269999
-22.811001 6.7979999 2.3139999
-22.815001 6.7950001 2.303
-22.813999 6.7950001 2.2909999
-22.809999 6.7979999 2.276
-22.818001 6.7930002 2.267
-22.815001 6.7950001 2.253
-22.818001 6.7930002 2.243
-22.813999 6.7950001 2.2279999
-22.809999 6.7979999 2.214
-22.802 6.803 2.198
-22.801001 6.803 2.1849999
-22.809 6.7979999 2.177
-22.808001 6.7979999 2.164
-22.812 6.796 2.154
-22.808001 6.7979999 2.1389999
-22.811001 6.796 2.1289999
-22.819 6.7909999 2.1199999
-22.813 6.7950001 2.105
-22.801001 6.802 2.0880001
-22.820999 6.79 2.085
-22.813 6.7950001 2.069
-22.801001 6.802 2.0510001
-22.797001 6.8039999 2.0380001
-22.815001 6.7930002 2.033
-22.809999 6.796 2.0190001
-22.813999 6.7930002 2.0090001
-22.818001 6.7909999 1.998
-22.802 6.8010001 1.979
-22.813 6.7940001 1.972
-22.812 6.7940001 1.96
-22.812 6.7940001 1.948
-22.802999 6.8000002 1.932
-22.806 6.7979999 1.921
-22.805 6.7979999 1.909
-22.812 6.7940001 1.9
-22.806999 6.7969999 1.886
-22.806999 6.7969999 1.874
-22.827999 6.7839999 1.8710001
-22.804001 6.7979999 1.849
-22.823 6.7859998 1.845
-22.806 6.7969999 1.827
-22.809999 6.7940001 1.816
-22.816 6.79 1.807
-22.806999 6.796 1.7920001
-22.806999 6.796 1.78
-22.813 6.7919998 1.77
-22.82 6.7880001 1.761
-22.806999 6.796 1.744
-22.806999 6.796 1.733
-22.809 6.7940001 1.722
-22.808001 6.7950001 1.71
-22.787001 6.8080001 1.6900001
-22.802 6.7979999 1.684
-22.801001 6.7989998 1.6720001
-22.809999 6.7930002 1.664
-22.806 6.796 1.651
-22.804001 6.7969999 1.638
-22.811001 6.7919998 1.6289999
-22.798 6.8000002 1.613
-22.808001 6.7940001 1.605
-22.809999 6.7919998 1.594
-22.791 6.8039999 1.576
-22.808001 6.7930002 1.571
-22.811001 6.7919998 1.5599999
-22.801001 6.7969999 1.545
-22.797001 6.8000002 1.5319999
-22.802999 6.796 1.523
-22.804001 6.796 1.511
-22.808001 6.7930002 1.501
-22.802999 6.796 1.488
-22.816999 6.7870002 1.482
-22.808001 6.7930002 1.467
-22.795 6.8010001 1.451
-22.823999 6.783 1.45
-22.812 6.79 1.434
-22.798 6.7979999 1.418
-22.808001 6.7919998 1.41
-22.791 6.803 1.393
-22.806 6.7930002 1.387
-22.799999 6.7969999 1.373
-22.794001 6.8010001 1.36
-22.801001 6.796 1.351
-22.802999 6.7950001 1.34
-22.797001 6.7979999 1.327
-22.802999 6.7940001 1.318
-22.792999 6.8010001 1.304
-22.799999 6.796 1.294
-22.802 6.7950001 1.284
-22.799999 6.796 1.272
-22.798 6.7969999 1.26
-22.792 6.8010001 1.247
-22.802999 6.7940001 1.239
-22.797001 6.7979999 1.226
-22.806999 6.7909999 1.2180001
-22.808001 6.7909999 1.207
-22.798 6.7969999 1.193
-22.796 6.7979999 1.181
-22.808001 6.79 1.173
-22.804001 6.7930002 1.161
-22.802 6.7940001 1.15
-22.796 6.7979999 1.137
-22.801001 6.7940001 1.127
-22.784 6.8049998 1.1109999
-22.802 6.7940001 1.105
-22.797001 6.7969999 1.092
-22.790001 6.8010001 1.08
-22.805 6.7919998 1.072
-22.802 6.7930002 1.061
-22.799 6.7950001 1.049
-22.785999 6.803 1.034
-22.761999 6.8179998 1.018
-22.747999 6.8270001 1.003
-22.733 6.836 0.98799998
-22.726 6.8400002 0.97600001
-22.695 6.8590002 0.958
-22.705 6.8530002 0.949
-22.665001 6.8779998 0.92900002
-22.650999 6.8860002 0.91500002
-22.657 6.8829999 0.90600002
-22.65 6.8870001 0.89300001
-22.656 6.8829999 0.884
-22.665001 6.8769999 0.87599999
-22.653 6.8850002 0.86199999
-22.65 6.8860002 0.85100001
-22.663 6.8779998 0.84299999
-22.639999 6.8920002 0.82700002
-22.634001 6.8959999 0.81599998
-22.627001 6.9000001 0.80400002
-22.653 6.8839998 0.79799998
-22.646999 6.888 0.787
-22.639 6.8920002 0.77399999
-22.636999 6.8930001 0.76300001
-22.638 6.8930001 0.75300002
-22.643999 6.8889999 0.74400002
-22.646 6.888 0.73400003
-22.643 6.8899999 0.722
-22.649 6.8860002 0.713
-22.642 6.8899999 0.70099998
-22.635 6.895 0.68900001
-22.645 6.888 0.68099999
-22.641001 6.8909998 0.66900003
-22.646 6.8870001 0.66000003
-22.648001 6.8860002 0.64999998
-22.649 6.8850002 0.639
-22.634001 6.895 0.62599999
-22.650999 6.8839998 0.61900002
-22.649 6.8850002 0.60799998
-22.691 6.8590002 0.60500002
-22.771 6.809 0.60699999
-22.777 6.8049998 0.59799999
-22.802 6.789 0.59100002
-22.792 6.796 0.579
-22.789 6.7979999 0.56699997
-22.795 6.7940001 0.55800003
-22.792 6.7950001 0.546
-22.788 6.7979999 0.53500003
-22.789 6.7969999 0.52499998
-22.796 6.7930002 0.51499999
-22.796 6.7930002 0.50400001
-22.788 6.7969999 0.49200001
-22.782 6.8010001 0.48100001
-22.785999 6.7979999 0.47099999
-22.801001 6.789 0.46200001
-22.788 6.7969999 0.449
-22.802 6.7880001 0.44100001
-22.788 6.7969999 0.428
-22.791 6.7950001 0.41800001
-22.790001 6.796 0.40700001
-22.792999 6.7940001 0.39700001
-22.782 6.8000002 0.38499999
-22.783001 6.8000002 0.37400001
-22.775 6.8049998 0.36199999
-22.789 6.796 0.35299999
-22.785 6.7979999 0.34200001
-22.799 6.79 0.333
-22.783001 6.8000002 0.32100001
-22.788 6.7969999 0.31099999
-22.785 6.7979999 0.30000001
-22.794001 6.7919998 0.28999999
-22.787001 6.7969999 0.27900001
-22.785999 6.7969999 0.26800001
-22.791 6.7940001 0.25799999
-22.784 6.7979999 0.24600001
-22.792 6.7930002 0.237
-22.780001 6.8000002 0.22499999
-22.785999 6.7969999 0.215
-22.798 6.789 0.205
-22.780001 6.8000002 0.193
-22.788 6.7950001 0.183
-22.792999 6.7919998 0.17299999
-22.792999 6.7919998 0.162
-22.768 6.8070002 0.15000001
-22.790001 6.7930002 0.141
-22.782 6.7979999 0.13
-22.799 6.7880001 0.12
-22.788 6.7940001 0.109
-22.792999 6.7909999 0.098999999
-22.781 6.7989998 0.086999997
-22.781 6.7989998 0.077
-22.797001 6.789 0.067000002
-22.785999 6.796 0.056000002
-22.785999 6.7950001 0.045000002
-22.777 6.8010001 0.034000002
-22.784 6.7969999 0.024
-22.599001 6.9229999 2.9779999
-22.612 6.915 2.973
-22.615999 6.9130001 2.9619999
-22.614 6.9130001 2.948
-22.634001 6.901 2.948
-22.624001 6.9070001 2.928
-22.639 6.8979998 2.924
-22.642 6.8959999 2.9130001
-22.659 6.8850002 2.911
-22.655001 6.888 2.895
-22.66 6.8850002 2.885
-22.656 6.8870001 2.869
-22.664 6.881 2.8610001
-22.674999 6.875 2.855
-22.691999 6.8639998 2.852
-22.691999 6.8639998 2.839
-22.686001 6.868 2.822
-22.695 6.862 2.8150001
-22.709999 6.8530002 2.8099999
-22.705 6.855 2.7939999
-22.714001 6.8499999 2.7869999
-22.722 6.8449998 2.7780001
-22.728001 6.8410001 2.7690001
-22.738001 6.835 2.7620001
-22.743 6.8309999 2.7520001
-22.747999 6.8280001 2.7420001
-22.753 6.8249998 2.7309999
-22.754 6.8239999 2.7190001
-22.766001 6.8169999 2.7130001
-22.76 6.8200002 2.6960001
-22.798 6.796 2.7060001
-22.83 6.776 2.711
-22.806999 6.7909999 2.6849999
-22.830999 6.776 2.6849999
-22.82 6.783 2.6659999
-22.827999 6.777 2.6570001
-22.82 6.7820001 2.6400001
-22.825001 6.7789998 2.6300001
-22.826 6.7779999 2.6170001
-22.829 6.776 2.6059999
-22.822001 6.7800002 2.589
-22.818001 6.783 2.5739999
-22.830999 6.7750001 2.5680001
-22.82 6.7820001 2.549
-22.812 6.7859998 2.5320001
-22.808001 6.789 2.517
-22.808001 6.7880001 2.5039999
-22.816999 6.783 2.4960001
-22.816999 6.783 2.484
-22.816 6.783 2.471
-22.820999 6.7800002 2.46
-22.813 6.7849998 2.444
-22.813 6.7849998 2.431
-22.820999 6.7800002 2.4219999
-22.813 6.7849998 2.405
-22.816999 6.7820001 2.395
-22.820999 6.7789998 2.385
-22.825001 6.777 2.3740001
-22.806 6.7880001 2.352
-22.820999 6.7789998 2.3469999
-22.818001 6.7810001 2.3329999
-22.816999 6.7810001 2.3199999
-22.816999 6.7810001 2.3069999
-22.813 6.783 2.293
-22.816999 6.7810001 2.2820001
-22.825001 6.776 2.2739999
-22.809 6.7859998 2.2539999
-22.813 6.7839999 2.243
-22.823999 6.776 2.2360001
-22.816 6.7810001 2.22
-22.815001 6.7820001 2.207
-22.806999 6.7859998 2.191
-22.815001 6.7820001 2.1819999
-22.811001 6.7839999 2.168
-22.809999 6.7839999 2.1559999
-22.806 6.7870002 2.141
-22.794001 6.7940001 2.1229999
-22.813 6.7820001 2.1199999
-22.82 6.7779999 2.1110001
-22.804001 6.7880001 2.092
-22.811001 6.783 2.0829999
-22.809999 6.7839999 2.0699999
-22.809999 6.7839999 2.0580001
-22.822001 6.776 2.0510001
-22.813 6.7820001 2.0350001
-22.82 6.777 2.026
-22.801001 6.789 2.006
-22.812 6.7820001 1.998
-22.812 6.7820001 1.9859999
-22.815001 6.7800002 1.976
-22.811001 6.783 1.962
-22.806 6.7849998 1.948
-22.816999 6.7779999 1.941
-22.812 6.7810001 1.927
-22.815001 6.7789998 1.916
-22.811001 6.7820001 1.902
-22.809999 6.7820001 1.89
-22.805 6.7849998 1.876
-22.812 6.7810001 1.867
-22.822001 6.7740002 1.859
-22.813999 6.7789998 1.844
-22.813 6.7800002 1.832
-22.806999 6.783 1.818
-22.806999 6.783 1.806
-22.806 6.7839999 1.794
-22.820999 6.7740002 1.788
-22.804001 6.7849998 1.7690001
-22.809999 6.7810001 1.76
-22.813999 6.7779999 1.75
-22.804001 6.7849998 1.734
-22.808001 6.7820001 1.724
-22.799 6.7880001 1.7079999
-22.801001 6.7859998 1.698
-22.802999 6.7849998 1.687
-22.802999 6.7849998 1.675
-22.805 6.783 1.664
-22.804001 6.7839999 1.652
-22.806999 6.7820001 1.642
-22.799999 6.7859998 1.628
-22.806999 6.7820001 1.619
-22.812 6.7779999 1.609
-22.809999 6.7800002 1.596
-22.799999 6.7859998 1.581
-22.813999 6.777 1.575
-22.809 6.7800002 1.562
-22.813999 6.777 1.552
-22.811001 6.7789998 1.539
-22.805 6.7820001 1.526
-22.816 6.776 1.518
-22.806999 6.7810001 1.503
-22.802 6.7839999 1.49
-22.809 6.7800002 1.4809999
-22.806999 6.7810001 1.469
-22.813 6.777 1.459
-22.802999 6.783 1.4450001
-22.802999 6.783 1.433
-22.805 6.7820001 1.4220001
-22.795 6.7880001 1.408
-22.809 6.7789998 1.401
-22.802999 6.7820001 1.388
-22.802 6.783 1.376
-22.801001 6.7839999 1.364
-22.806999 6.7800002 1.355
-22.813 6.776 1.345
-22.808001 6.7789998 1.3329999
-22.798 6.7849998 1.318
-22.819 6.7719998 1.313
-22.794001 6.7870002 1.294
-22.808001 6.7789998 1.2869999
-22.811001 6.777 1.277
-22.796 6.7859998 1.261
-22.809999 6.777 1.2539999
-22.804001 6.7800002 1.2410001
-22.795 6.7859998 1.227
-22.809 6.7779999 1.22
-22.813999 6.7740002 1.21
-22.809999 6.777 1.198
-22.804001 6.7800002 1.1849999
-22.801001 6.7820001 1.173
-22.816 6.7729998 1.166
-22.809999 6.776 1.153
-22.790001 6.7880001 1.137
-22.797001 6.7839999 1.128
-22.799 6.783 1.117
-22.801001 6.7810001 1.1059999
-22.812 6.7750001 1.098
-22.813999 6.7729998 1.087
-22.811001 6.7750001 1.076
-22.812 6.7740002 1.0650001
-22.802999 6.7800002 1.051
-22.791 6.7870002 1.0369999
-22.781 6.7930002 1.024
-22.763 6.8049998 1.008
-22.747999 6.8140001 0.99400002
-22.733 6.823 0.97899997
-22.702 6.842 0.96100003
-22.695 6.8460002 0.94800001
-22.667999 6.8629999 0.93099999
-22.649 6.875 0.91600001
-22.648001 6.8759999 0.90499997
-22.638 6.882 0.89200002
-22.622999 6.8909998 0.87800002
-22.629 6.8870001 0.86900002
-22.639 6.881 0.86000001
-22.652 6.8730001 0.85299999
-22.638 6.882 0.83899999
-22.643999 6.8779998 0.829
-22.624001 6.8899999 0.815
-22.629999 6.8860002 0.80500001
-22.632 6.8850002 0.79500002
-22.632999 6.8839998 0.78500003
-22.629999 6.8860002 0.77399999
-22.635 6.8829999 0.764
-22.629 6.8860002 0.75199997
-22.636999 6.881 0.74400002
-22.639 6.8800001 0.73299998
-22.622999 6.8889999 0.72000003
-22.618 6.8930001 0.708
-22.627001 6.8870001 0.699
-22.615999 6.8940001 0.68699998
-22.622 6.8899999 0.67799997
-22.632 6.8839998 0.66900003
-22.624001 6.8889999 0.65700001
-22.635 6.882 0.648
-22.638 6.8790002 0.639
-22.628 6.8860002 0.62599999
-22.645 6.875 0.61900002
-22.634001 6.882 0.60600001
-22.652 6.8709998 0.59899998
-22.641001 6.8779998 0.58700001
-22.684 6.8509998 0.583
-22.780001 6.7909999 0.58899999
-22.785999 6.7870002 0.579
-22.783001 6.7880001 0.56800002
-22.794001 6.7820001 0.55800003
-22.799 6.7779999 0.54900002
-22.792 6.783 0.537
-22.809999 6.7719998 0.52899998
-22.806999 6.7729998 0.51700002
-22.790001 6.7839999 0.50400001
-22.791 6.783 0.49399999
-22.801001 6.776 0.484
-22.794001 6.7810001 0.47299999
-22.790001 6.783 0.461
-22.787001 6.7849998 0.44999999
-22.789 6.7839999 0.44
-22.789 6.7839999 0.42899999
-22.798 6.7779999 0.41999999
-22.792999 6.7810001 0.40799999
-22.795 6.7800002 0.398
-22.805 6.7740002 0.38800001
-22.797001 6.7779999 0.377
-22.796 6.7789998 0.366
-22.783001 6.7870002 0.35299999
-22.801001 6.776 0.345
-22.801001 6.776 0.33399999
-22.792999 6.7800002 0.32300001
-22.785999 6.7849998 0.31099999
-22.795 6.7789998 0.301
-22.792999 6.7800002 0.29100001
-22.797001 6.7779999 0.28
-22.785999 6.7839999 0.26899999
-22.791 6.7810001 0.25799999
-22.787001 6.783 0.24699999
-22.792 6.7810001 0.237
-22.775 6.7909999 0.22499999
-22.781 6.7870002 0.215
-22.778 6.789 0.204
-22.782 6.7859998 0.19400001
-22.774 6.7909999 0.183
-22.795 6.7779999 0.17399999
-22.780001 6.7870002 0.162
-22.792999 6.7789998 0.152
-22.790001 6.7810001 0.141
-22.781 6.7859998 0.13
-22.785999 6.783 0.12
-22.791 6.7800002 0.11
-22.778999 6.7870002 0.097999997
-22.788 6.7820001 0.088
-22.780001 6.7870002 0.077
-22.785 6.7839999 0.067000002
-22.775999 6.789 0.056000002
-22.789 6.7810001 0.046
-22.785 6.783 0.035
-22.777 6.7880001 0.024
-22.587999 6.9180002 2.9879999
-22.613001 6.902 2.9909999
-22.612 6.9029999 2.977
-22.612 6.9029999 2.9630001
-22.622999 6.8959999 2.957
-22.622 6.8969998 2.9430001
-22.635 6.888 2.9389999
-22.645 6.882 2.9319999
-22.643 6.8829999 2.9170001
-22.650999 6.8779998 2.9089999
-22.652 6.8769999 2.8959999
-22.649 6.8779998 2.882
-22.662001 6.8709998 2.8759999
-22.674 6.8629999 2.8710001
-22.671 6.8639998 2.8559999
-22.679001 6.8600001 2.848
-22.681 6.8579998 2.836
-22.679001 6.8590002 2.822
-22.698999 6.8470001 2.8199999
-22.709999 6.8400002 2.8139999
-22.708 6.8410001 2.8
-22.716 6.836 2.7909999
-22.733 6.8249998 2.7880001
-22.728001 6.8280001 2.7720001
-22.729 6.8270001 2.76
-22.725 6.8299999 2.7449999
-22.743 6.8189998 2.7420001
-22.74 6.8200002 2.727
-22.778999 6.796 2.737
-22.799999 6.783 2.7360001
-22.833 6.7620001 2.7420001
-22.823 6.7680001 2.723
-22.827999 6.7649999 2.7130001
-22.816999 6.7709999 2.694
-22.837 6.7589998 2.6919999
-22.826 6.7659998 2.6730001
-22.83 6.763 2.6619999
-22.834999 6.7600002 2.651
-22.830999 6.7620001 2.6359999
-22.827 6.7649999 2.6210001
-22.830999 6.7620001 2.6099999
-22.82 6.7690001 2.5910001
-22.836 6.7589998 2.5869999
-22.829 6.763 2.5699999
-22.829 6.763 2.5580001
-22.829 6.763 2.5439999
-22.834 6.7600002 2.5339999
-22.825001 6.7649999 2.517
-22.826 6.7649999 2.5039999
-22.822001 6.7670002 2.4890001
-22.834 6.7600002 2.483
-22.830999 6.7610002 2.4690001
-22.833 6.7600002 2.457
-22.822001 6.7659998 2.4389999
-22.823 6.7659998 2.427
-22.811001 6.7729998 2.4070001
-22.823 6.7649999 2.401
-22.819 6.7680001 2.3859999
-22.816 6.7690001 2.372
-22.823 6.7649999 2.3629999
-22.82 6.7670002 2.349
-22.82 6.7670002 2.3369999
-22.834999 6.757 2.3310001
-22.83 6.7600002 2.3169999
-22.819 6.7670002 2.299
-22.815001 6.7690001 2.2839999
-22.834999 6.757 2.2809999
-22.830999 6.7589998 2.267
-22.822001 6.7639999 2.2509999
-22.829 6.7600002 2.2420001
-22.818001 6.7670002 2.224
-22.822001 6.7649999 2.2130001
-22.816999 6.7670002 2.1989999
-22.813 6.77 2.184
-22.816999 6.7670002 2.174
-22.816 6.7680001 2.161
-22.808001 6.7729998 2.145
-22.815001 6.7680001 2.1359999
-22.815001 6.7680001 2.1240001
-22.811001 6.7709999 2.1099999
-22.816999 6.7670002 2.0999999
-22.813 6.7690001 2.0869999
-22.823999 6.7620001 2.079
-22.82 6.7639999 2.0650001
-22.816 6.7670002 2.0510001
-22.811001 6.77 2.0369999
-22.815001 6.7680001 2.026
-22.816999 6.7659998 2.0150001
-22.813999 6.7680001 2.0020001
-22.813 6.7680001 1.99
-22.802 6.7750001 1.972
-22.816 6.7659998 1.967
-22.808001 6.7709999 1.951
-22.819 6.7639999 1.944
-22.813999 6.7670002 1.9299999
-22.827999 6.7579999 1.924
-22.820999 6.763 1.909
-22.826 6.7589998 1.899
-22.822001 6.7620001 1.886
-22.822001 6.7620001 1.874
-22.816999 6.7649999 1.86
-22.816 6.7649999 1.847
-22.812 6.7680001 1.834
-22.823 6.7610002 1.826
-22.818001 6.7639999 1.812
-22.825001 6.7600002 1.803
-22.819 6.763 1.789
-22.811001 6.7680001 1.774
-22.820999 6.7620001 1.766
-22.812 6.7670002 1.751
-22.815001 6.7649999 1.7410001
-22.822001 6.7610002 1.732
-22.812 6.7659998 1.716
-22.819 6.7620001 1.707
-22.811001 6.7670002 1.692
-22.801001 6.7729998 1.677
-22.808001 6.7690001 1.668
-22.802999 6.7719998 1.654
-22.802 6.7719998 1.642
-22.808001 6.7690001 1.633
-22.811001 6.7659998 1.622
-22.806 6.77 1.609
-22.809 6.7680001 1.598
-22.806999 6.7690001 1.586
-22.802 6.7719998 1.573
-22.804001 6.77 1.562
-22.806999 6.7680001 1.551
-22.813999 6.7639999 1.5420001
-22.808001 6.7670002 1.529
-22.815001 6.763 1.5190001
-22.818001 6.7620001 1.5089999
-22.823999 6.757 1.5
-22.806 6.7680001 1.482
-22.820999 6.7589998 1.476
-22.808001 6.7670002 1.46
-22.811001 6.7649999 1.449
-22.825001 6.757 1.442
-22.806999 6.7670002 1.425
-22.802 6.7709999 1.4119999
-22.812 6.7639999 1.404
-22.811001 6.7649999 1.392
-22.813 6.763 1.381
-22.802999 6.7690001 1.367
-22.813999 6.763 1.359
-22.823999 6.756 1.351
-22.818001 6.7600002 1.337
-22.820999 6.7579999 1.327
-22.813999 6.7620001 1.314
-22.812 6.763 1.302
-22.811001 6.7639999 1.29
-22.813 6.7620001 1.28
-22.819 6.7589998 1.27
-22.809999 6.7649999 1.256
-22.808001 6.7659998 1.244
-22.813999 6.7620001 1.235
-22.816 6.7600002 1.224
-22.809999 6.7639999 1.211
-22.812 6.763 1.2
-22.813999 6.7610002 1.1900001
-22.808001 6.7649999 1.177
-22.806 6.7659998 1.165
-22.808001 6.7649999 1.154
-22.809999 6.763 1.1440001
-22.812 6.7620001 1.133
-22.806 6.7659998 1.12
-22.812 6.7620001 1.1109999
-22.813 6.7620001 1.1
-22.808001 6.7639999 1.087
-22.806 6.7659998 1.076
-22.802999 6.7670002 1.064
-22.816999 6.7579999 1.056
-22.816 6.7589998 1.045
-22.796 6.7719998 1.029
-22.781 6.7810001 1.0140001
-22.759001 6.7940001 0.99800003
-22.74 6.8060002 0.98199999
-22.725 6.8150001 0.96799999
-22.709999 6.8249998 0.95300001
-22.695 6.8340001 0.93900001
-22.667999 6.8509998 0.92199999
-22.657 6.8569999 0.90899998
-22.650999 6.8610001 0.89600003
-22.645 6.8649998 0.884
-22.615 6.8839998 0.86699998
-22.622999 6.8779998 0.85799998
-22.625999 6.8759999 0.84799999
-22.632 6.8730001 0.83899999
-22.629999 6.8740001 0.82800001
-22.601999 6.8909998 0.81099999
-22.620001 6.8800001 0.80500001
-22.622 6.8790002 0.79400003
-22.627001 6.8759999 0.78500003
-22.615999 6.882 0.77200001
-22.605 6.8889999 0.759
-22.615 6.8829999 0.75099999
-22.620001 6.8800001 0.741
-22.610001 6.8860002 0.72899997
-22.610001 6.8850002 0.71799999
-22.603001 6.8899999 0.70700002
-22.608999 6.8860002 0.69700003
-22.601999 6.8899999 0.685
-22.622999 6.8769999 0.67900002
-22.618 6.8800001 0.667
-22.624001 6.8769999 0.65799999
-22.617001 6.881 0.64600003
-22.629999 6.8730001 0.63800001
-22.614 6.882 0.625
-22.620001 6.8790002 0.61500001
-22.617001 6.881 0.60399997
-22.621 6.8779998 0.59500003
-22.622 6.8769999 0.58399999
-22.620001 6.8779998 0.574
-22.612 6.8829999 0.56199998
-22.674 6.8439999 0.56199998
-22.792 6.77 0.56999999
-22.799 6.7659998 0.56
-22.792999 6.7690001 0.54900002
-22.811001 6.7579999 0.54100001
-22.808001 6.7600002 0.52899998
-22.801001 6.7639999 0.51700002
-22.802 6.7639999 0.50700003
-22.790001 6.7709999 0.49399999
-22.799 6.7649999 0.48500001
-22.809999 6.7579999 0.47600001
-22.809 6.7589998 0.465
-22.781 6.776 0.44999999
-22.796 6.7670002 0.44100001
-22.796 6.7670002 0.43099999
-22.801001 6.7639999 0.421
-22.798 6.7649999 0.41
-22.805 6.7610002 0.40000001
-22.791 6.7690001 0.38699999
-22.796 6.7670002 0.377
-22.794001 6.7680001 0.366
-22.789 6.7709999 0.35499999
-22.799999 6.7639999 0.34599999
-22.802999 6.7620001 0.33500001
-22.788 6.7709999 0.32300001
-22.792999 6.7680001 0.31299999
-22.798 6.7639999 0.303
-22.795 6.7670002 0.29100001
-22.804001 6.7610002 0.28200001
-22.788 6.7709999 0.26899999
-22.796 6.7649999 0.25999999
-22.799 6.7639999 0.249
-22.794001 6.7659998 0.23800001
-22.787001 6.7709999 0.227
-22.797001 6.7649999 0.21699999
-22.797001 6.7639999 0.206
-22.792999 6.7670002 0.19499999
-22.794001 6.7659998 0.185
-22.790001 6.7690001 0.17399999
-22.795 6.7649999 0.164
-22.791 6.7680001 0.153
-22.796 6.7649999 0.142
-22.788 6.77 0.131
-22.785 6.7709999 0.12
-22.792999 6.7659998 0.11
-22.790001 6.7680001 0.098999999
-22.787001 6.77 0.088
-22.795 6.7639999 0.078000002
-22.778999 6.7750001 0.067000002
-22.792 6.7659998 0.057
-22.796 6.7639999 0.046999998
-22.785 6.7709999 0.035
-22.797001 6.763 0.025
-22.596001 6.9000001 2.984
-22.608 6.8930001 2.9779999
-22.622 6.8839998 2.974
-22.618999 6.8860002 2.9579999
-22.627001 6.881 2.951
-22.632 6.8779998 2.9400001
-22.625 6.882 2.9230001
-22.643999 6.8699999 2.9219999
-22.65 6.8660002 2.9119999
-22.638 6.8730001 2.891
-22.67 6.8530002 2.898
-22.648001 6.8670001 2.8710001
-22.672001 6.8520002 2.8729999
-22.677999 6.848 2.8640001
-22.683001 6.8449998 2.8529999
-22.684999 6.8429999 2.842
-22.684 6.8439999 2.8280001
-22.684999 6.8429999 2.8150001
-22.709999 6.8280001 2.8169999
-22.698999 6.8340001 2.7980001
-22.715 6.8239999 2.7939999
-22.719 6.822 2.783
-22.715 6.823 2.7679999
-22.716 6.823 2.756
-22.746 6.8039999 2.7609999
-22.806 6.7659998 2.783
-22.843 6.743 2.7909999
-22.83 6.7509999 2.77
-22.837999 6.7459998 2.7620001
-22.846001 6.7410002 2.753
-22.832001 6.75 2.7320001
-22.825001 6.7529998 2.7149999
-22.83 6.7509999 2.704
-22.837 6.7459998 2.6949999
-22.830999 6.75 2.6789999
-22.830999 6.7490001 2.6659999
-22.839001 6.744 2.6570001
-22.836 6.7459998 2.642
-22.836 6.7459998 2.6300001
-22.837 6.7459998 2.6170001
-22.833 6.7480001 2.602
-22.851 6.7360001 2.599
-22.846001 6.7399998 2.5829999
-22.834 6.7470002 2.5639999
-22.841 6.743 2.5539999
-22.83 6.7490001 2.536
-22.830999 6.7480001 2.523
-22.834999 6.7459998 2.513
-22.823999 6.7529998 2.494
-22.832001 6.7470002 2.4849999
-22.825001 6.7519999 2.4690001
-22.823999 6.7519999 2.4560001
-22.829 6.7490001 2.4449999
-22.829 6.7490001 2.4330001
-22.816999 6.756 2.414
-22.825001 6.7509999 2.405
-22.829 6.7490001 2.395
-22.820999 6.7529998 2.378
-22.823999 6.7509999 2.3670001
-22.833 6.7459998 2.359
-22.818001 6.7550001 2.339
-22.833 6.7459998 2.3329999
-22.833 6.7459998 2.3210001
-22.818001 6.7550001 2.3010001
-22.813999 6.7579999 2.286
-22.825001 6.75 2.28
-22.827999 6.7480001 2.2690001
-22.816999 6.7550001 2.2509999
-22.82 6.7529998 2.24
-22.823999 6.7509999 2.2290001
-22.823999 6.7509999 2.217
-22.830999 6.7459998 2.2079999
-22.823 6.7509999 2.1919999
-22.815001 6.756 2.1760001
-22.815001 6.756 2.1630001
-22.813999 6.756 2.151
-22.826 6.7490001 2.1440001
-22.820999 6.7519999 2.1289999
-22.820999 6.7519999 2.1170001
-22.823999 6.75 2.1059999
-22.816 6.7550001 2.0899999
-22.823 6.75 2.0810001
-22.823 6.75 2.069
-22.822001 6.7509999 2.0569999
-22.816999 6.7529998 2.0420001
-22.829 6.7459998 2.0350001
-22.832001 6.744 2.0250001
-22.823 6.75 2.0079999
-22.808001 6.7589998 1.99
-22.818001 6.7519999 1.982
-22.813999 6.7550001 1.9680001
-22.825001 6.7480001 1.961
-22.813 6.7550001 1.944
-22.816999 6.7529998 1.934
-22.823 6.7490001 1.924
-22.826 6.7459998 1.914
-22.813999 6.7540002 1.897
-22.820999 6.7490001 1.888
-22.816 6.7519999 1.874
-22.816 6.7529998 1.8609999
-22.823 6.7480001 1.852
-22.822001 6.7490001 1.84
-22.827999 6.7449999 1.831
-22.816 6.7519999 1.814
-22.815001 6.7529998 1.802
-22.813999 6.7529998 1.789
-22.805 6.7589998 1.774
-22.819 6.75 1.768
-22.813999 6.7529998 1.7539999
-22.820999 6.7490001 1.745
-22.812 6.7540002 1.73
-22.815001 6.7519999 1.719
-22.834 6.7399998 1.715
-22.816999 6.7509999 1.697
-22.808001 6.756 1.681
-22.819 6.7490001 1.674
-22.820999 6.7480001 1.663
-22.82 6.7480001 1.651
-22.815001 6.7509999 1.637
-22.818001 6.75 1.627
-22.808001 6.7550001 1.612
-22.809999 6.7540002 1.601
-22.813999 6.7519999 1.59
-22.823 6.7459998 1.582
-22.806999 6.756 1.5650001
-22.822001 6.7470002 1.559
-22.808001 6.7550001 1.5420001
-22.811001 6.7529998 1.5319999
-22.820999 6.7470002 1.523
-22.816 6.75 1.51
-22.809999 6.7529998 1.497
-22.805 6.757 1.484
-22.811001 6.7519999 1.474
-22.818001 6.7480001 1.465
-22.808001 6.7540002 1.45
-22.815001 6.75 1.441
-22.816999 6.7480001 1.4299999
-22.816 6.7490001 1.418
-22.816 6.7490001 1.4069999
-22.820999 6.7459998 1.397
-22.818001 6.7480001 1.385
-22.816999 6.7480001 1.373
-22.83 6.7399998 1.3660001
-22.825001 6.743 1.353
-22.82 6.7459998 1.34
-22.823 6.744 1.33
-22.816999 6.7480001 1.316
-22.82 6.7459998 1.306
-22.813999 6.75 1.293
-22.82 6.7459998 1.283
-22.806 6.7540002 1.268
-22.812 6.75 1.258
-22.818001 6.7470002 1.249
-22.820999 6.744 1.238
-22.818001 6.7470002 1.226
-22.811001 6.7509999 1.2130001
-22.813999 6.7490001 1.2029999
-22.823 6.743 1.194
-22.834 6.7360001 1.186
-22.823 6.7420001 1.1720001
-22.811001 6.75 1.1569999
-22.82 6.744 1.148
-22.806 6.7529998 1.133
-22.812 6.7490001 1.124
-22.819 6.7449999 1.114
-22.816999 6.7459998 1.103
-22.809999 6.75 1.09
-22.816 6.7459998 1.08
-22.809999 6.75 1.067
-22.816 6.7459998 1.058
-22.826 6.7399998 1.049
-22.812 6.7490001 1.034
-22.809 6.75 1.023
-22.764999 6.7779999 1.001
-22.743 6.7919998 0.98400003
-22.732 6.7979999 0.97100002
-22.725 6.803 0.958
-22.701 6.8179998 0.94199997
-22.687 6.8260002 0.92799997
-22.677 6.8330002 0.91399997
-22.653 6.8470001 0.898
-22.635 6.8590002 0.88300002
-22.621 6.868 0.87
-22.614 6.8720002 0.85699999
-22.608 6.875 0.84600002
-22.622999 6.8660002 0.838
-22.607 6.8759999 0.824
-22.613001 6.8720002 0.815
-22.601999 6.8790002 0.80199999
-22.604 6.8779998 0.792
-22.614 6.8720002 0.78299999
-22.601999 6.8790002 0.76999998
-22.604 6.8779998 0.75999999
-22.593 6.8839998 0.74800003
-22.603001 6.8779998 0.73900002
-22.6 6.8800001 0.72799999
-22.612 6.8720002 0.72000003
-22.598 6.881 0.70700002
-22.608 6.875 0.69800001
-22.597 6.882 0.685
-22.586 6.888 0.67299998
-22.604 6.8769999 0.66600001
-22.605 6.8759999 0.65600002
-22.601999 6.8779998 0.64499998
-22.604 6.8769999 0.63499999
-22.593 6.8839998 0.62199998
-22.601999 6.8779998 0.61299998
-22.598 6.8800001 0.602
-22.614 6.8699999 0.59500003
-22.605 6.8759999 0.583
-22.606001 6.875 0.57200003
-22.608 6.8740001 0.56199998
-22.608 6.8740001 0.55199999
-22.631001 6.8590002 0.54500002
-22.791 6.7589998 0.56
-22.806999 6.7480001 0.55199999
-22.804001 6.75 0.54000002
-22.811001 6.7449999 0.53100002
-22.799 6.7529998 0.51800001
-22.792 6.757 0.50599998
-22.792999 6.756 0.49599999
-22.809999 6.7449999 0.48699999
-22.806999 6.7470002 0.47600001
-22.806999 6.7470002 0.465
-22.796 6.7540002 0.45300001
-22.797001 6.7540002 0.442
-22.806 6.7480001 0.433
-22.801001 6.7509999 0.42199999
-22.799999 6.7509999 0.41100001
-22.801001 6.75 0.40000001
-22.798 6.7519999 0.389
-22.796 6.7540002 0.37799999
-22.804001 6.7480001 0.368
-22.808001 6.7459998 0.35800001
-22.806 6.7470002 0.347
-22.809999 6.744 0.33700001
-22.791 6.756 0.324
-22.806 6.7470002 0.315
-22.802999 6.7490001 0.30399999
-22.781 6.763 0.29100001
-22.809999 6.744 0.28299999
-22.798 6.7509999 0.271
-22.796 6.7529998 0.25999999
-22.801001 6.7490001 0.25
-22.805 6.7470002 0.23999999
-22.798 6.7509999 0.228
-22.802999 6.7480001 0.21799999
-22.782 6.7610002 0.206
-22.797001 6.7519999 0.19599999
-22.804001 6.7470002 0.186
-22.789 6.756 0.17399999
-22.798 6.7509999 0.164
-22.794001 6.7529998 0.153
-22.785999 6.7579999 0.142
-22.795 6.7529998 0.132
-22.792 6.7540002 0.121
-22.797001 6.7509999 0.111
-22.808001 6.744 0.101
-22.778999 6.7620001 0.088
-22.801001 6.7480001 0.079000004
-22.798 6.75 0.068000004
-22.798 6.75 0.057999998
-22.795 6.7519999 0.046999998
-22.791 6.7540002 0.035999998
-22.788 6.756 0.025
-22.608 6.881 2.9820001
-22.607 6.881 2.9679999
-22.617001 6.875 2.961
-22.625 6.8699999 2.9530001
-22.620001 6.8730001 2.937
-22.642 6.8590002 2.937
-22.632 6.8649998 2.918
-22.636999 6.862 2.908
-22.657 6.849 2.9070001
-22.664 6.8449998 2.898
-22.667999 6.842 2.8870001
-22.677999 6.836 2.8800001
-22.667 6.842 2.8610001
-22.674999 6.8379998 2.852
-22.695 6.8249998 2.8510001
-22.691 6.8270001 2.836
-22.691 6.8270001 2.822
-22.705 6.8179998 2.8180001
-22.705 6.8179998 2.8050001
-22.691999 6.8260002 2.7839999
-22.704 6.8189998 2.7780001
-22.709 6.8150001 2.7679999
-22.834999 6.7329998 2.503
-22.823999 6.7399998 2.484
-22.830999 6.7360001 2.4749999
-22.834999 6.7329998 2.464
-22.826 6.7389998 2.447
-22.834999 6.7329998 2.4389999
-22.834 6.7329998 2.4260001
-22.836 6.7319999 2.414
-22.837999 6.73 2.402
-22.844 6.7259998 2.3929999
-22.833 6.7340002 2.3740001
-22.837 6.7309999 2.3640001
-22.829 6.7360001 2.3469999
-22.841999 6.7280002 2.3410001
-22.841999 6.7270002 2.329
-22.841999 6.7270002 2.316
-22.830999 6.7340002 2.2980001
-22.849001 6.723 2.2939999
-22.841 6.7280002 2.2780001
-22.860001 6.7150002 2.2750001
-22.856001 6.7179999 2.26
-22.83 6.7340002 2.2349999
-22.837999 6.7290001 2.2260001
-22.83 6.7340002 2.21
-22.816999 6.7420001 2.1919999
-22.829 6.7350001 2.1849999
-22.827999 6.7350001 2.1719999
-22.832001 6.7319999 2.1619999
-22.823999 6.737 2.1459999
-22.834999 6.73 2.1389999
-22.830999 6.7329998 2.1240001
-22.83 6.7329998 2.112
-22.826 6.7360001 2.098
-22.825001 6.7360001 2.085
-22.837 6.7290001 2.0780001
-22.836 6.7290001 2.066
-22.827999 6.7340002 2.05
-22.839001 6.7270002 2.0420001
-22.837999 6.7270002 2.03
-22.837999 6.7280002 2.017
-22.836 6.7290001 2.0050001
-22.830999 6.7309999 1.9910001
-22.827999 6.7340002 1.977
-22.822001 6.737 1.962
-22.83 6.7319999 1.954
-22.829 6.7319999 1.941
-22.813999 6.7420001 1.923
-22.829 6.7329998 1.9170001
-22.832001 6.7309999 1.906
-22.816 6.7410002 1.888
-22.823 6.7360001 1.8789999
-22.833 6.7290001 1.8710001
-22.820999 6.737 1.854
-22.823999 6.7350001 1.8430001
-22.815001 6.7399998 1.8279999
-22.832001 6.7290001 1.823
-22.820999 6.7360001 1.807
-22.832001 6.7290001 1.799
-22.827 6.7319999 1.785
-22.822001 6.7350001 1.771
-22.809 6.744 1.755
-22.823999 6.7340002 1.749
-22.806999 6.7449999 1.73
-22.818001 6.7379999 1.723
-22.816 6.7379999 1.71
-22.827 6.7309999 1.7029999
-22.822001 6.7350001 1.689
-22.829 6.73 1.6799999
-22.823999 6.7329998 1.666
-22.815001 6.7389998 1.651
-22.820999 6.7350001 1.642
-22.823999 6.7329998 1.631
-22.815001 6.7389998 1.6160001
-22.816999 6.737 1.6059999
-22.823999 6.7329998 1.596
-22.819 6.7360001 1.5829999
-22.825001 6.7319999 1.573
-22.82 6.7350001 1.5599999
-22.806 6.743 1.544
-22.820999 6.7340002 1.5369999
-22.816 6.737 1.524
-22.806 6.743 1.5089999
-22.820999 6.7340002 1.503
-22.819 6.7350001 1.49
-22.806 6.743 1.474
-22.812 6.7389998 1.465
-22.823 6.7319999 1.457
-22.813 6.7379999 1.442
-22.812 6.7389998 1.4299999
-22.818001 6.7350001 1.421
-22.820999 6.7340002 1.41
-22.827 6.7290001 1.401
-22.809999 6.7399998 1.3839999
-22.816 6.7360001 1.375
-22.822001 6.7319999 1.365
-22.820999 6.7329998 1.354
-22.823 6.7309999 1.3430001
-22.826 6.73 1.332
-22.82 6.7329998 1.319
-22.813999 6.737 1.306
-22.816 6.7350001 1.295
-22.818001 6.7340002 1.285
-22.812 6.737 1.271
-22.827 6.7280002 1.2640001
-22.813 6.737 1.249
-22.823 6.73 1.2410001
-22.833 6.724 1.232
-22.823 6.73 1.2180001
-22.829 6.7259998 1.209
-22.823 6.73 1.1950001
-22.825001 6.7280002 1.1849999
-22.815001 6.7350001 1.171
-22.813 6.7360001 1.159
-22.823 6.7290001 1.151
-22.816999 6.7329998 1.138
-22.819 6.7319999 1.127
-22.82 6.7309999 1.1160001
-22.827 6.7270002 1.107
-22.825001 6.7280002 1.095
-22.818001 6.7319999 1.082
-22.82 6.7309999 1.071
-22.819 6.7319999 1.0599999
-22.812 6.7360001 1.0470001
-22.818001 6.7319999 1.038
-22.816 6.7329998 1.026
-22.797001 6.7449999 1.01
-22.77 6.7620001 0.99199998
-22.739 6.7820001 0.97399998
-22.736 6.783 0.96200001
-22.722 6.7919998 0.94800001
-22.698 6.8070002 0.93199998
-22.679001 6.8189998 0.91600001
-22.66 6.8309999 0.90100002
-22.653999 6.835 0.889
-22.639 6.8439999 0.875
-22.612 6.8610001 0.85799998
-22.599001 6.869 0.84500003
-22.591999 6.8740001 0.833
-22.598 6.8699999 0.82300001
-22.599001 6.869 0.81300002
-22.587999 6.8759999 0.80000001
-22.59 6.875 0.79000002
-22.596001 6.8709998 0.78100002
-22.576 6.8829999 0.76599997
-22.582001 6.8790002 0.75700003
-22.598 6.869 0.75
-22.591999 6.8730001 0.73799998
-22.582001 6.8790002 0.72600001
-22.584 6.8779998 0.71499997
-22.593 6.8720002 0.70700002
-22.586 6.8769999 0.69499999
-22.587 6.8759999 0.685
-22.591999 6.8720002 0.67500001
-22.580999 6.8790002 0.66299999
-22.586 6.8759999 0.653
-22.584 6.8769999 0.64200002
-22.589001 6.8740001 0.63300002
-22.587 6.875 0.62199998
-22.584 6.8769999 0.611
-22.59 6.8730001 0.602
-22.603001 6.8649998 0.59399998
-22.594999 6.8699999 0.58200002
-22.587999 6.8740001 0.56999999
-22.580999 6.8779998 0.55900002
-22.598 6.8670001 0.551
-22.587 6.8740001 0.53899997
-22.591999 6.8709998 0.52899998
-22.652 6.8330002 0.528
-22.785 6.7490001 0.53899997
-22.799999 6.7389998 0.52999997
-22.801001 6.7389998 0.51899999
-22.798 6.7410002 0.50800002
-22.799999 6.7389998 0.498
-22.809 6.7329998 0.48800001
-22.806 6.7350001 0.477
-22.812 6.7319999 0.46700001
-22.794001 6.743 0.454
-22.816 6.7290001 0.44600001
-22.801001 6.7379999 0.433
-22.813999 6.73 0.42399999
-22.818001 6.7270002 0.414
-22.816 6.7290001 0.403
-22.808001 6.7329998 0.391
-22.805 6.7350001 0.38
-22.802 6.737 0.36899999
-22.799999 6.7379999 0.35800001
-22.823 6.724 0.34999999
-22.813 6.73 0.338
-22.809999 6.7319999 0.32699999
-22.806999 6.7340002 0.31600001
-22.808001 6.7329998 0.30500001
-22.805 6.7340002 0.294
-22.804001 6.7350001 0.28299999
-22.808001 6.7329998 0.273
-22.806 6.7340002 0.26199999
-22.799 6.7379999 0.25
-22.816999 6.7270002 0.241
-22.797001 6.7389998 0.229
-22.798 6.7389998 0.21799999
-22.792999 6.7410002 0.207
-22.802 6.7360001 0.197
-22.802999 6.7350001 0.18700001
-22.815001 6.7270002 0.177
-22.804001 6.7340002 0.16500001
-22.805 6.7340002 0.155
-22.797001 6.7389998 0.14300001
-22.789 6.744 0.132
-22.802 6.7350001 0.123
-22.809999 6.73 0.112
-22.798 6.7379999 0.101
-22.806999 6.7319999 0.090999998
-22.796 6.7389998 0.079000004
-22.799999 6.7360001 0.068999998
-22.804001 6.7329998 0.059
-22.801001 6.7360001 0.048
-22.789 6.743 0.035999998
-22.802 6.7340002 0.027000001
-22.601999 6.8720002 2.9809999
-22.618 6.862 2.9790001
-22.620001 6.8600001 2.967
-22.624001 6.8579998 2.9560001
-22.624001 6.8579998 2.9419999
-22.642 6.8470001 2.941
-22.642 6.8460002 2.928
-22.657 6.8369999 2.924
-22.649 6.842 2.9059999
-22.649 6.8410001 2.8929999
-22.66 6.8340001 2.8859999
-22.650999 6.8400002 2.8670001
-22.691 6.8150001 2.8789999
-22.672001 6.8270001 2.8540001
-22.679001 6.822 2.845
-22.691999 6.8140001 2.8399999
-22.687 6.8169999 2.8239999
-22.686001 6.8179998 2.8099999
-22.694 6.8119998 2.802
-23.086 6.5599999 2.4660001
-23.056999 6.5780001 2.4389999
-23.030001 6.5960002 2.4119999
-23.018 6.6030002 2.3929999
-22.997999 6.6149998 2.3710001
-22.948 6.6469998 2.3329999
-22.944 6.6490002 2.319
-22.921 6.664 2.2939999
-22.931999 6.6570001 2.2869999
-22.92 6.664 2.2690001
-22.909 6.671 2.2509999
-22.921 6.664 2.244
-22.912001 6.6690001 2.227
-22.910999 6.6690001 2.214
-22.916 6.6659999 2.204
-22.915001 6.6669998 2.191
-22.934999 6.6539998 2.187
-22.910999 6.6690001 2.164
-22.909 6.6700001 2.151
-22.917999 6.664 2.142
-22.917 6.665 2.1300001
-22.905001 6.6719999 2.112
-22.916 6.665 2.1040001
-22.92 6.6630001 2.0929999
-22.922001 6.6609998 2.082
-22.922001 6.6609998 2.0699999
-22.926001 6.6589999 2.059
-22.917 6.664 2.043
-22.931 6.6550002 2.036
-22.934999 6.652 2.026
-22.955 6.6399999 2.0220001
-22.827999 6.7199998 1.931
-22.816999 6.7270002 1.915
-22.811001 6.7309999 1.9
-22.826 6.7199998 1.895
-22.837999 6.7129998 1.888
-22.83 6.7179999 1.872
-22.833 6.7160001 1.8609999
-22.836 6.7140002 1.851
-22.843 6.71 1.842
-22.826 6.7199998 1.823
-22.83 6.7179999 1.812
-22.837 6.7129998 1.803
-22.832001 6.7160001 1.789
-22.847 6.7059999 1.784
-22.823 6.7220001 1.762
-22.83 6.717 1.753
-22.833 6.7150002 1.743
-22.827 6.7189999 1.729
-22.813999 6.7270002 1.712
-22.833 6.7150002 1.707
-22.823999 6.7199998 1.692
-22.83 6.7160001 1.683
-22.833 6.7140002 1.6720001
-22.823999 6.7199998 1.6569999
-22.836 6.7129998 1.649
-22.83 6.7160001 1.636
-22.827999 6.717 1.623
-22.827 6.7179999 1.6109999
-22.822001 6.7210002 1.598
-22.825001 6.7189999 1.587
-22.827999 6.717 1.577
-22.83 6.7150002 1.566
-22.820999 6.7210002 1.551
-22.827999 6.717 1.5420001
-22.825001 6.7179999 1.529
-22.826 6.7179999 1.518
-22.811001 6.7270002 1.501
-22.83 6.7150002 1.4960001
-22.834999 6.711 1.4859999
-22.833 6.7129998 1.474
-22.84 6.7080002 1.465
-22.819 6.7220001 1.446
-22.820999 6.7199998 1.436
-22.815001 6.724 1.4220001
-22.837999 6.7090001 1.418
-22.823999 6.7179999 1.402
-22.830999 6.7140002 1.393
-22.841 6.7069998 1.385
-22.827 6.7160001 1.369
-22.834999 6.711 1.36
-22.827999 6.7150002 1.346
-22.830999 6.7129998 1.336
-22.820999 6.7189999 1.321
-22.827999 6.7150002 1.312
-22.834 6.711 1.302
-22.825001 6.717 1.288
-22.830999 6.7129998 1.279
-22.816999 6.7210002 1.263
-22.827 6.7150002 1.255
-22.82 6.7189999 1.242
-22.827 6.7150002 1.232
-22.820999 6.7179999 1.219
-22.836 6.7090001 1.212
-22.826 6.7150002 1.198
-22.84 6.7059999 1.191
-22.833 6.71 1.178
-22.834999 6.7090001 1.1670001
-22.833 6.71 1.155
-22.82 6.7189999 1.14
-22.837 6.7069998 1.1339999
-22.830999 6.711 1.1210001
-22.833 6.71 1.11
-22.839001 6.7059999 1.1
-22.83 6.7119999 1.087
-22.843 6.7030001 1.079
-22.829 6.7129998 1.064
-22.837999 6.7069998 1.0549999
-22.836 6.7069998 1.044
-22.843 6.7030001 1.034
-22.833 6.71 1.02
-22.839001 6.7059999 1.011
-22.799 6.7309999 0.99000001
-22.736 6.7709999 0.96399999
-22.719999 6.7810001 0.949
-22.712999 6.7849998 0.93699998
-22.694 6.7969999 0.921
-22.677999 6.8070002 0.90700001
-22.669001 6.8130002 0.89399999
-22.636999 6.8330002 0.87599999
-22.620001 6.8439999 0.861
-22.605 6.8530002 0.847
-22.601999 6.855 0.83600003
-22.596001 6.8579998 0.824
-22.59 6.8629999 0.81199998
-22.583 6.8670001 0.80000001
-22.559 6.881 0.78500003
-22.573 6.8730001 0.77700001
-22.575001 6.8720002 0.76700002
-22.584999 6.8649998 0.759
-22.577999 6.8699999 0.74699998
-22.563 6.8790002 0.73299998
-22.580999 6.868 0.72600001
-22.559999 6.8800001 0.71200001
-22.563 6.8790002 0.70200002
-22.580999 6.8670001 0.69499999
-22.577999 6.869 0.68400002
-22.591 6.8600001 0.676
-22.572001 6.8720002 0.662
-22.58 6.8670001 0.653
-22.562 6.8779998 0.63999999
-22.566999 6.875 0.63
-22.577 6.869 0.62199998
-22.573999 6.8699999 0.611
-22.570999 6.8720002 0.60000002
-22.584 6.8639998 0.59200001
-22.580999 6.8660002 0.58099997
-22.570999 6.8720002 0.56800002
-22.566999 6.875 0.55699998
-22.587999 6.8610001 0.551
-22.587999 6.8610001 0.54000002
-22.584999 6.8629999 0.52899998
-22.582001 6.8649998 0.51800001
-22.577999 6.8670001 0.50700003
-22.808001 6.7220001 0.53200001
-22.813 6.7179999 0.52200001
-22.816999 6.7150002 0.51200002
-22.823 6.7119999 0.50199997
-22.827999 6.7080002 0.49200001
-22.816 6.7160001 0.479
-22.801001 6.7259998 0.46599999
-22.813999 6.717 0.45699999
-22.82 6.7140002 0.447
-22.820999 6.7129998 0.43700001
-22.809999 6.7199998 0.42399999
-22.806999 6.7220001 0.41299999
-22.799 6.7259998 0.40099999
-22.804001 6.723 0.391
-22.816 6.7150002 0.382
-22.813 6.717 0.37099999
-22.813999 6.717 0.36000001
-22.815001 6.7160001 0.34999999
-22.82 6.7129998 0.33899999
-22.813 6.717 0.32800001
-22.813999 6.7160001 0.317
-22.806 6.7210002 0.30599999
-22.816 6.7150002 0.296
-22.815001 6.7150002 0.285
-22.816 6.7140002 0.27399999
-22.805 6.7210002 0.26199999
-22.806999 6.7199998 0.252
-22.813999 6.7160001 0.242
-22.811001 6.7179999 0.23100001
-22.813999 6.7160001 0.22
-22.801001 6.724 0.208
-22.820999 6.711 0.2
-22.822001 6.71 0.189
-22.820999 6.711 0.178
-22.816999 6.7129998 0.167
-22.806999 6.7199998 0.155
-22.827 6.7059999 0.146
-22.804001 6.7210002 0.134
-22.805 6.7210002 0.123
-22.801001 6.723 0.112
-22.806 6.7199998 0.102
-22.794001 6.7270002 0.090000004
-22.795 6.7259998 0.079999998
-22.802999 6.7210002 0.07
-22.796 6.7249999 0.059
-22.804001 6.7199998 0.048
-22.796 6.7249999 0.037
-22.805 6.7199998 0.027000001
-22.597 6.8629999 2.9820001
-22.614 6.8520002 2.98
-22.608999 6.855 2.9630001
-22.627001 6.8429999 2.9619999
-22.625 6.8449998 2.947
-22.625 6.8449998 2.934
-22.635 6.8379998 2.927
-22.639 6.836 2.9159999
-22.656 6.8249998 2.914
-22.646 6.8309999 2.8940001
-22.653999 6.8260002 2.8859999
-22.650999 6.8270001 2.8710001
-22.656 6.8239999 2.8610001
-22.665001 6.8189998 2.8529999
-22.68 6.8080001 2.8499999
-22.693001 6.8010001 2.8440001
-22.693001 6.8000002 2.8310001
-23.097 6.54 2.4879999
-23.061001 6.5619998 2.457
-23.024 6.586 2.425
-23.023001 6.586 2.4119999
-22.988001 6.6090002 2.381
-22.965 6.6230001 2.3570001
-22.951 6.632 2.3380001
-22.927 6.6469998 2.313
-22.938 6.6399999 2.306
-22.910999 6.6570001 2.28
-22.919001 6.652 2.2709999
-22.919001 6.652 2.2579999
-22.917999 6.652 2.2449999
-22.917999 6.652 2.233
-22.917999 6.652 2.22
-22.921 6.6490002 2.2090001
-22.927999 6.645 2.2
-22.933001 6.6420002 2.1889999
-22.931 6.6430001 2.1760001
-22.916 6.6529999 2.1570001
-22.924 6.6479998 2.148
-22.931 6.6430001 2.1389999
-22.914 6.6539998 2.118
-22.922001 6.6479998 2.1099999
-22.93 6.6430001 2.0999999
-22.917 6.651 2.0829999
-22.927999 6.6440001 2.075
-22.927 6.645 2.062
-22.941999 6.6350002 2.056
-22.968 6.619 2.0550001
-22.832001 6.7020001 1.58
-22.813 6.7119999 1.321
-22.82 6.7069998 1.312
-22.844999 6.691 1.308
-22.841999 6.6929998 1.295
-22.833 6.6989999 1.281
-22.834 6.698 1.27
-22.83 6.6999998 1.258
-22.823999 6.704 1.244
-22.819 6.7069998 1.232
-22.834999 6.697 1.225
-22.833 6.698 1.2130001
-22.834 6.697 1.202
-22.836 6.6960001 1.191
-22.823 6.704 1.177
-22.825001 6.7030001 1.166
-22.851999 6.6849999 1.038
-22.862 6.678 1.029
-22.834999 6.6950002 1.011
-22.841999 6.691 1.002
-22.832001 6.697 0.98799998
-22.771999 6.7350001 0.963
-22.719999 6.7680001 0.94
-22.701 6.7800002 0.92400002
-22.677999 6.7950001 0.90799999
-22.663 6.8039999 0.89399999
-22.657 6.8080001 0.88200003
-22.629 6.8249998 0.86500001
-22.622999 6.829 0.85299999
-22.601 6.8429999 0.83700001
-22.589001 6.8509998 0.824
-22.591999 6.849 0.81400001
-22.572001 6.8610001 0.79900002
-22.57 6.862 0.78899997
-22.547001 6.8769999 0.773
-22.561001 6.868 0.76599997
-22.566999 6.8639998 0.75599998
-22.566999 6.8639998 0.74599999
-22.552 6.8730001 0.73199999
-22.558001 6.869 0.72299999
-22.566999 6.8639998 0.71499997
-22.559999 6.868 0.70300001
-22.575001 6.8579998 0.69499999
-22.555 6.8709998 0.68099999
-22.559999 6.868 0.67199999
-22.556999 6.869 0.66100001
-22.575001 6.8579998 0.65399998
-22.556 6.8699999 0.63999999
-22.549999 6.8740001 0.62800002
-22.549999 6.8740001 0.61799997
-22.551001 6.8730001 0.60799998
-22.562 6.8660002 0.59899998
-22.573999 6.8579998 0.59100002
-22.563 6.8649998 0.579
-22.572001 6.8590002 0.56999999
-22.562 6.8660002 0.55800003
-22.563999 6.8649998 0.54799998
-22.556 6.8699999 0.53600001
-22.584999 6.8509998 0.52999997
-22.554001 6.8709998 0.51499999
-22.556 6.869 0.505
-22.566 6.8629999 0.49599999
-22.577 6.8559999 0.48800001
-22.826 6.697 0.514
-22.813 6.7059999 0.50099999
-22.822001 6.6989999 0.49200001
-22.827 6.6960001 0.48199999
-22.827999 6.6950002 0.47099999
-22.829 6.6950002 0.46000001
-22.834 6.6919999 0.44999999
-22.823 6.698 0.43799999
-22.823 6.698 0.42699999
-22.819 6.7010002 0.41600001
-22.830999 6.6929998 0.40599999
-22.822001 6.6989999 0.39399999
-22.823999 6.698 0.384
-22.813 6.704 0.37200001
-22.826 6.6960001 0.36199999
-22.805 6.71 0.34900001
-22.816 6.7030001 0.34
-22.808001 6.7069998 0.32800001
-22.816999 6.7010002 0.31799999
-22.805 6.7090001 0.30599999
-22.809999 6.7049999 0.296
-22.819 6.6989999 0.28600001
-22.82 6.6989999 0.27500001
-22.804001 6.7090001 0.26300001
-22.816999 6.7010002 0.25400001
-22.822001 6.697 0.243
-22.806 6.7069998 0.23100001
-22.813999 6.7030001 0.221
-22.806 6.7069998 0.20999999
-22.812 6.704 0.199
-22.809 6.7049999 0.18799999
-22.818001 6.6999998 0.178
-22.805 6.7080002 0.167
-22.805 6.7080002 0.156
-22.794001 6.7150002 0.14399999
-22.820999 6.697 0.13600001
-22.804001 6.7080002 0.124
-22.811001 6.7030001 0.113
-22.809 6.7049999 0.103
-22.805 6.7069998 0.092
-22.805 6.7069998 0.081
-22.795 6.7140002 0.07
-22.825001 6.6939998 0.061000001
-22.815001 6.7010002 0.048999999
-22.815001 6.6999998 0.039000001
-22.812 6.7030001 0.028000001
-22.613001 6.8400002 2.983
-22.618999 6.8369999 2.973
-22.613001 6.8400002 2.9560001
-22.628 6.8309999 2.9530001
-22.634001 6.8270001 2.9430001
-22.617001 6.8379998 2.9189999
-22.628 6.8299999 2.9130001
-22.658001 6.8109999 2.9189999
-22.648001 6.8179998 2.8989999
-22.656 6.8119998 2.891
-22.664 6.8070002 2.8829999
-22.677 6.7989998 2.878
-22.68 6.7969999 2.8659999
-23.105 6.5209999 2.5090001
-23.066999 6.546 2.4760001
-23.045 6.5599999 2.4519999
-23.014 6.579 2.4230001
-22.99 6.5949998 2.398
-22.966999 6.6090002 2.3740001
-22.937 6.6279998 2.346
-22.924999 6.6350002 2.3280001
-22.940001 6.6259999 2.323
-22.927999 6.6329999 2.3039999
-22.913 6.6420002 2.2839999
-22.917 6.6399999 2.273
-22.921 6.638 2.2620001
-22.936001 6.6279998 2.257
-22.916 6.6399999 2.2349999
-22.92 6.638 2.224
-22.924 6.6350002 2.2130001
-22.915001 6.6409998 2.1960001
-22.924 6.6350002 2.188
-22.922001 6.6360002 2.175
-22.93 6.631 2.1659999
-22.937 6.6269999 2.1559999
-22.931999 6.6290002 2.142
-22.927999 6.632 2.1270001
-22.931 6.6300001 2.1159999
-22.931999 6.6290002 2.1040001
-22.93 6.6300001 2.0910001
-22.93 6.6300001 2.0780001
-22.948 6.619 2.0739999
-22.964001 6.6079998 2.069
-22.841 6.6789999 1.025
-22.849001 6.6729999 1.016
-22.851 6.6719999 1.006
-22.839001 6.6799998 0.991
-22.843 6.677 0.98100001
-22.716999 6.7579999 0.94
-22.708 6.763 0.92699999
-22.68 6.7810001 0.91000003
-22.681999 6.7789998 0.89999998
-22.648001 6.8010001 0.88099998
-22.648001 6.8010001 0.87
-22.625 6.816 0.85500002
-22.615999 6.8210001 0.84200001
-22.604 6.829 0.829
-22.586 6.8400002 0.81400001
-22.575001 6.8470001 0.801
-22.561001 6.8559999 0.78799999
-22.542 6.869 0.773
-22.559999 6.8569999 0.76700002
-22.549 6.8639998 0.75400001
-22.558001 6.8569999 0.745
-22.547001 6.8649998 0.73299998
-22.540001 6.869 0.72100002
-22.549 6.8629999 0.71200001
-22.552 6.8610001 0.70200002
-22.540001 6.869 0.68900001
-22.528999 6.875 0.67699999
-22.542 6.8670001 0.66900003
-22.548 6.8629999 0.66000003
-22.549999 6.862 0.64999998
-22.555 6.8590002 0.63999999
-22.548 6.8629999 0.62900001
-22.554001 6.8590002 0.61900002
-22.549999 6.862 0.60799998
-22.546 6.8639998 0.597
-22.544001 6.8649998 0.58700001
-22.546 6.8639998 0.57700002
-22.551001 6.8610001 0.56699997
-22.535 6.8709998 0.55400002
-22.552999 6.8590002 0.54699999
-22.545 6.8639998 0.53500003
-22.551001 6.8600001 0.52600002
-22.552 6.8600001 0.51599997
-22.552999 6.8590002 0.50599998
-22.554001 6.8590002 0.495
-22.546 6.8629999 0.484
-22.545 6.8639998 0.47299999
-22.551001 6.8600001 0.46399999
-22.540001 6.8670001 0.45199999
-22.825001 6.6849999 0.472
-22.804001 6.698 0.42500001
-22.826 6.684 0.417
-22.823 6.6859999 0.40599999
-22.808001 6.6950002 0.39300001
-22.820999 6.6869998 0.384
-22.830999 6.6799998 0.375
-22.801001 6.6989999 0.36000001
-22.822001 6.6859999 0.352
-22.832001 6.6799998 0.34200001
-22.833 6.678 0.33199999
-22.818001 6.6880002 0.308
-22.806 6.6950002 0.296
-22.820999 6.6859999 0.287
-22.816 6.6890001 0.27599999
-22.823 6.6849999 0.266
