ply
format ascii 1.0
comment PCL generated
element vertex 537
property float x
property float y
property float z
element camera 1
property float view_px
property float view_py
property float view_pz
property float x_axisx
property float x_axisy
property float x_axisz
property float y_axisx
property float y_axisy
property float y_axisz
property float z_axisx
property float z_axisy
property float z_axisz
property float focal
property float scalex
property float scaley
property float centerx
property float centery
property int viewportx
property int viewporty
property float k1
property float k2
end_header
4.150413 -1.7078965 0.051620696
4.2604289 -1.7083572 0.047928575
4.1472907 -1.649505 0.050036456
4.2734442 -1.6388146 0.048074078
4.1636453 -1.5876458 0.050556961
4.233366 -1.5852252 0.052492965
3.5532498 -1.20725 0.041999999
4.493 -1.215 0.068999998
4.5152497 -1.2176667 0.045111109
3.5692153 -1.1881076 0.048123065
3.605 -1.182 0.096000001
4.198 -0.81099999 0.064000003
4.2222109 -0.8236056 0.048492957
4.3468332 -0.82950008 0.0515
4.1977501 -0.77525002 0.041249998
4.2185631 -0.75185758 0.049755692
4.3536668 -0.75244445 0.048999999
4.2314425 -0.69218606 0.052488364
4.3312502 -0.69109994 0.047450002
4.1545167 -1.7102413 0.14803445
4.2616253 -1.7088125 0.14349999
4.1454539 -1.6489891 0.15057218
4.2653794 -1.6411378 0.14679308
4.1620483 -1.5758334 0.15789214
4.232945 -1.5752392 0.15246484
4.1762586 -1.4501852 0.19270372
4.2541337 -1.4524002 0.18666665
4.1820436 -1.3493479 0.19165218
4.2481766 -1.3397646 0.18570589
3.642 -1.205 0.1682
4.1897893 -1.2549474 0.19068423
4.2415524 -1.2452413 0.18520691
4.4848752 -1.2131875 0.1586875
4.5085006 -1.2176363 0.13445453
3.5908575 -1.1863811 0.12338094
3.6172793 -1.1871859 0.15881397
4.1903849 -1.152077 0.19184618
4.2273669 -1.1444001 0.18403333
4.3140001 -1.151 0.186
4.194417 -1.0678334 0.19183335
4.2270241 -1.0476829 0.1846341
4.1960001 -0.94099998 0.198
4.2237964 -0.95238906 0.18542597
4.1950002 -0.80299997 0.153
4.2277989 -0.84224606 0.16228811
4.3328333 -0.82599998 0.14366667
4.1911998 -0.7798 0.182
4.2183452 -0.75146395 0.1487473
4.3497777 -0.74922228 0.141
4.2311153 -0.68955779 0.15055767
4.3423638 -0.68745452 0.15518184
4.15904 -1.70816 0.25255999
4.2609415 -1.7099411 0.24194117
4.1454086 -1.6479498 0.2498841
4.2575717 -1.65925 0.25160718
4.1556869 -1.5504622 0.24879709
4.2591906 -1.5560478 0.25452381
4.1674404 -1.4507244 0.24990307
4.2584615 -1.4600769 0.25576925
4.177938 -1.3482268 0.24873005
4.2737999 -1.3558999 0.2507
3.67575 -1.20575 0.22400001
4.1857271 -1.2506955 0.24860968
4.2230649 -1.2452581 0.24277416
4.4343338 -1.2143334 0.24933332
3.6435852 -1.1845384 0.25163075
3.7149999 -1.197 0.255
4.1907201 -1.1546152 0.24907692
4.215486 -1.139311 0.24513508
4.1923594 -1.0558907 0.2517187
4.2127476 -1.0491754 0.24642859
4.3033333 -1.043 0.26433337
4.1951761 -0.95941186 0.26141176
4.216238 -0.95079231 0.24857065
4.306572 -0.9701429 0.24128573
4.1973333 -0.89200008 0.26766667
4.2224779 -0.85018879 0.25047445
4.3243079 -0.84692311 0.24684615
4.1967502 -0.75999999 0.25650001
4.2221723 -0.75087059 0.25023785
4.3540835 -0.74608326 0.24933332
4.2240896 -0.68753588 0.25176787
4.3318934 -0.68400007 0.24571428
4.1646671 -1.7068334 0.31816667
4.2430768 -1.7066153 0.34653848
4.1474981 -1.6499692 0.34926662
4.2546935 -1.6427752 0.35930613
4.1635418 -1.5720828 0.34279808
4.2181931 -1.5615768 0.33811536
4.1783237 -1.4552648 0.30776474
4.2170496 -1.4477999 0.32010001
4.1866431 -1.3527857 0.30271429
4.2222004 -1.3449334 0.31279999
3.638 -1.204 0.303
4.1940002 -1.2536668 0.30149999
4.2235932 -1.2465926 0.3095926
4.4664164 -1.2092084 0.35987502
3.6726155 -1.1817232 0.34876928
3.707 -1.1799999 0.39700001
4.1919999 -1.1689999 0.30000001
4.2315516 -1.1484482 0.30775863
4.4632502 -1.1982501 0.37849998
4.2395926 -1.0522963 0.30618522
4.2560005 -0.94985718 0.30638099
4.3109999 -0.99000001 0.30399999
4.2526875 -0.85137492 0.30893755
4.1936464 -0.76505876 0.35064709
4.2177854 -0.74617505 0.34915254
4.3576665 -0.74299997 0.35699999
4.1967497 -0.67950004 0.35949999
4.2284756 -0.68385905 0.35356408
4.3533602 -0.68143994 0.34015998
4.4100003 -0.65889996 0.338
4.2574549 -1.7129091 0.43454546
4.1456518 -1.6498971 0.44842562
4.2502747 -1.6394999 0.45141941
4.160604 -1.5814158 0.44714862
4.2265558 -1.5873334 0.45555556
4.4633913 -1.207739 0.4362174
3.6925297 -1.1784706 0.42323527
3.7147603 -1.1784397 0.45773998
4.4516921 -1.1967694 0.46192309
4.2280002 -0.801 0.43200001
4.1942005 -0.7621333 0.44466668
4.2162042 -0.74840564 0.45220011
4.3456006 -0.74560004 0.45000002
4.197 -0.69599998 0.419
4.2302499 -0.6821956 0.44945654
4.3248668 -0.67800003 0.44499999
4.2550716 -1.7104285 0.54307145
4.1444669 -1.6484977 0.5494653
4.2468619 -1.6425344 0.54641366
4.158741 -1.5793052 0.54875934
4.2325835 -1.5901668 0.54716659
3.7049999 -1.2029999 0.50199997
4.4457502 -1.204875 0.55693752
3.743818 -1.1774547 0.55115145
4.4414287 -1.194762 0.55476189
4.3319998 -0.801 0.52399999
4.1946068 -0.75850004 0.56021428
4.2145467 -0.74969643 0.54895228
4.348 -0.74727279 0.54763639
4.1939998 -0.68800002 0.50099999
4.2253952 -0.68082678 0.55183661
4.3336253 -0.67524999 0.54795837
4.2526364 -1.7100458 0.64513636
4.1411076 -1.6473309 0.65000552
4.2453146 -1.6419318 0.65436983
4.1568875 -1.5782433 0.65084338
4.2299232 -1.5883849 0.63523084
4.4371819 -1.2038183 0.64818186
3.7784007 -1.1753167 0.64460003
3.8051429 -1.1778572 0.6895715
4.4310665 -1.1921334 0.65170002
4.198 -0.801 0.67199999
4.1924567 -0.77248579 0.65051425
4.2154794 -0.74512893 0.64950913
4.3476472 -0.75100005 0.64794117
4.1946001 -0.67620003 0.65879995
4.2285209 -0.67908853 0.6491155
4.328589 -0.67147058 0.6487059
4.1486673 -1.7046669 0.73533338
4.2395453 -1.7072729 0.74681824
4.140851 -1.6494174 0.75061488
4.2443295 -1.6440144 0.75197142
4.148459 -1.5791193 0.74849516
4.4177499 -1.20225 0.73425001
3.7940001 -1.175 0.713
3.8196783 -1.1760509 0.75188124
4.3977499 -1.1945 0.76324999
4.4152565 -1.1915385 0.75002569
4.1926193 -0.75830173 0.75495243
4.2137675 -0.74786276 0.74541795
4.3394446 -0.76211113 0.75722229
4.1961427 -0.68421441 0.76928574
4.2248549 -0.67384619 0.74964094
4.3293748 -0.67343754 0.74725002
4.1564999 -1.7079999 0.84150004
4.2341433 -1.7094285 0.84300005
4.139637 -1.6441886 0.85014969
4.2474713 -1.6437647 0.8529706
4.1454778 -1.5803691 0.83836931
4.2362499 -1.59225 0.86950004
4.421 -1.2029999 0.82499999
3.8529849 -1.1716923 0.84861541
4.3889093 -1.1869091 0.86081821
4.4089999 -1.1890001 0.83724993
4.2314997 -0.801 0.84899998
4.1924081 -0.75057888 0.84906578
4.2115631 -0.7456724 0.84695804
4.3392 -0.76080006 0.85540003
4.195333 -0.67642868 0.84819061
4.2250171 -0.6712966 0.8504492
4.3270001 -0.66918743 0.84800005
4.2332497 -1.707 0.96800005
4.0950003 -1.674 0.97249997
4.1368709 -1.641585 0.94818622
4.2456779 -1.6395477 0.93830925
4.1641016 -1.5892544 0.96564406
4.245585 -1.5785079 0.97178471
3.8817186 -1.1705313 0.93506253
3.9067693 -1.1703846 0.97684616
4.3860512 -1.185436 0.94753855
4.4033337 -1.1861666 0.9410001
4.191 -0.80483341 0.9758333
4.2086668 -0.80700004 0.98366666
4.1925726 -0.75099063 0.95180011
4.2100525 -0.74510628 0.94755334
4.3392997 -0.75919998 0.9436
4.1931996 -0.67617142 0.94654304
4.2280183 -0.66852659 0.94766968
4.3200002 -0.66849995 0.95725
4.2346668 -1.7030001 1.0353334
4.1322904 -1.6463548 1.0495446
4.2461424 -1.6640818 1.0489998
4.1482139 -1.5740917 1.0483894
4.241024 -1.5713536 1.048817
3.8959999 -1.164 1.013
3.924125 -1.1656001 1.048925
4.3738542 -1.1813958 1.0461667
4.1928 -0.80680001 1.0387
4.2043333 -0.80599999 1.039
4.1913462 -0.75530654 1.051379
4.2078962 -0.74523252 1.0440465
4.3357339 -0.7554667 1.0494
4.1932425 -0.67593944 1.0546972
4.2267919 -0.66771978 1.0493519
4.3270588 -0.6691764 1.0488825
4.2316666 -1.7039999 1.165
4.1300263 -1.645139 1.1504236
4.2400384 -1.6645576 1.1535386
4.143744 -1.5714324 1.1461759
4.2428303 -1.5731694 1.152338
3.9597845 -1.1647029 1.1492702
4.3600211 -1.1771955 1.1492828
4.4089999 -1.199 1.13
4.1935 -0.80133337 1.1466668
4.2135 -0.80900002 1.14275
4.3105001 -0.80649996 1.1805
4.1900921 -0.75085318 1.1504261
4.208293 -0.7447077 1.1430924
4.3317499 -0.75708336 1.1515832
4.1937604 -0.67473996 1.15558
4.2263508 -0.66250437 1.145928
4.3309999 -0.67042857 1.147643
4.2163334 -1.7030001 1.2736667
4.1283121 -1.6402029 1.2499278
4.2378669 -1.6624221 1.2490889
4.1400099 -1.5710183 1.2485138
4.2503676 -1.5705005 1.2454559
3.9879477 -1.1647369 1.2342105
4.0105 -1.1619287 1.2797143
4.3465781 -1.1750889 1.2513336
4.1900001 -0.80500001 1.232
4.2262001 -0.80500001 1.233
4.3200002 -0.80500001 1.257
4.1916628 -0.74615324 1.2461371
4.2070799 -0.75309336 1.2528402
4.3351669 -0.7561667 1.2522501
4.1938429 -0.67235088 1.2427368
4.2273536 -0.66015154 1.2487817
4.3354664 -0.67499995 1.2461333
4.2146668 -1.7043333 1.3266667
4.1259046 -1.6426783 1.3476577
4.2407331 -1.6480669 1.3425336
4.1436954 -1.5570788 1.3543841
4.2468982 -1.5490124 1.35605
4.1623077 -1.4674616 1.3921156
4.246778 -1.4748521 1.3880371
4.158 -1.3492669 1.3973335
4.21 -1.335 1.399
4.1724625 -1.2485769 1.3948847
4.2359395 -1.2436363 1.3898182
4.0533218 -1.1654286 1.3517859
4.1720004 -1.1451784 1.3929287
4.2425656 -1.1433207 1.3901509
4.3288412 -1.1684771 1.351182
4.1811433 -1.0487145 1.3938576
4.2453055 -1.0599492 1.388271
4.3065 -1.0710001 1.397
4.1841173 -0.95935297 1.3934705
4.2469311 -0.95018971 1.3936206
4.3045001 -0.92500001 1.3922501
4.1913185 -0.84518182 1.3888181
4.2442861 -0.8424415 1.3743634
4.3139095 -0.83954555 1.3754547
4.1898189 -0.745022 1.3504128
4.2146668 -0.75815678 1.3427258
4.3435555 -0.74133331 1.346889
4.1917276 -0.66931826 1.3567575
4.2288265 -0.66007417 1.3471403
4.3322778 -0.67016667 1.3427778
4.0970001 -1.666 1.426
4.1268277 -1.6403456 1.4493541
4.2369647 -1.6406786 1.4423572
4.130435 -1.5501585 1.4496766
4.256 -1.5448622 1.4451722
4.1392102 -1.4487224 1.4475435
4.253489 -1.4448369 1.4287959
4.1502538 -1.3513316 1.4460948
4.252368 -1.3576664 1.426105
4.072 -1.2063334 1.4566667
4.1556664 -1.2518755 1.4496003
4.2721434 -1.2560714 1.4435359
4.0848465 -1.165 1.4338461
4.1618471 -1.1470309 1.4506791
4.2786317 -1.1552106 1.437842
4.3104005 -1.1562001 1.4446
4.1751261 -1.0504833 1.4497693
4.2807999 -1.051 1.434
4.3110003 -1.0516001 1.4735001
4.183639 -0.95326513 1.4505603
4.2178998 -0.92830008 1.4402999
4.3063335 -0.95383334 1.4591665
4.1882024 -0.85267359 1.4523748
4.207128 -0.84325534 1.4411914
4.3095002 -0.86437494 1.4459999
4.1879401 -0.74558324 1.4477123
4.2134895 -0.76351064 1.4517236
4.3386664 -0.73799998 1.4402224
4.1890426 -0.66863453 1.4494196
4.2378807 -0.64887989 1.4427468
4.3230004 -0.6625455 1.4459999
4.1265044 -1.63868 1.5513197
4.2349625 -1.6391155 1.5476923
4.1316986 -1.5539732 1.5469999
4.2416077 -1.5473212 1.5508931
4.1389008 -1.4528998 1.5340089
4.2523179 -1.4535456 1.5477729
4.1482849 -1.3493983 1.5322039
4.2690482 -1.3487142 1.5400952
4.092 -1.234 1.55
4.160625 -1.2510245 1.5375124
4.2530875 -1.2531304 1.5619565
4.0830002 -1.159 1.5140001
4.1613173 -1.1494727 1.5415345
4.2420979 -1.1504635 1.5728292
4.3065 -1.1589999 1.5369999
4.1770091 -1.0532706 1.5323783
4.2388754 -1.0481249 1.5637918
4.3073997 -1.0464001 1.5366
4.1798992 -0.95362926 1.5258425
4.2301545 -0.93384624 1.5476155
4.3098001 -0.95179999 1.523
4.1836491 -0.85285145 1.5197567
4.2289214 -0.84897363 1.554
4.3123336 -0.83700007 1.5276668
4.1880398 -0.74340457 1.5515949
4.2139783 -0.76684779 1.5373478
4.3334613 -0.73746157 1.5513848
4.1897664 -0.67034465 1.5526778
4.2294388 -0.64957547 1.5447674
4.3207502 -0.65683329 1.5498332
4.1250253 -1.6359493 1.6491106
4.2329993 -1.6439198 1.6513999
4.1368518 -1.5606221 1.6512365
4.2147579 -1.555788 1.6513944
4.2020001 -1.492 1.6
4.1821666 -1.2095001 1.6719999
4.2122855 -1.2134287 1.6617857
4.0958338 -1.1506667 1.6466665
4.1531701 -1.1474965 1.648525
4.2364936 -1.1350149 1.6404924
4.3169999 -1.15175 1.663875
4.198 -1.0905 1.6705
4.2176666 -1.0877085 1.6608748
4.1861024 -0.7435118 1.6497478
4.2167711 -0.74960011 1.6459714
4.335 -0.75050002 1.6507
4.189456 -0.66594172 1.6506121
4.2307582 -0.64864832 1.6483148
4.3248463 -0.65923077 1.6609231
4.1222544 -1.6374319 1.7481015
4.2296314 -1.6442106 1.7513158
4.1366134 -1.5615304 1.7513878
4.2154002 -1.5576398 1.74972
4.179945 -1.1530819 1.742082
4.2168784 -1.1446517 1.7481818
4.1852589 -0.73669153 1.7525662
4.2207646 -0.76467651 1.752618
4.3322997 -0.74779999 1.7445999
4.1873584 -0.66338515 1.7504398
4.2411251 -0.64058924 1.749357
4.3285298 -0.65611762 1.7525295
4.0970001 -1.6569999 1.809
4.1228409 -1.6340442 1.8512654
4.231565 -1.6420437 1.8483045
4.1404371 -1.5563339 1.8482
4.2206502 -1.5698999 1.8525501
4.1852369 -0.73917186 1.8502545
4.2278466 -0.75861537 1.8566924
4.3200002 -0.75433338 1.8489999
4.1859546 -0.66371453 1.8491433
4.2411036 -0.63884479 1.8542073
4.3355999 -0.66226679 1.8395337
4.0939999 -1.614 1.955
4.1200256 -1.6344368 1.9480166
4.2299523 -1.639905 1.950619
4.1362958 -1.5557981 1.9507821
4.2301025 -1.5537949 1.9558978
4.1824746 -0.73980486 1.949551
4.2174292 -0.74364293 1.9617859
4.3189092 -0.75618184 1.9369093
4.18437 -0.66107076 1.9499769
4.2409549 -0.64029545 1.9487953
4.3344374 -0.6566875 1.9444374
4.0985003 -1.6325001 2.0380001
4.1194596 -1.6306896 2.0497298
4.2324624 -1.6402693 2.0558078
4.1372118 -1.5538489 2.0492373
4.2284002 -1.5468307 2.0508616
4.1809106 -0.73597318 2.0507772
4.2275 -0.7525 2.0658336
4.3233633 -0.74600005 2.039
4.1834874 -0.66173214 2.0502279
4.244 -0.63241827 2.0534184
4.3337502 -0.65831244 2.0457501
4.0970001 -1.6166667 2.177
4.1193824 -1.6306061 2.1469786
4.2265148 -1.6493428 2.1511998
4.1347108 -1.5519854 2.1492743
4.2299995 -1.5443233 2.1502461
4.1816936 -0.73537838 2.1507664
4.2312937 -0.75129414 2.152941
4.3241253 -0.74175 2.150625
4.1842837 -0.65762752 2.1508558
4.2385163 -0.62682259 2.153903
4.3314004 -0.64686668 2.1576002
4.098 -1.64 2.2820001
4.1215596 -1.6301934 2.2470541
4.2254548 -1.6423638 2.2484851
4.0970001 -1.582 2.28
4.1345453 -1.5513817 2.2486968
4.2280164 -1.5432191 2.2492032
4.1809173 -0.73355472 2.247591
4.2429004 -0.76170009 2.2415001
4.3186669 -0.74211115 2.2523334
4.1841683 -0.65702128 2.2494323
4.2341352 -0.62333351 2.2545059
4.3252726 -0.65000004 2.2468183
4.1211929 -1.6315116 2.3516133
4.2200933 -1.6405627 2.3526561
4.0985003 -1.5825 2.3740001
4.1353116 -1.5491477 2.3480589
4.2257385 -1.5406767 2.3500154
4.1802015 -0.73158616 2.3488586
4.2416153 -0.75615388 2.3524616
4.3197145 -0.73042858 2.3397141
4.1829562 -0.65579623 2.3487198
4.2326994 -0.62023818 2.3509212
4.3244667 -0.64026666 2.3524668
4.2119999 -0.59500003 2.352
4.098 -1.615 2.425
4.1217566 -1.6268291 2.4484754
4.2209373 -1.6400939 2.4524374
4.1339045 -1.5490149 2.4492974
4.2296672 -1.5417546 2.4498248
4.177382 -0.72982359 2.4477844
4.2487998 -0.75750005 2.4512002
4.3211665 -0.7208333 2.4394999
4.1797485 -0.65277302 2.447871
4.2417197 -0.61359656 2.4543691
4.3220668 -0.6359334 2.4521334
4.1960001 -0.59866667 2.4300003
4.2178001 -0.59759998 2.4454
4.099 -1.632 2.5710001
4.1233473 -1.6231806 2.5483201
4.2209678 -1.6381249 2.5409374
4.098 -1.5912499 2.5467501
4.1330256 -1.547143 2.5497551
4.2300644 -1.5385079 2.5512066
4.1764927 -0.7278654 2.547843
4.2320518 -0.75678939 2.5544212
4.315125 -0.71712506 2.5502501
4.1798396 -0.6517024 2.5499103
4.233911 -0.61305368 2.5446601
4.3169999 -0.64529991 2.5538001
4.1939998 -0.597 2.5569999
4.2288747 -0.59712499 2.5635002
4.1295161 -1.6260322 2.6493869
4.2182732 -1.6378487 2.6384544
4.0967002 -1.5850999 2.6597998
4.1321683 -1.5464801 2.6498849
4.2289686 -1.5406349 2.6499362
4.1776223 -0.72443897 2.6495001
4.2392859 -0.7582382 2.6531429
4.322 -0.72933334 2.6596668
4.1799555 -0.64924055 2.64924
4.2385759 -0.61385 2.6447246
4.3171668 -0.65399998 2.6535835
4.186111 -0.59644443 2.656889
4.2278948 -0.59715778 2.6546843
4.3109999 -0.60000002 2.652
4.132339 -1.6260322 2.7462094
4.2185922 -1.6372594 2.7438149
4.0950003 -1.5913334 2.7470002
4.1316366 -1.5437993 2.7498729
4.2271872 -1.5430938 2.7521243
4.1773787 -0.72029567 2.7502251
4.2442632 -0.75252628 2.7577894
4.3163333 -0.72600001 2.7550001
4.1779418 -0.64995855 2.7492354
4.242816 -0.61560524 2.7473686
4.3134289 -0.6415 2.7466428
4.1845002 -0.59500003 2.7622499
4.2300282 -0.59522223 2.754389
4.1322856 -1.6237857 2.8486793
4.2166204 -1.6380688 2.8539317
4.0924997 -1.5715001 2.8507497
4.1314044 -1.5417213 2.8501875
4.2300005 -1.5369842 2.8500311
4.1370001 -1.492 2.8789999
4.1766515 -0.72357589 2.8483791
4.2357001 -0.75010008 2.8505502
4.3150001 -0.72299999 2.8496666
4.1764474 -0.64903831 2.8506949
4.2286525 -0.62256521 2.8497391
4.3135719 -0.64350003 2.8497145
4.1871667 -0.59366679 2.853889
4.2370229 -0.59302318 2.8510933
4.3099999 -0.59799999 2.8929999
4.092 -1.605 2.9760001
4.1335402 -1.6231397 2.9519002
4.2194762 -1.6309048 2.944905
4.0946922 -1.5712308 2.9573078
4.1291747 -1.5385821 2.9499586
4.2283192 -1.5370454 2.9518638
4.1500001 -1.4935 2.9497499
4.1801734 -0.72058696 2.9465442
4.2501917 -0.74528575 2.9570477
4.3155003 -0.71950001 2.96
4.1771822 -0.65035003 2.9491253
4.2234998 -0.61690003 2.9408
4.3220911 -0.65200001 2.9466367
4.1883683 -0.59200007 2.9523687
4.2406278 -0.59250981 2.9484317
4.3070002 -0.59585714 2.9594285
0 0 0 1 0 0 0 1 0 0 0 1 0 0 0 0 0 537 1 0 0
