ply
format ascii 1.0
comment PCL generated
element vertex 601
property float x
property float y
property float z
element camera 1
property float view_px
property float view_py
property float view_pz
property float x_axisx
property float x_axisy
property float x_axisz
property float y_axisx
property float y_axisy
property float y_axisz
property float z_axisx
property float z_axisy
property float z_axisz
property float focal
property float scalex
property float scaley
property float centerx
property float centery
property int viewportx
property int viewporty
property float k1
property float k2
end_header
-14.729155 12.492826 0.0418077
-14.673821 12.48791 0.028865675
-15.425 12.595 0.003
-15.335059 12.587755 0.044669356
-14.918051 12.561159 0.079396844
-14.854276 12.53292 0.046441209
-14.754457 12.512603 0.056401148
-14.667268 12.534662 0.037186675
-16.135586 12.695293 0.047764704
-16.043882 12.693152 0.050358977
-15.951484 12.689544 0.056025948
-15.891442 12.682919 0.089680001
-15.533092 12.646991 0.048529152
-15.452841 12.62082 0.050212696
-15.348655 12.621761 0.052753095
-15.299201 12.682401 0.037999999
-14.91904 12.64672 0.076794393
-14.856104 12.642498 0.044909768
-14.749529 12.635632 0.05040703
-14.675 12.623549 0.031794507
-16.201 12.705 0.001
-16.14139 12.725924 0.043109436
-16.053047 12.714314 0.049061041
-15.946902 12.742621 0.046169646
-15.888538 12.75446 0.085423082
-15.532679 12.750511 0.048697848
-15.315188 12.737812 0.050374996
-15.291242 12.752314 0.053686567
-16.137466 12.819326 0.042123716
-16.056303 12.813928 0.04962879
-15.971861 12.806808 0.058719296
-15.529106 12.81802 0.054041676
-15.493334 12.868334 0.061999999
-15.386499 12.8005 0.076499999
-14.813201 12.4944 0.18080001
-14.764472 12.491588 0.13117646
-15.423 12.598 0.13500001
-15.337696 12.588197 0.15215115
-15.010486 12.570573 0.18522854
-14.949903 12.547678 0.15043797
-14.849992 12.52387 0.15190913
-14.76784 12.528553 0.14049642
-16.107143 12.694142 0.11357144
-16.041224 12.694036 0.14858164
-15.946581 12.688907 0.14802158
-15.861489 12.680314 0.15751073
-15.7955 12.690001 0.19049999
-15.532656 12.647114 0.15063398
-15.452447 12.621528 0.1499851
-15.348806 12.621866 0.14978375
-15.297 12.606 0.176
-15.013591 12.656577 0.1834085
-14.95476 12.655676 0.14599669
-14.8485 12.655819 0.15060821
-14.764844 12.640529 0.13694069
-16.108231 12.74 0.11046155
-16.048708 12.726829 0.14592069
-15.947772 12.75266 0.1483459
-15.852201 12.760936 0.15374598
-15.783778 12.729001 0.17755556
-15.534122 12.749104 0.14947487
-15.309793 12.765529 0.15296225
-15.291835 12.759768 0.1501096
-15.0105 12.7005 0.16949999
-14.982 12.702 0.139
-16.107 12.8106 0.10420001
-16.044592 12.813482 0.14598265
-15.964498 12.807396 0.15229315
-15.877499 12.8025 0.18725
-15.524453 12.821054 0.14907269
-15.358 12.8035 0.15775
-15.299 12.804 0.17
-14.835501 12.495501 0.21250001
-15.42 12.598 0.237
-15.332412 12.588689 0.25047502
-15.10811 12.588223 0.29444447
-15.043262 12.563741 0.25599149
-14.948527 12.540435 0.25153339
-14.859965 12.536685 0.23988952
-16.01824 12.69264 0.21891998
-15.942163 12.688198 0.24763724
-15.8493 12.676849 0.24908701
-15.772948 12.669633 0.26100627
-15.533533 12.648485 0.24945587
-15.451312 12.624818 0.25024611
-15.350587 12.622239 0.2504234
-15.298 12.605 0.22499999
-15.108541 12.660376 0.28741667
-15.052954 12.66541 0.24888721
-14.950541 12.673324 0.24997917
-14.858384 12.658843 0.24124989
-14.794 12.601 0.208
-16.015711 12.737291 0.22091669
-15.955435 12.747981 0.24861583
-15.84726 12.782667 0.24921431
-15.767908 12.753284 0.25199997
-15.695666 12.747001 0.28066668
-15.536542 12.748057 0.25063387
-15.320306 12.776227 0.25605431
-15.292211 12.766548 0.24643664
-15.110667 12.706833 0.28749999
-15.079888 12.706445 0.26111114
-16.010201 12.813201 0.21580002
-15.959906 12.808978 0.24751136
-15.871251 12.802401 0.25420001
-15.528551 12.820156 0.25079313
-15.483 12.833 0.278
-15.343233 12.80354 0.25030771
-15.292 12.803 0.221
-15.327046 12.591046 0.33781391
-15.135899 12.577852 0.35865116
-15.051052 12.55937 0.34998667
-14.958099 12.54943 0.34301582
-14.8922 12.5584 0.3114
-15.919297 12.685061 0.32728565
-15.847233 12.67649 0.34810397
-15.749201 12.663939 0.35004526
-15.682263 12.653924 0.37076926
-15.533291 12.650393 0.35066032
-15.450976 12.627977 0.35019124
-15.349925 12.621746 0.35049617
-15.252231 12.645078 0.36600006
-15.14675 12.661635 0.35079691
-15.047529 12.686906 0.34722224
-14.955361 12.675161 0.34401795
-14.887923 12.657001 0.30984616
-15.925983 12.756045 0.32746267
-15.853257 12.77832 0.35066172
-15.764522 12.77669 0.34472468
-15.671124 12.739 0.35862502
-15.537904 12.749469 0.35002688
-15.32356 12.775049 0.3476505
-15.281437 12.760635 0.35528171
-15.152117 12.708234 0.35787508
-15.076615 12.704078 0.36611536
-14.985 12.702 0.31900001
-15.914183 12.809909 0.31781816
-15.854278 12.808311 0.35934478
-15.772334 12.807334 0.36900002
-15.530759 12.821406 0.34987044
-15.468 12.82925 0.34799999
-15.346397 12.805417 0.35583636
-15.291714 12.804143 0.33585718
-15.336417 12.594749 0.43008336
-15.228361 12.590506 0.46482113
-15.150224 12.579375 0.44967803
-15.054444 12.566068 0.4454301
-14.989554 12.572166 0.41522223
-15.827538 12.67542 0.43322948
-15.750464 12.664737 0.44961119
-15.657193 12.652445 0.45588085
-15.538301 12.65387 0.4529742
-15.451081 12.630521 0.45173854
-15.350995 12.625637 0.45024088
-15.239822 12.646567 0.44940588
-15.160215 12.672056 0.43110713
-15.045587 12.678988 0.44544098
-14.984303 12.669086 0.41234779
-15.831608 12.757256 0.42987323
-15.783761 12.776137 0.44744
-15.618287 12.727572 0.41785714
-15.543226 12.740763 0.43420196
-15.31887 12.764988 0.44728005
-15.247284 12.732279 0.45309505
-15.151299 12.709496 0.45202053
-15.06289 12.705873 0.45852736
-14.987 12.701 0.414
-15.8293 12.808301 0.41569996
-15.77975 12.81075 0.44700003
-15.531084 12.821582 0.41416666
-15.488 12.84 0.46399999
-15.355146 12.810734 0.4542478
-15.295199 12.806201 0.44980001
-15.320417 12.594417 0.55083334
-15.243143 12.592088 0.54742116
-15.152152 12.582888 0.54589754
-15.084331 12.577928 0.51429635
-15.734242 12.668602 0.53782868
-15.6508 12.65439 0.55119562
-15.55214 12.643147 0.55005646
-15.451103 12.632777 0.55038464
-15.350387 12.619554 0.55153424
-15.269248 12.614137 0.54678643
-15.138707 12.647243 0.56429267
-15.078263 12.655294 0.52867657
-15.745636 12.735465 0.54508507
-15.564 12.702 0.50199997
-15.311828 12.764066 0.54421616
-15.255214 12.729699 0.55037439
-15.154151 12.713843 0.54672378
-15.085002 12.710721 0.52066666
-15.5285 12.842 0.57499999
-15.414268 12.822119 0.56123519
-15.356671 12.812087 0.5507552
-15.294299 12.8086 0.55779999
-15.32225 12.5965 0.63462502
-15.236818 12.591228 0.64301139
-15.178599 12.586749 0.61785001
-15.705001 12.672499 0.60124999
-15.641524 12.659259 0.64143807
-15.548989 12.642178 0.6507138
-15.449216 12.631765 0.6516422
-15.351413 12.617367 0.6497274
-15.255152 12.611336 0.65555292
-15.173 12.633214 0.63335711
-15.7045 12.7225 0.602
-15.659251 12.733887 0.64895457
-15.312714 12.770067 0.64635557
-15.256818 12.736208 0.64855617
-15.176766 12.719851 0.62508518
-15.425718 12.826037 0.65559262
-15.353297 12.81507 0.64992452
-15.294667 12.809533 0.64100003
-15.356647 12.59153 0.74152935
-15.275787 12.591928 0.72307146
-15.609537 12.66557 0.71735728
-15.544224 12.646813 0.74500746
-15.447248 12.630892 0.75227875
-15.351428 12.618018 0.75098664
-15.271434 12.628743 0.73590738
-15.608 12.72325 0.71175003
-15.557736 12.751659 0.77120757
-15.307349 12.768197 0.75034797
-15.275532 12.74387 0.73608696
-15.53825 12.829286 0.77782148
-15.439431 12.828019 0.7541551
-15.351294 12.817248 0.74889594
-15.293428 12.807429 0.75685716
-15.338167 12.593 0.86449993
-15.539515 12.658813 0.84728777
-15.451479 12.636326 0.84936464
-15.349019 12.630889 0.85127395
-15.294 12.643 0.84799999
-15.550241 12.749 0.85126829
-15.311633 12.753384 0.84826469
-15.293834 12.785833 0.83716673
-15.536216 12.829055 0.84971631
-15.447848 12.834832 0.85025483
-15.352283 12.819927 0.85101771
-15.294684 12.812422 0.861579
-15.33925 12.596499 0.94575
-15.537441 12.663961 0.94890136
-15.452092 12.644004 0.94967675
-15.351373 12.633344 0.94970185
-15.55063 12.749885 0.94988465
-15.313589 12.748321 0.94803184
-15.290667 12.792334 0.96066666
-15.529048 12.836926 0.95417458
-15.451447 12.841287 0.95047617
-15.351922 12.823781 0.94875556
-15.295451 12.811551 0.95004988
-15.339667 12.5965 1.0368334
-15.538309 12.665069 1.050794
-15.451013 12.647007 1.049045
-15.353323 12.634158 1.0484692
-15.551556 12.747991 1.0499196
-15.315414 12.747738 1.0450308
-15.291 12.783 1.0706668
-15.529209 12.844249 1.0508498
-15.450367 12.841998 1.0491102
-15.350325 12.825365 1.0488024
-15.296262 12.815527 1.0485264
-15.35 12.59 1.101
-15.539911 12.665372 1.1483449
-15.45191 12.64925 1.1486639
-15.354335 12.638491 1.1489726
-15.554489 12.7493 1.1485411
-15.316831 12.750459 1.1496392
-15.28725 12.783 1.14525
-15.531852 12.8459 1.152329
-15.45145 12.844599 1.1487784
-15.349578 12.82734 1.1488087
-15.298001 12.817857 1.1397142
-15.524 12.904 1.1849999
-15.540913 12.66815 1.2487185
-15.451186 12.652082 1.2494614
-15.356917 12.639492 1.2486308
-15.556844 12.74798 1.2474053
-15.319908 12.750179 1.2493433
-15.288 12.782 1.268
-15.531077 12.850571 1.2499042
-15.451296 12.848693 1.2492385
-15.348596 12.827317 1.2491515
-15.291667 12.830333 1.2206668
-15.543568 12.670636 1.3491007
-15.450229 12.653254 1.349178
-15.359446 12.638826 1.3497043
-15.560043 12.752415 1.3485649
-15.321213 12.748303 1.3477725
-15.288 12.792999 1.3616667
-15.534971 12.854639 1.3500509
-15.450483 12.850545 1.3480692
-15.348134 12.829988 1.3494112
-15.291334 12.808333 1.3393334
-15.541938 12.672523 1.449475
-15.448757 12.652951 1.4480467
-15.36108 12.638323 1.4495852
-15.5634 12.750525 1.4491632
-15.324437 12.746742 1.448274
-15.288 12.7905 1.474
-15.535583 12.8564 1.4486645
-15.451934 12.853215 1.4487647
-15.349191 12.831835 1.4506645
-15.289 12.808001 1.4253334
-15.532 12.9025 1.428
-15.544533 12.674681 1.5484135
-15.451022 12.655267 1.5487281
-15.362295 12.641867 1.5503281
-15.565808 12.750917 1.5491996
-15.328074 12.749708 1.5462359
-15.288 12.793 1.506
-15.536019 12.860342 1.549631
-15.45011 12.855186 1.5492392
-15.34759 12.834311 1.5488466
-15.293667 12.831667 1.5343332
-15.536 12.9 1.577
-15.606 12.673 1.669
-15.54464 12.676054 1.6488826
-15.449204 12.657169 1.6488022
-15.362535 12.642526 1.6500531
-15.5677 12.750293 1.6492456
-15.3305 12.749751 1.6475309
-15.54078 12.862336 1.6492374
-15.450383 12.858973 1.6491138
-15.348029 12.835054 1.6487807
-15.548 12.901 1.694
-15.544291 12.67555 1.750054
-15.448707 12.657567 1.7506514
-15.364221 12.64332 1.7504604
-15.570156 12.751393 1.7487912
-15.333061 12.751804 1.7522295
-15.542996 12.861173 1.7483169
-15.453094 12.864757 1.7479385
-15.352014 12.840607 1.7481464
-15.299 12.843 1.725
-15.532216 12.904859 1.7455717
-15.540547 12.592636 1.8926364
-15.480918 12.591834 1.8881668
-15.604 12.619 1.8890001
-15.552419 12.647612 1.8544762
-15.455101 12.644332 1.8475605
-15.363833 12.644845 1.8499594
-15.6048 12.743534 1.8593335
-15.57706 12.746011 1.8451164
-15.335105 12.753437 1.8520761
-15.540539 12.866933 1.8497372
-15.451332 12.864911 1.85139
-15.352598 12.841845 1.8480669
-15.537057 12.903707 1.851353
-15.523001 12.496334 1.9956667
-15.603667 12.556259 1.9622962
-15.551048 12.554219 1.9547919
-15.479484 12.556198 1.9520742
-15.601 12.607 1.957
-15.583572 12.638751 1.941871
-15.42989 12.636387 1.940426
-15.365262 12.646325 1.9484818
-15.572556 12.75231 1.9530323
-15.340288 12.748471 1.9526289
-15.540939 12.870124 1.9506334
-15.452671 12.869598 1.9508816
-15.352668 12.840518 1.9483494
-15.530813 12.902562 1.9521875
-15.612398 12.463615 2.0710003
-15.552956 12.461411 2.0563917
-15.483646 12.463756 2.055969
-15.605689 12.533974 2.0516984
-15.576978 12.53673 2.0278809
-15.456053 12.526888 2.0336299
-15.387 12.597 2.0434999
-15.603 12.605 2.0430002
-15.588438 12.651653 2.0513365
-15.433149 12.645148 2.0406299
-15.360394 12.65132 2.0413673
-15.576778 12.746679 2.044208
-15.340922 12.749589 2.0517728
-15.601 12.835 2.0639999
-15.543685 12.868611 2.0494998
-15.450409 12.872292 2.0482845
-15.353302 12.84401 2.0486405
-15.5364 12.906051 2.0511498
-15.497 12.901 2.0569999
-15.62273 12.368134 2.1699829
-15.551048 12.367773 2.1616375
-15.489703 12.374144 2.1566842
-15.620163 12.444271 2.1426461
-15.553121 12.413126 2.1168261
-15.472298 12.439212 2.1307895
-15.610784 12.532841 2.1439128
-15.592335 12.584048 2.1511431
-15.463428 12.538642 2.1348572
-15.58297 12.660691 2.1485138
-15.437794 12.653104 2.1435175
-15.364364 12.664152 2.1452425
-15.579932 12.750848 2.1490002
-15.343151 12.754267 2.1507082
-15.545944 12.866468 2.1492462
-15.448412 12.872821 2.1480074
-15.353674 12.843727 2.1487181
-15.534201 12.9048 2.1469429
-15.495 12.905 2.1029999
-15.637307 12.282078 2.2689233
-15.54274 12.286936 2.2606578
-15.49575 12.28775 2.2787502
-15.629561 12.345007 2.2266269
-15.545979 12.321848 2.2268641
-15.48377 12.351528 2.2495663
-15.626924 12.447963 2.2455246
-15.506249 12.42525 2.2467501
-15.483119 12.441399 2.25104
-15.611654 12.522576 2.2308078
-15.5944 12.566501 2.2425001
-15.474714 12.525287 2.2152858
-15.571458 12.675888 2.2534409
-15.434801 12.66484 2.25488
-15.366881 12.657981 2.2455101
-15.581667 12.750537 2.2477806
-15.345454 12.751638 2.2497554
-15.603 12.856 2.2969999
-15.552814 12.863076 2.2512336
-15.450605 12.872393 2.2516658
-15.354695 12.846084 2.2487116
-15.533937 12.904562 2.2420001
-15.481 12.908 2.293
-15.631598 12.1801 2.3807001
-15.5505 12.175443 2.3806667
-15.637499 12.227053 2.3388503
-15.5276 12.249473 2.3493576
-15.472 12.296 2.306
-15.504843 12.334579 2.3526313
-15.493905 12.351238 2.3451908
-15.620126 12.464874 2.3181248
-15.509001 12.420501 2.3338335
-15.482888 12.426112 2.3371112
-15.605 12.51 2.3095
-15.589 12.5345 2.3274999
-15.603251 12.683917 2.36625
-15.562315 12.675167 2.3517168
-15.440536 12.666901 2.3547003
-15.366416 12.662519 2.3481667
-15.606499 12.792799 2.3297
-15.58289 12.759267 2.3468046
-15.348057 12.747786 2.3496196
-15.611247 12.83685 2.3395498
-15.569386 12.863728 2.3340561
-15.439054 12.878765 2.340204
-15.355556 12.848997 2.3507366
-15.5439 12.917825 2.3648238
-15.463208 12.920241 2.3680229
-15.648144 12.090001 2.4844284
-15.569 12.084455 2.4825454
-15.64174 12.137963 2.4407406
-15.542718 12.15481 2.4507565
-15.518178 12.252698 2.451875
-15.513949 12.324349 2.4388502
-15.495777 12.329112 2.4357779
-15.385 12.5895 2.4724998
-15.605947 12.683263 2.439579
-15.547778 12.668653 2.447402
-15.456486 12.664586 2.4599271
-15.369998 12.660515 2.4495332
-15.603667 12.710585 2.459167
-15.581917 12.76129 2.4495482
-15.35178 12.746521 2.4499278
-15.626667 12.874667 2.4253335
-15.572974 12.846636 2.447747
-15.417414 12.8762 2.4525356
-15.356649 12.850847 2.4507785
-15.609636 12.919 2.4545455
-15.450339 12.955062 2.4500825
-15.63 11.997 2.579
-15.577001 11.9915 2.5912499
-15.653669 12.041795 2.5497689
-15.561085 12.055121 2.550288
-15.534345 12.148075 2.548373
-15.6465 12.2415 2.573
-15.53544 12.236162 2.5425735
-15.494 12.312 2.5009999
-15.370601 12.580802 2.5586002
-15.614 12.6755 2.5640001
-15.546278 12.669778 2.5289445
-15.452729 12.659594 2.5402973
-15.364777 12.665043 2.5545881
-15.6045 12.726 2.5035
-15.581333 12.775222 2.5163889
-15.347178 12.749789 2.5558994
-15.571606 12.854012 2.5460389
-15.41477 12.877692 2.5526927
-15.358908 12.853848 2.5485361
-15.621 11.789 2.6500001
-15.61 11.894 2.698
-15.588 11.893 2.6919999
-15.706599 11.9462 2.677
-15.652826 11.951375 2.6496494
-15.57261 11.961761 2.6556308
-15.71 12.032 2.6570001
-15.6615 12.004 2.6094999
-15.54998 12.049161 2.647697
-15.625918 12.156168 2.6639168
-15.548602 12.141903 2.6426029
-15.511 12.2335 2.6145
-15.349249 12.585125 2.65625
-15.625 12.681 2.6160002
-15.540645 12.665929 2.6465716
-15.447418 12.658676 2.644129
-15.337992 12.655683 2.647011
-15.294416 12.683584 2.6889167
-15.665 12.713 2.675
-15.32662 12.755099 2.6443474
-15.288565 12.743437 2.6764998
-15.561572 12.87107 2.6132858
-15.360098 12.854403 2.6483626
-15.274 12.852 2.6919999
-15.6465 11.7945 2.779
-15.707251 11.868375 2.75475
-15.646167 11.848149 2.7559576
-15.579175 11.870676 2.7643235
-15.714001 11.924999 2.73875
-15.650001 11.904167 2.7080002
-15.564959 11.945981 2.7449021
-15.637527 12.067368 2.7641575
-15.555796 12.042603 2.7468619
-15.641334 12.114334 2.7151666
-15.566001 12.114668 2.7210002
-15.328001 12.575 2.7309999
-15.294001 12.5825 2.7750001
-15.715 12.6895 2.7709999
-15.6315 12.686 2.7467499
-15.528334 12.679111 2.743
-15.444305 12.671175 2.7496958
-15.348249 12.651713 2.7479289
-15.267774 12.656962 2.7503614
-15.553499 12.728001 2.7800002
-15.47 12.720667 2.7673335
-15.328828 12.770465 2.7485509
-15.263915 12.741688 2.7534752
-15.361238 12.854601 2.747952
-15.678 11.697 2.885
-15.7177 11.7567 2.875
-15.64725 11.76019 2.8595586
-15.592935 11.776467 2.8676
-15.724334 11.814001 2.8376665
-15.654167 11.8125 2.8204169
-15.578781 11.847419 2.8491194
-15.7085 11.9715 2.8724999
-15.641944 11.9755 2.8639443
-15.567413 11.944959 2.8461514
-15.714 12.007 2.8340001
-15.645385 12.016848 2.8185387
-15.556625 12.02525 2.8239999
-15.238334 12.581 2.8690002
-15.708 12.698 2.862
-15.6212 12.6784 2.8402002
-15.532667 12.683916 2.8513334
-15.447248 12.676458 2.8453751
-15.354002 12.658636 2.8483181
-15.231534 12.645154 2.8437722
-15.191216 12.669251 2.8792856
-15.761833 12.710667 2.8673332
-15.654 12.704 2.858
-15.525599 12.716001 2.8347998
-15.325174 12.771108 2.847842
-15.246443 12.750618 2.8446491
-15.189678 12.733784 2.8708377
-15.363222 12.852465 2.8495226
-15.293 12.821 2.845
-15.72743 11.664572 2.9736669
-15.640328 11.669329 2.9635384
-15.6 11.699 2.9979999
-15.724701 11.718299 2.9258001
-15.630555 11.719592 2.9315929
-15.590976 11.760549 2.9485998
-15.709666 11.886668 2.9763334
-15.64063 11.87042 2.9716842
-15.578732 11.852683 2.9494634
-15.710501 11.931 2.9225001
-15.651835 11.923223 2.9229443
-15.567092 11.924636 2.9244545
-15.2155 12.559999 2.9425001
-15.177626 12.579501 2.9679999
-15.630667 12.681 2.9256668
-15.536788 12.687946 2.9506841
-15.44775 12.677876 2.947542
-15.355579 12.667053 2.9432104
-15.25 12.636333 2.9499047
-15.159723 12.6528 2.9497545
-15.947625 12.750251 2.9806249
-15.846714 12.744572 2.9637856
-15.770916 12.7185 2.9444168
-15.628 12.7095 2.9485002
-15.5745 12.707 2.9844999
-15.49 12.704 2.977
-15.348349 12.751861 2.9523256
-15.24576 12.757307 2.9464993
-15.160092 12.733907 2.9537923
-15.095 12.708 2.9990001
-15.993 12.832 2.9849999
-15.825999 12.829666 2.9828336
-15.788924 12.840383 2.9579232
-15.414896 12.879622 2.9536204
-15.362514 12.857548 2.9469681
0 0 0 1 0 0 0 1 0 0 0 1 0 0 0 0 0 601 1 0 0
