ply
format ascii 1.0
comment PCL generated
element vertex 1731
property float x
property float y
property float z
element camera 0
property float view_px
property float view_py
property float view_pz
property float x_axisx
property float x_axisy
property float x_axisz
property float y_axisx
property float y_axisy
property float y_axisz
property float z_axisx
property float z_axisy
property float z_axisz
property float focal
property float scalex
property float scaley
property float centerx
property float centery
property int viewportx
property int viewporty
property float k1
property float k2
end_header
-7.3049998 6.9710002 2.434
-7.302 6.9710002 2.4159999
-7.2969999 6.9710002 2.3989999
-7.3060002 6.9710002 2.385
-7.336 6.9689999 2.3759999
-7.3730001 6.9679999 2.369
-6.4549999 6.994 2.809
-6.4310002 6.9949999 2.7850001
-6.4369998 6.9949999 2.7709999
-6.4320002 6.9949999 2.7539999
-6.4320002 6.9949999 2.7379999
-6.4260001 6.9949999 2.721
-6.4320002 6.9949999 2.707
-6.4320002 6.9949999 2.6919999
-6.428 6.9949999 2.675
-6.4359999 6.9949999 2.6619999
-6.4499998 6.994 2.651
-6.448 6.994 2.635
-6.4559999 6.993 2.6229999
-6.4299998 6.9949999 2.598
-6.4349999 6.994 2.585
-6.4650002 6.993 2.579
-6.461 6.993 2.562
-6.473 6.993 2.5510001
-6.474 6.993 2.536
-6.5159998 6.9910002 2.5339999
-6.6059999 6.987 2.5469999
-6.6409998 6.9850001 2.543
-6.6690001 6.9840002 2.536
-6.717 6.9819999 2.5350001
-6.7529998 6.98 2.53
-6.8169999 6.9770002 2.5339999
-6.8600001 6.9749999 2.5320001
-6.9039998 6.974 2.529
-6.9549999 6.9710002 2.529
-7.0100002 6.9689999 2.529
-7.0840001 6.9660001 2.5350001
-7.1059999 6.9650002 2.5250001
-7.1700001 6.9619999 2.5280001
-7.2160001 6.96 2.5250001
-7.2740002 6.9569998 2.5250001
-7.3179998 6.9549999 2.5209999
-7.2969999 6.9559999 2.4979999
-7.2979999 6.9559999 2.4820001
-7.3099999 6.9549999 2.4690001
-7.3060002 6.9559999 2.451
-7.2969999 6.9559999 2.4319999
-7.2820001 6.9569998 2.411
-7.2909999 6.9559999 2.3970001
-7.3039999 6.9559999 2.3840001
-7.3099999 6.9549999 2.369
-7.3579998 6.9530001 2.3659999
-7.369 6.9530001 2.352
-6.447 6.98 2.7909999
-6.4310002 6.9809999 2.77
-6.427 6.9809999 2.753
-6.4390001 6.9809999 2.7409999
-6.4489999 6.98 2.7290001
-6.4390001 6.9809999 2.71
-6.4359999 6.9809999 2.6930001
-6.4320002 6.9809999 2.677
-6.4299998 6.9809999 2.661
-6.4460001 6.98 2.6500001
-6.454 6.98 2.638
-6.4569998 6.98 2.6229999
-6.4590001 6.98 2.608
-6.4390001 6.9809999 2.586
-6.4260001 6.9809999 2.5669999
-6.454 6.98 2.5599999
-6.4749999 6.9790001 2.552
-6.461 6.98 2.5320001
-6.4780002 6.9780002 2.5220001
-6.5159998 6.9770002 2.5190001
-6.5949998 6.973 2.5280001
-6.6360002 6.9710002 2.526
-6.7069998 6.9679999 2.5320001
-6.7379999 6.9660001 2.526
-6.7989998 6.9640002 2.529
-6.8460002 6.961 2.5280001
-6.895 6.9590001 2.527
-6.9510002 6.9569998 2.5280001
-7.0100002 6.954 2.529
-7.0630002 6.9510002 2.529
-7.1110001 6.9489999 2.527
-7.1690001 6.947 2.5280001
-7.2319999 6.9439998 2.53
-7.276 6.9419999 2.526
-7.3070002 6.9400001 2.5179999
-7.3099999 6.9400001 2.503
-7.302 6.9400001 2.484
-7.3010001 6.9400001 2.467
-7.3099999 6.9400001 2.4519999
-7.3189998 6.9400001 2.438
-7.296 6.941 2.415
-7.3109999 6.9400001 2.4030001
-7.3099999 6.9400001 2.3859999
-7.3049998 6.9400001 2.368
-7.2989998 6.941 2.3499999
-7.3540001 6.9380002 2.348
-7.3790002 6.9369998 2.3380001
-6.4720001 6.9650002 2.7850001
-6.4169998 6.9679999 2.7490001
-6.4219999 6.9679999 2.7349999
-6.4439998 6.967 2.7279999
-6.4299998 6.967 2.707
-6.4390001 6.967 2.6949999
-6.4679999 6.9650002 2.6889999
-6.4250002 6.9679999 2.6589999
-6.4460001 6.967 2.651
-6.4640002 6.9660001 2.641
-6.4520001 6.9660001 2.622
-6.448 6.9660001 2.605
-6.4439998 6.967 2.5880001
-6.4390001 6.967 2.5710001
-6.4380002 6.9660001 2.5550001
-6.4720001 6.9650002 2.5510001
-6.4819999 6.9640002 2.539
-6.48 6.9640002 2.523
-6.4959998 6.9640002 2.513
-6.539 6.9619999 2.5109999
-6.5960002 6.9590001 2.513
-6.697 6.954 2.529
-6.75 6.9520001 2.53
-6.809 6.9489999 2.533
-6.8520002 6.947 2.53
-6.8920002 6.9450002 2.526
-6.9369998 6.9429998 2.523
-7.0110002 6.9390001 2.53
-7.0440001 6.9369998 2.523
-7.105 6.9349999 2.5250001
-7.1680002 6.9310002 2.5280001
-7.2290001 6.9289999 2.529
-7.277 6.9260001 2.526
-7.302 6.9250002 2.517
-7.2870002 6.9260001 2.4960001
-7.2950001 6.9250002 2.4820001
-7.2909999 6.9260001 2.464
-7.303 6.9250002 2.451
-7.2979999 6.9250002 2.4330001
-7.309 6.9250002 2.4189999
-7.2989998 6.9250002 2.4000001
-7.3130002 6.9239998 2.3870001
-7.309 6.9250002 2.369
-7.2979999 6.9250002 2.3499999
-7.3330002 6.9239998 2.3429999
-7.348 6.9229999 2.3299999
-7.3740001 6.9219999 2.3199999
-6.4489999 6.9520001 2.7609999
-6.4349999 6.9530001 2.74
-6.4349999 6.9530001 2.7249999
-6.4289999 6.9530001 2.707
-6.447 6.9520001 2.698
-6.4369998 6.9530001 2.6789999
-6.441 6.9530001 2.665
-6.4530001 6.9520001 2.6530001
-6.4419999 6.9520001 2.6340001
-6.4549999 6.9520001 2.6229999
-6.4499998 6.9520001 2.6059999
-6.4489999 6.9520001 2.5899999
-6.4419999 6.9520001 2.572
-6.447 6.9520001 2.559
-6.448 6.9520001 2.543
-6.4759998 6.9510002 2.5369999
-6.4510002 6.9520001 2.5139999
-6.4569998 6.9510002 2.5
-6.5 6.9499998 2.4990001
-6.5190001 6.948 2.4890001
-6.7030001 6.9390001 2.5320001
-6.75 6.9369998 2.53
-6.8099999 6.934 2.533
-6.8590002 6.9310002 2.5320001
-6.9070001 6.9289999 2.5309999
-6.9520001 6.927 2.5280001
-7.0110002 6.9239998 2.53
-7.0700002 6.921 2.5320001
-7.1079998 6.9190001 2.527
-7.165 6.9159999 2.527
-7.204 6.914 2.5220001
-7.2870002 6.9099998 2.53
-7.316 6.9089999 2.5209999
-7.2950001 6.9099998 2.4990001
-7.296 6.9099998 2.4820001
-7.309 6.9089999 2.4690001
-7.303 6.9089999 2.451
-7.302 6.9089999 2.434
-7.3000002 6.9089999 2.4170001
-7.3119998 6.9089999 2.404
-7.2989998 6.9089999 2.3829999
-7.2979999 6.9089999 2.3670001
-7.2930002 6.9099998 2.349
-7.3390002 6.9070001 2.345
-7.3470001 6.9070001 2.3299999
-7.3610001 6.9060001 2.3169999
-7.3699999 6.9060001 2.303
-6.4770002 6.9369998 2.7709999
-6.4720001 6.9369998 2.7539999
-6.4439998 6.9390001 2.7279999
-6.448 6.9380002 2.714
-6.4580002 6.9380002 2.7019999
-6.4520001 6.9380002 2.684
-6.461 6.9369998 2.6719999
-6.4390001 6.9380002 2.6489999
-6.4429998 6.9380002 2.635
-6.4510002 6.9380002 2.622
-6.4530001 6.9380002 2.6070001
-6.46 6.9369998 2.5940001
-6.461 6.9369998 2.579
-6.46 6.9369998 2.563
-6.4359999 6.9390001 2.54
-6.4590001 6.9369998 2.5320001
-6.4689999 6.9369998 2.52
-6.474 6.9369998 2.506
-6.4650002 6.9369998 2.4879999
-6.5040002 6.9349999 2.4849999
-6.5370002 6.9330001 2.48
-6.7420001 6.9229999 2.5280001
-6.8039999 6.9200001 2.5309999
-6.8579998 6.9169998 2.5320001
-6.9089999 6.914 2.5320001
-6.9510002 6.9120002 2.5280001
-7.0050001 6.9089999 2.5280001
-7.0570002 6.9070001 2.5280001
-7.1149998 6.9039998 2.529
-7.1669998 6.901 2.5280001
-7.2140002 6.8979998 2.5250001
-7.2859998 6.895 2.53
-7.296 6.8940001 2.516
-7.303 6.8940001 2.5009999
-7.3109999 6.8930001 2.487
-7.3080001 6.8940001 2.4690001
-7.3179998 6.8930001 2.4560001
-7.3010001 6.8940001 2.434
-7.3210001 6.8930001 2.4230001
-7.3200002 6.8930001 2.4059999
-7.3249998 6.8930001 2.391
-7.3099999 6.8930001 2.3699999
-7.3060002 6.8940001 2.3529999
-7.3200002 6.8930001 2.3399999
-7.3379998 6.8920002 2.3280001
-7.323 6.8930001 2.3069999
-7.3559999 6.8909998 2.3
-7.382 6.8899999 2.29
-6.4860001 6.9219999 2.7750001
-6.4829998 6.9219999 2.7579999
-6.4650002 6.9229999 2.7360001
-6.4390001 6.9250002 2.711
-6.4419999 6.9239998 2.697
-6.4390001 6.9250002 2.6800001
-6.4520001 6.9239998 2.6689999
-6.46 6.9229999 2.6559999
-6.4320002 6.9250002 2.631
-6.4369998 6.9250002 2.6170001
-6.46 6.9229999 2.609
-6.4590001 6.9229999 2.5940001
-6.4569998 6.9239998 2.5780001
-6.434 6.9250002 2.5550001
-6.4349999 6.9250002 2.54
-6.4530001 6.9239998 2.53
-6.4749999 6.9229999 2.5220001
-6.4660001 6.9229999 2.5039999
-6.4770002 6.9219999 2.4920001
-6.4640002 6.9229999 2.4719999
-6.5120001 6.921 2.4719999
-6.5500002 6.9190001 2.4679999
-6.803 6.9050002 2.5309999
-6.875 6.901 2.5380001
-6.8979998 6.9000001 2.529
-6.9650002 6.8959999 2.533
-7.007 6.8940001 2.529
-7.0650001 6.8909998 2.53
-7.112 6.8889999 2.5280001
-7.164 6.8860002 2.527
-7.2249999 6.882 2.529
-7.27 6.8800001 2.5250001
-7.3099999 6.8779998 2.52
-7.3039999 6.8779998 2.5020001
-7.3119998 6.8779998 2.487
-7.3119998 6.8779998 2.471
-7.3169999 6.8769999 2.4560001
-7.3200002 6.8769999 2.4400001
-7.3119998 6.8779998 2.421
-7.3189998 6.8769999 2.4059999
-7.3150001 6.8769999 2.388
-7.3109999 6.8779998 2.3710001
-7.2909999 6.8790002 2.349
-7.3270001 6.8769999 2.342
-7.3369999 6.8759999 2.3280001
-7.323 6.8769999 2.3080001
-7.3319998 6.8759999 2.293
-7.3730001 6.8740001 2.2880001
-7.4099998 6.8720002 2.2809999
-7.4089999 6.8720002 2.2639999
-6.4840002 6.908 2.7579999
-6.493 6.908 2.7460001
-6.4569998 6.9099998 2.7179999
-6.4369998 6.9109998 2.6949999
-6.4330001 6.9109998 2.678
-6.461 6.9089999 2.6719999
-6.4699998 6.9089999 2.6600001
-6.4419999 6.9099998 2.635
-6.4380002 6.9109998 2.618
-6.4559999 6.9099998 2.609
-6.4580002 6.9099998 2.5940001
-6.4580002 6.9099998 2.5780001
-6.467 6.9089999 2.566
-6.4549999 6.9099998 2.5469999
-6.4510002 6.9099998 2.53
-6.448 6.9099998 2.5139999
-6.474 6.9089999 2.507
-6.4590001 6.9089999 2.4860001
-6.4580002 6.9099998 2.471
-6.4759998 6.9089999 2.461
-6.5110002 6.9070001 2.457
-6.5009999 6.9070001 2.438
-6.8569999 6.888 2.5320001
-6.9050002 6.8850002 2.5309999
-6.9559999 6.882 2.5309999
-7.007 6.8790002 2.53
-7.0469999 6.8769999 2.5250001
-7.1129999 6.8740001 2.529
-7.165 6.8709998 2.5280001
-7.1989999 6.869 2.5209999
-7.2870002 6.8639998 2.53
-7.3140001 6.862 2.5220001
-7.303 6.8629999 2.5020001
-7.3179998 6.862 2.49
-7.309 6.8629999 2.47
-7.3150001 6.862 2.4549999
-7.3249998 6.862 2.441
-7.3109999 6.8629999 2.421
-7.3099999 6.8629999 2.404
-7.3060002 6.8629999 2.3859999
-7.3140001 6.862 2.372
-7.3049998 6.8629999 2.3529999
-7.336 6.8610001 2.345
-7.3410001 6.8610001 2.329
-7.3109999 6.8629999 2.3050001
-7.3200002 6.862 2.2909999
-7.342 6.8610001 2.28
-7.3870001 6.8579998 2.2750001
-7.4200001 6.8559999 2.267
-6.4720001 6.895 2.723
-6.4699998 6.895 2.707
-6.4520001 6.8959999 2.6849999
-6.4460001 6.8959999 2.6670001
-6.4590001 6.8959999 2.6559999
-6.4720001 6.895 2.645
-6.4689999 6.895 2.6289999
-6.4450002 6.8959999 2.605
-6.4580002 6.8959999 2.5940001
-6.4650002 6.895 2.5810001
-6.4619999 6.895 2.5650001
-6.4640002 6.895 2.55
-6.4549999 6.8959999 2.5309999
-6.4650002 6.895 2.5190001
-6.4439998 6.8959999 2.497
-6.4520001 6.8959999 2.484
-6.4749999 6.895 2.4760001
-6.467 6.895 2.4579999
-6.4809999 6.8940001 2.447
-6.5050001 6.8930001 2.4400001
-6.5669999 6.8889999 2.4430001
-6.9229999 6.869 2.5369999
-6.9569998 6.8670001 2.5309999
-6.9959998 6.8649998 2.527
-7.053 6.862 2.527
-7.098 6.8590002 2.5250001
-7.158 6.8559999 2.526
-7.2059999 6.8530002 2.5239999
-7.263 6.8499999 2.5239999
-7.3179998 6.8470001 2.523
-7.3070002 6.8470001 2.503
-7.302 6.8470001 2.4849999
-7.3070002 6.8470001 2.47
-7.3109999 6.8470001 2.454
-7.3189998 6.8460002 2.4400001
-7.3150001 6.8470001 2.4219999
-7.3010001 6.8470001 2.402
-7.309 6.8470001 2.3870001
-7.309 6.8470001 2.3710001
-7.322 6.8460002 2.358
-7.3189998 6.8460002 2.3399999
-7.3449998 6.8449998 2.3310001
-7.3130002 6.8470001 2.306
-7.3249998 6.8460002 2.2920001
-7.3130002 6.8470001 2.2720001
-7.3390002 6.8449998 2.263
-7.381 6.8429999 2.257
-7.402 6.842 2.2460001
-6.474 6.881 2.7090001
-6.4460001 6.8829999 2.6830001
-6.4450002 6.8829999 2.6670001
-6.441 6.8829999 2.651
-6.4320002 6.8829999 2.632
-6.4580002 6.882 2.625
-6.454 6.882 2.609
-6.454 6.882 2.5929999
-6.4530001 6.882 2.5769999
-6.4520001 6.882 2.562
-6.4619999 6.881 2.549
-6.4749999 6.881 2.5380001
-6.4790001 6.881 2.5239999
-6.4559999 6.881 2.5009999
-6.4380002 6.8829999 2.48
-6.4660001 6.881 2.474
-6.4689999 6.881 2.4590001
-6.4819999 6.8800001 2.448
-6.48 6.8800001 2.4319999
-6.5180001 6.8779998 2.4289999
-6.513 6.8779998 2.4119999
-6.5019999 6.8790002 2.3929999
-6.5219998 6.8779998 2.3840001
-7.0630002 6.8460002 2.5309999
-7.1090002 6.8429999 2.5280001
-7.1570001 6.8400002 2.526
-7.2199998 6.8369999 2.5280001
-7.276 6.8340001 2.5280001
-7.3169999 6.8309999 2.523
-7.2969999 6.8319998 2.5009999
-7.3109999 6.8309999 2.4879999
-7.3109999 6.8309999 2.471
-7.3249998 6.8309999 2.4590001
-7.3189998 6.8309999 2.4400001
-7.3260002 6.8299999 2.4260001
-7.309 6.8319998 2.404
-7.3270001 6.8299999 2.3929999
-7.322 6.8309999 2.3740001
-7.3080001 6.8319998 2.3540001
-7.3200002 6.8309999 2.3410001
-7.3249998 6.8309999 2.325
-7.316 6.8309999 2.306
-7.3200002 6.8309999 2.2909999
-7.309 6.8309999 2.2720001
-7.3200002 6.8309999 2.2579999
-7.3590002 6.829 2.2520001
-7.3889999 6.8270001 2.243
-7.4000001 6.8260002 2.2290001
-6.48 6.8660002 2.6949999
-6.4640002 6.8670001 2.674
-6.4400001 6.869 2.651
-6.4450002 6.868 2.6370001
-6.4400001 6.869 2.6199999
-6.4489999 6.868 2.6070001
-6.4499998 6.868 2.592
-6.4569998 6.868 2.579
-6.461 6.8670001 2.5650001
-6.4499998 6.868 2.546
-6.4699998 6.8670001 2.5369999
-6.4860001 6.8660002 2.526
-6.474 6.8660002 2.507
-6.454 6.8670001 2.4849999
-6.4549999 6.8670001 2.471
-6.4920001 6.8649998 2.467
-6.4809999 6.8660002 2.448
-6.4809999 6.8660002 2.4330001
-6.493 6.8649998 2.421
-6.5170002 6.8629999 2.4130001
-6.5830002 6.8590002 2.418
-7.013 6.8340001 2.5320001
-7.0539999 6.8309999 2.5280001
-7.125 6.8270001 2.533
-7.1570001 6.8249998 2.526
-7.2150002 6.8210001 2.527
-7.2779999 6.8179998 2.529
-7.3150001 6.8150001 2.523
-7.316 6.8150001 2.506
-7.3210001 6.8150001 2.4909999
-7.3140001 6.8150001 2.473
-7.3000002 6.816 2.4519999
-7.3039999 6.816 2.4360001
-7.3080001 6.816 2.421
-7.3210001 6.8150001 2.408
-7.303 6.816 2.3859999
-7.3210001 6.8150001 2.3740001
-7.3200002 6.8150001 2.358
-7.289 6.8169999 2.3329999
-7.3109999 6.816 2.322
-7.3099999 6.816 2.3050001
-7.2989998 6.816 2.286
-7.3179998 6.8150001 2.2739999
-7.3169999 6.8150001 2.2579999
-7.3340001 6.8140001 2.2449999
-7.3720002 6.8119998 2.2390001
-7.402 6.8099999 2.23
-7.3930001 6.8109999 2.211
-6.4580002 6.8540001 2.6719999
-6.4489999 6.8540001 2.654
-6.454 6.8540001 2.6400001
-6.448 6.8540001 2.6229999
-6.4650002 6.8530002 2.6129999
-6.447 6.8540001 2.5910001
-6.4460001 6.8540001 2.575
-6.4559999 6.8540001 2.563
-6.4530001 6.8540001 2.5469999
-6.4660001 6.8530002 2.536
-6.4489999 6.8540001 2.5150001
-6.474 6.8530002 2.5079999
-6.467 6.8530002 2.49
-6.4679999 6.8530002 2.4749999
-6.4679999 6.8530002 2.46
-6.461 6.8530002 2.4419999
-6.4759998 6.8520002 2.431
-6.4910002 6.8509998 2.421
-6.4959998 6.8509998 2.4070001
-6.539 6.848 2.405
-6.592 6.8449998 2.405
-7.0609999 6.816 2.5309999
-7.0970001 6.8140001 2.5250001
-7.1459999 6.8109999 2.523
-7.2059999 6.8070002 2.5250001
-7.2420001 6.8049998 2.5190001
-7.3150001 6.8000002 2.506
-7.3200002 6.8000002 2.4909999
-7.3239999 6.8000002 2.4760001
-7.3280001 6.8000002 2.46
-7.2979999 6.8010001 2.4349999
-7.322 6.8000002 2.425
-7.3210001 6.8000002 2.408
-7.3249998 6.7989998 2.392
-7.2340002 6.8049998 2.3510001
-7.2220001 6.8060002 2.3310001
-7.2459998 6.8039999 2.3210001
-7.2740002 6.802 2.312
-7.3179998 6.8000002 2.3080001
-7.323 6.7989998 2.2920001
-7.3119998 6.8000002 2.273
-7.3210001 6.7989998 2.2590001
-7.3249998 6.7989998 2.243
-7.3270001 6.7989998 2.227
-7.375 6.796 2.223
-7.4089999 6.7940001 2.2149999
-7.4099998 6.7940001 2.1989999
-6.4699998 6.8390002 2.661
-6.4390001 6.8410001 2.635
-6.4520001 6.8400002 2.6240001
-6.4559999 6.8400002 2.6099999
-6.4460001 6.8400002 2.5910001
-6.4320002 6.8410001 2.5710001
-6.4650002 6.8390002 2.5669999
-6.4569998 6.8400002 2.549
-6.4489999 6.8400002 2.5309999
-6.4710002 6.8390002 2.5220001
-6.448 6.8400002 2.5
-6.4569998 6.8400002 2.487
-6.4749999 6.8379998 2.4779999
-6.4809999 6.8379998 2.464
-6.4489999 6.8400002 2.4389999
-6.467 6.8390002 2.4289999
-6.474 6.8390002 2.4159999
-6.4899998 6.8369999 2.4059999
-6.5149999 6.836 2.398
-6.5380001 6.8340001 2.3889999
-6.5890002 6.8309999 2.3889999
-7.1199999 6.7969999 2.5320001
-7.1609998 6.7950001 2.5280001
-7.3140001 6.7849998 2.49
-7.323 6.7839999 2.4760001
-7.3169999 6.7849998 2.457
-7.3210001 6.7839999 2.4419999
-7.302 6.7859998 2.4200001
-7.3150001 6.7849998 2.4070001
-7.1760001 6.7940001 2.352
-7.1570001 6.7950001 2.3299999
-7.1859999 6.7930002 2.322
-7.21 6.7919998 2.312
-7.283 6.7870002 2.3150001
-7.3210001 6.7839999 2.309
-7.3119998 6.7849998 2.29
-7.3210001 6.7839999 2.276
-7.335 6.7839999 2.263
-7.3379998 6.783 2.247
-7.3179998 6.7849998 2.2260001
-7.336 6.783 2.214
-7.369 6.7810001 2.2049999
-7.402 6.7789998 2.197
-6.5830002 6.8179998 2.7
-6.48 6.8249998 2.6500001
-6.4429998 6.8270001 2.6210001
-6.4559999 6.8260002 2.6099999
-6.4699998 6.8249998 2.5999999
-6.4499998 6.8270001 2.5769999
-6.4759998 6.8249998 2.5710001
-6.467 6.8249998 2.552
-6.4580002 6.8260002 2.5339999
-6.4759998 6.8239999 2.5239999
-6.454 6.8260002 2.5020001
-6.46 6.8260002 2.4879999
-6.474 6.8249998 2.4779999
-6.4710002 6.8249998 2.461
-6.461 6.8249998 2.4430001
-6.4569998 6.8260002 2.4260001
-6.48 6.8239999 2.418
-6.48 6.8239999 2.4030001
-6.4879999 6.8239999 2.3900001
-6.513 6.822 2.382
-6.5409999 6.8200002 2.375
-6.6069999 6.816 2.3800001
-7.336 6.7680001 2.4790001
-7.336 6.7680001 2.4630001
-7.3200002 6.7690001 2.4419999
-7.3249998 6.7690001 2.4260001
-7.099 6.7839999 2.3469999
-7.119 6.7820001 2.336
-7.1300001 6.7810001 2.323
-7.151 6.7800002 2.313
-7.2210002 6.776 2.3150001
-7.2839999 6.7709999 2.316
-7.3330002 6.7680001 2.312
-7.316 6.7690001 2.2909999
-7.3099999 6.77 2.273
-7.329 6.7680001 2.2609999
-7.3270001 6.7690001 2.2449999
-7.3270001 6.7690001 2.2279999
-7.3210001 6.7690001 2.21
-7.3509998 6.7670002 2.201
-7.3769999 6.7649999 2.191
-7.401 6.7639999 2.181
-6.5539999 6.8060002 2.675
-6.4790001 6.8109999 2.6340001
-6.4460001 6.8130002 2.6070001
-6.4460001 6.8130002 2.592
-6.4629998 6.8119998 2.582
-6.4429998 6.8130002 2.5599999
-6.473 6.8109999 2.5550001
-6.4780002 6.8109999 2.5409999
-6.4530001 6.8119998 2.517
-6.461 6.8119998 2.5039999
-6.4860001 6.8099999 2.497
-6.4819999 6.8099999 2.48
-6.4619999 6.8119998 2.4590001
-6.4749999 6.8109999 2.447
-6.4710002 6.8109999 2.431
-6.4809999 6.8109999 2.418
-6.4819999 6.8099999 2.404
-6.4899998 6.8099999 2.391
-6.506 6.809 2.3800001
-6.5009999 6.809 2.3640001
-6.5419998 6.8060002 2.3599999
-7.3340001 6.7529998 2.4630001
-7.0219998 6.7740002 2.358
-7.0120001 6.7750001 2.339
-7.0320001 6.7729998 2.329
-7.053 6.7719998 2.3180001
-7.1079998 6.7680001 2.3169999
-7.151 6.7649999 2.313
-7.2140002 6.7610002 2.3139999
-7.277 6.757 2.3139999
-7.3319998 6.7529998 2.312
-7.3239999 6.7540002 2.2939999
-7.3140001 6.7540002 2.2739999
-7.3270001 6.7540002 2.2609999
-7.3109999 6.7550001 2.2409999
-7.335 6.7529998 2.23
-7.316 6.7540002 2.2090001
-7.3239999 6.7529998 2.1949999
-7.355 6.7519999 2.1860001
-7.375 6.75 2.174
-7.4060001 6.7480001 2.1659999
-6.4809999 6.7969999 2.635
-6.474 6.7969999 2.6170001
-6.4549999 6.7989998 2.595
-6.4499998 6.7989998 2.5780001
-6.4809999 6.7969999 2.573
-6.4629998 6.7979999 2.5510001
-6.4699998 6.7969999 2.5380001
-6.4699998 6.7969999 2.523
-6.461 6.7979999 2.5050001
-6.4850001 6.796 2.497
-6.4699998 6.7969999 2.477
-6.461 6.7979999 2.4590001
-6.4699998 6.7969999 2.4460001
-6.4910002 6.796 2.437
-6.4619999 6.7979999 2.4130001
-6.4650002 6.7979999 2.3989999
-6.48 6.7969999 2.388
-6.4889998 6.796 2.375
-6.4860001 6.796 2.359
-6.52 6.7940001 2.3540001
-6.5510001 6.7919998 2.348
-6.9200001 6.7659998 2.346
-6.9520001 6.7639999 2.339
-6.98 6.7620001 2.3310001
-7.0100002 6.7600002 2.323
-7.0419998 6.7579999 2.316
-7.0929999 6.7540002 2.313
-7.1560001 6.75 2.3139999
-7.2080002 6.7459998 2.312
-7.2870002 6.7410002 2.3169999
-7.3189998 6.7389998 2.309
-7.323 6.7379999 2.2939999
-7.323 6.7379999 2.277
-7.3330002 6.7379999 2.263
-7.3340001 6.7379999 2.247
-7.3460002 6.737 2.234
-7.3429999 6.737 2.2160001
-7.323 6.7379999 2.1949999
-7.3270001 6.7379999 2.1789999
-7.3639998 6.7350001 2.1719999
-7.3920002 6.7340002 2.1619999
-7.395 6.7329998 2.1470001
-6.4910002 6.7820001 2.6229999
-6.4679999 6.7839999 2.5999999
-6.4439998 6.7859998 2.5769999
-6.4749999 6.783 2.5710001
-6.4559999 6.7849998 2.55
-6.474 6.783 2.54
-6.4710002 6.783 2.5239999
-6.4489999 6.7849998 2.5009999
-6.4559999 6.7839999 2.4879999
-6.4679999 6.7839999 2.477
-6.4710002 6.783 2.4619999
-6.4629998 6.7839999 2.444
-6.473 6.783 2.4319999
-6.4759998 6.783 2.418
-6.4679999 6.783 2.4000001
-6.4720001 6.783 2.3859999
-6.474 6.783 2.3710001
-6.487 6.7820001 2.3599999
-6.4889998 6.7820001 2.345
-6.527 6.7789998 2.3410001
-6.4959998 6.7810001 2.3169999
-6.869 6.7550001 2.3469999
-6.902 6.7529998 2.3410001
-6.9229999 6.7509999 2.3310001
-6.9429998 6.75 2.3210001
-6.9889998 6.7459998 2.3169999
-7.0380001 6.743 2.3150001
-7.0900002 6.7389998 2.313
-7.158 6.7350001 2.3150001
-7.2150002 6.7309999 2.3139999
-7.2820001 6.7259998 2.316
-7.3130002 6.724 2.3080001
-7.3449998 6.7210002 2.3
-7.3249998 6.723 2.2780001
-7.3369999 6.7220001 2.2650001
-7.3280001 6.723 2.2460001
-7.3369999 6.7220001 2.2309999
-7.323 6.723 2.211
-7.322 6.723 2.1949999
-7.336 6.7220001 2.1819999
-7.335 6.7220001 2.165
-7.3779998 6.7189999 2.1589999
-7.4050002 6.717 2.1500001
-7.4070001 6.717 2.1329999
-6.4780002 6.7690001 2.6040001
-6.467 6.77 2.5840001
-6.474 6.77 2.5710001
-6.4689999 6.77 2.5539999
-6.4699998 6.77 2.539
-6.474 6.77 2.5250001
-6.4689999 6.77 2.5079999
-6.467 6.77 2.4920001
-6.473 6.77 2.4779999
-6.4569998 6.7709999 2.4579999
-6.4780002 6.7690001 2.4489999
-6.4790001 6.7690001 2.434
-6.474 6.7690001 2.4170001
-6.46 6.77 2.398
-6.4689999 6.77 2.385
-6.4780002 6.7690001 2.3729999
-6.473 6.7690001 2.3559999
-6.4899998 6.7680001 2.346
-6.5019999 6.7670002 2.3340001
-6.54 6.7649999 2.3299999
-6.5560002 6.763 2.3199999
-6.8000002 6.7449999 2.3440001
-6.8319998 6.743 2.3369999
-6.8499999 6.7420001 2.326
-6.8779998 6.7399998 2.319
-6.9260001 6.7360001 2.316
-6.98 6.7319999 2.3150001
-7.026 6.7290001 2.312
-7.099 6.724 2.316
-7.152 6.7199998 2.3139999
-7.21 6.7160001 2.313
-7.2670002 6.711 2.312
-7.3449998 6.7059999 2.3169999
-7.335 6.7069998 2.2969999
-7.3249998 6.7069998 2.2780001
-7.336 6.7059999 2.2650001
-7.3439999 6.7059999 2.25
-7.336 6.7059999 2.2320001
-7.3400002 6.7059999 2.2160001
-7.3299999 6.7069998 2.197
-7.335 6.7059999 2.1819999
-7.3340001 6.7069998 2.165
-7.3520002 6.7049999 2.1530001
-7.3740001 6.704 2.142
-7.4070001 6.7010002 2.1340001
-7.408 6.7010002 2.1170001
-6.48 6.7550001 2.589
-6.4660001 6.756 2.569
-6.4549999 6.757 2.55
-6.4780002 6.7550001 2.5420001
-6.4640002 6.756 2.5220001
-6.4910002 6.7540002 2.5150001
-6.48 6.7550001 2.497
-6.4699998 6.756 2.4779999
-6.4819999 6.7550001 2.4660001
-6.4689999 6.756 2.447
-6.4749999 6.7550001 2.4330001
-6.4819999 6.7550001 2.4200001
-6.461 6.756 2.398
-6.4510002 6.757 2.3800001
-6.4829998 6.7550001 2.375
-6.4920001 6.7540002 2.362
-6.494 6.7540002 2.3469999
-6.4819999 6.7540002 2.329
-6.5 6.7529998 2.319
-6.5440001 6.75 2.316
-6.5549998 6.7490001 2.3039999
-6.7600002 6.7340002 2.348
-6.7880001 6.7319999 2.3410001
-6.8010001 6.7309999 2.329
-6.8369999 6.7280002 2.323
-6.8870001 6.724 2.3210001
-6.9369998 6.7210002 2.3199999
-6.98 6.717 2.3150001
-7.0349998 6.7129998 2.3150001
-7.1110001 6.7080002 2.319
-7.1669998 6.704 2.3180001
-7.2249999 6.6989999 2.3180001
-7.2940001 6.6939998 2.3199999
-7.3299999 6.691 2.313
-7.3439999 6.6900001 2.3
-7.3330002 6.691 2.2809999
-7.3319998 6.691 2.2639999
-7.3390002 6.691 2.2490001
-7.3340001 6.691 2.2309999
-7.3439999 6.6900001 2.217
-7.3470001 6.6900001 2.2019999
-7.3379998 6.691 2.1830001
-7.3280001 6.6919999 2.164
-7.3270001 6.6919999 2.1470001
-7.3530002 6.6900001 2.1370001
-7.375 6.6880002 2.1259999
-7.4120002 6.6849999 2.119
-6.4819999 6.7410002 2.575
-6.474 6.7420001 2.5569999
-6.4710002 6.7420001 2.54
-6.4770002 6.7410002 2.527
-6.48 6.7410002 2.5120001
-6.4710002 6.7420001 2.494
-6.4640002 6.7420001 2.4760001
-6.473 6.7420001 2.464
-6.4679999 6.7420001 2.447
-6.4629998 6.7420001 2.4300001
-6.4629998 6.7420001 2.415
-6.4640002 6.7420001 2.4000001
-6.4809999 6.7410002 2.3900001
-6.4829998 6.7410002 2.375
-6.4699998 6.7420001 2.3559999
-6.48 6.7410002 2.3429999
-6.494 6.7399998 2.3329999
-6.48 6.7410002 2.313
-6.513 6.7379999 2.3080001
-6.546 6.7360001 2.302
-6.7119999 6.723 2.335
-6.7550001 6.7199998 2.332
-6.783 6.7179999 2.3239999
-6.8249998 6.7140002 2.3199999
-6.8889999 6.7090001 2.322
-6.934 6.7059999 2.319
-6.9910002 6.7020001 2.319
-7.0479999 6.697 2.319
-7.105 6.6929998 2.3180001
-7.1589999 6.6890001 2.3169999
-7.2090001 6.6849999 2.3139999
-7.2839999 6.6789999 2.3180001
-7.3429999 6.6750002 2.3169999
-7.3460002 6.6750002 2.3010001
-7.3390002 6.6750002 2.283
-7.316 6.677 2.26
-7.335 6.6760001 2.2479999
-7.3410001 6.6750002 2.233
-7.3099999 6.677 2.2090001
-7.3379998 6.6750002 2.2
-7.3369999 6.6750002 2.1830001
-7.3309999 6.6760001 2.165
-7.3299999 6.6760001 2.148
-7.3379998 6.6750002 2.1340001
-7.362 6.6729999 2.1229999
-7.3839998 6.6719999 2.112
-7.4120002 6.6700001 2.1029999
-6.4819999 6.7270002 2.5599999
-6.4629998 6.7280002 2.5380001
-6.4749999 6.7270002 2.526
-6.4660001 6.7280002 2.5079999
-6.4840002 6.7270002 2.4979999
-6.48 6.7270002 2.4820001
-6.48 6.7270002 2.4660001
-6.4879999 6.7259998 2.4530001
-6.4679999 6.7280002 2.4319999
-6.48 6.7270002 2.4200001
-6.4889998 6.7259998 2.408
-6.4749999 6.7270002 2.388
-6.4749999 6.7270002 2.3729999
-6.4850001 6.7270002 2.3610001
-6.4790001 6.7270002 2.3440001
-6.474 6.7270002 2.3269999
-6.4829998 6.7270002 2.3139999
-6.5009999 6.7249999 2.3050001
-6.5209999 6.724 2.2950001
-6.5450001 6.7220001 2.2869999
-6.7059999 6.7090001 2.3180001
-6.776 6.704 2.322
-6.822 6.6999998 2.319
-6.8889999 6.6950002 2.323
-6.9229999 6.6919999 2.316
-6.994 6.6869998 2.3199999
-7.0320001 6.684 2.3150001
-7.1009998 6.678 2.3169999
-7.1500001 6.6739998 2.3150001
-7.2049999 6.6700001 2.313
-7.2820001 6.664 2.3169999
-7.342 6.6599998 2.3169999
-7.349 6.6589999 2.302
-7.3629999 6.658 2.289
-7.3429999 6.6589999 2.2679999
-7.348 6.6589999 2.2520001
-7.3179998 6.6609998 2.2279999
-7.342 6.6589999 2.2179999
-7.3460002 6.6589999 2.2019999
-7.336 6.6599998 2.1830001
-7.3449998 6.6589999 2.1689999
-7.329 6.6599998 2.148
-7.3429999 6.6589999 2.135
-7.3649998 6.658 2.1240001
-7.375 6.6570001 2.1099999
-7.3969998 6.6550002 2.099
-7.421 6.6529999 2.0880001
-6.4910002 6.7119999 2.563
-6.4840002 6.7119999 2.5450001
-6.474 6.7129998 2.526
-6.4790001 6.7129998 2.513
-6.4770002 6.7129998 2.497
-6.4780002 6.7129998 2.4809999
-6.4710002 6.7129998 2.464
-6.4770002 6.7129998 2.451
-6.4850001 6.7119999 2.438
-6.467 6.7140002 2.4170001
-6.4619999 6.7140002 2.4000001
-6.4840002 6.7119999 2.391
-6.4699998 6.7129998 2.372
-6.4699998 6.7129998 2.3570001
-6.4910002 6.7119999 2.348
-6.473 6.7129998 2.3269999
-6.4720001 6.7129998 2.312
-6.4889998 6.7119999 2.3010001
-6.4990001 6.711 2.289
-6.5240002 6.7090001 2.2809999
-6.553 6.7069998 2.2739999
-6.7540002 6.691 2.316
-6.8340001 6.684 2.323
-6.8870001 6.6799998 2.322
-6.9439998 6.6760001 2.323
-6.9959998 6.6719999 2.3210001
-7.0380001 6.6680002 2.3169999
-7.1020002 6.6630001 2.3180001
-7.164 6.658 2.319
-7.21 6.6550002 2.3150001
-7.283 6.6490002 2.3180001
-7.349 6.6430001 2.319
-7.3460002 6.6440001 2.302
-7.3390002 6.6440001 2.283
-7.3569999 6.6430001 2.2720001
-7.336 6.6440001 2.25
-7.3369999 6.6440001 2.233
-7.3499999 6.6430001 2.22
-7.3439999 6.6440001 2.2019999
-7.3400002 6.6440001 2.184
-7.3340001 6.645 2.1659999
-7.3429999 6.6440001 2.152
-7.3509998 6.6430001 2.138
-7.3829999 6.6409998 2.1289999
-7.3569999 6.6430001 2.1059999
-7.3530002 6.6430001 2.089
-7.3990002 6.6389999 2.0840001
-7.428 6.6370001 2.0739999
-6.5170002 6.6960001 2.556
-6.4840002 6.698 2.53
-6.4749999 6.6989999 2.5120001
-6.4759998 6.6989999 2.497
-6.4720001 6.6989999 2.48
-6.461 6.6999998 2.461
-6.4809999 6.6989999 2.4519999
-6.4689999 6.6999998 2.4330001
-6.4910002 6.698 2.425
-6.4569998 6.6999998 2.3989999
-6.4660001 6.6999998 2.3859999
-6.4699998 6.6989999 2.372
-6.474 6.6989999 2.358
-6.4780002 6.6989999 2.3440001
-6.4959998 6.697 2.3340001
-6.4590001 6.6999998 2.3080001
-6.4910002 6.698 2.302
-6.4809999 6.698 2.2839999
-6.4889998 6.698 2.2709999
-6.5170002 6.6960001 2.2639999
-6.5510001 6.6929998 2.2590001
-6.8189998 6.671 2.319
-6.875 6.6659999 2.3199999
-6.948 6.6609998 2.3239999
-6.9850001 6.6570001 2.3180001
-7.0539999 6.652 2.3210001
-7.086 6.6490002 2.3139999
-7.1539998 6.6430001 2.316
-7.2129998 6.6389999 2.316
-7.2680001 6.6339998 2.3139999
-7.3369999 6.6279998 2.316
-7.3540001 6.6269999 2.3039999
-7.3379998 6.6279998 2.283
-7.3460002 6.6279998 2.2690001
-7.3390002 6.6279998 2.2509999
-7.3540001 6.6269999 2.2379999
-7.3390002 6.6279998 2.2179999
-7.3390002 6.6279998 2.201
-7.3569999 6.6269999 2.1889999
-7.3559999 6.6269999 2.1719999
-7.3319998 6.6290002 2.1500001
-7.335 6.6290002 2.1340001
-7.3720002 6.6259999 2.1270001
-7.3709998 6.6259999 2.1099999
-7.3449998 6.6279998 2.0869999
-7.3649998 6.6259999 2.076
-7.4060001 6.6230001 2.069
-7.428 6.6209998 2.0580001
-6.5349998 6.6799998 2.5469999
-6.4829998 6.684 2.5150001
-6.487 6.684 2.5009999
-6.4840002 6.684 2.484
-6.4840002 6.684 2.4690001
-6.473 6.6849999 2.45
-6.4879999 6.684 2.4389999
-6.487 6.684 2.424
-6.4780002 6.6849999 2.4059999
-6.4770002 6.6849999 2.3900001
-6.4759998 6.6849999 2.3740001
-6.4720001 6.6849999 2.358
-6.4840002 6.684 2.346
-6.487 6.684 2.332
-6.4980001 6.6830001 2.3199999
-6.48 6.6849999 2.299
-6.4910002 6.6830001 2.2869999
-6.4970002 6.6830001 2.2739999
-6.4770002 6.684 2.253
-6.5240002 6.6810002 2.2509999
-6.573 6.6760001 2.25
-6.8709998 6.652 2.319
-6.9349999 6.6459999 2.3210001
-6.98 6.6430001 2.3169999
-7.04 6.638 2.3180001
-7.1020002 6.6329999 2.319
-7.151 6.6279998 2.316
-7.2150002 6.6230001 2.3169999
-7.2740002 6.618 2.316
-7.3319998 6.6129999 2.3150001
-7.3470001 6.612 2.303
-7.3460002 6.612 2.286
-7.336 6.6129999 2.267
-7.3439999 6.612 2.2520001
-7.348 6.612 2.237
-7.3379998 6.6129999 2.2179999
-7.342 6.6129999 2.2019999
-7.342 6.612 2.1860001
-7.3410001 6.6129999 2.1689999
-7.3400002 6.6129999 2.152
-7.3340001 6.6129999 2.1340001
-7.3709998 6.6100001 2.1270001
-7.3649998 6.6110001 2.109
-7.3449998 6.612 2.0880001
-7.3439999 6.612 2.0710001
-7.3670001 6.6100001 2.0599999
-7.4089999 6.6069999 2.0539999
-7.4260001 6.605 2.0409999
-6.5050001 6.6690001 2.5220001
-6.5 6.6690001 2.5050001
-6.4759998 6.671 2.4820001
-6.4879999 6.6700001 2.471
-6.4829998 6.6700001 2.454
-6.5019999 6.6680002 2.444
-6.4899998 6.6690001 2.425
-6.487 6.6700001 2.4089999
-6.4809999 6.6700001 2.392
-6.4759998 6.671 2.375
-6.48 6.6700001 2.3610001
-6.487 6.6700001 2.348
-6.4899998 6.6690001 2.3329999
-6.493 6.6690001 2.319
-6.4780002 6.6700001 2.299
-6.4899998 6.6690001 2.2880001
-6.5 6.6680002 2.2750001
-6.5019999 6.6680002 2.2609999
-6.5050001 6.6680002 2.2460001
-6.5180001 6.6669998 2.2349999
-6.585 6.6609998 2.2390001
-6.948 6.6300001 2.325
-6.994 6.6269999 2.3210001
-7.0440001 6.6220002 2.319
-7.098 6.618 2.3180001
-7.1539998 6.6129999 2.3169999
-7.2129998 6.6079998 2.3169999
-7.2649999 6.6040001 2.3139999
-7.3439999 6.5970001 2.319
-7.3509998 6.5960002 2.3039999
-7.3499999 6.5960002 2.2869999
-7.3299999 6.598 2.2650001
-7.3569999 6.5960002 2.256
-7.342 6.5970001 2.2360001
-7.3410001 6.5970001 2.2190001
-7.349 6.5960002 2.204
-7.349 6.5960002 2.188
-7.3579998 6.5960002 2.174
-7.3390002 6.5970001 2.152
-7.3330002 6.598 2.1340001
-7.3210001 6.599 2.115
-7.3470001 6.5960002 2.105
-7.3390002 6.5970001 2.0869999
-7.348 6.5960002 2.072
-7.3470001 6.5960002 2.056
-7.368 6.5949998 2.0439999
-7.401 6.592 2.036
-7.4380002 6.5890002 2.0280001
-6.5219998 6.6529999 2.513
-6.4990001 6.6550002 2.49
-6.4699998 6.658 2.4649999
-6.4829998 6.6560001 2.454
-6.4770002 6.6570001 2.437
-6.4790001 6.6570001 2.4219999
-6.4809999 6.6570001 2.4070001
-6.474 6.6570001 2.3900001
-6.4850001 6.6560001 2.378
-6.4840002 6.6560001 2.362
-6.487 6.6560001 2.348
-6.4899998 6.6550002 2.3340001
-6.4970002 6.6550002 2.3199999
-6.4840002 6.6560001 2.3010001
-6.4819999 6.6560001 2.2850001
-6.5029998 6.6539998 2.276
-6.5079999 6.6539998 2.263
-6.5050001 6.6539998 2.247
-6.5079999 6.6539998 2.2320001
-6.5349998 6.651 2.2249999
-6.6069999 6.645 2.23
-6.9980001 6.6110001 2.323
-7.0580001 6.6059999 2.3239999
-7.1009998 6.6020002 2.319
-7.1500001 6.598 2.316
-7.2059999 6.5929999 2.3150001
-7.2480001 6.5900002 2.3099999
-7.3280001 6.5830002 2.3150001
-7.3639998 6.5799999 2.3080001
-7.3540001 6.5799999 2.289
-7.3330002 6.5819998 2.267
-7.3470001 6.5809999 2.2539999
-7.3660002 6.579 2.2420001
-7.355 6.5799999 2.223
-7.3390002 6.5819998 2.2019999
-7.3460002 6.5809999 2.187
-7.3379998 6.5819998 2.1689999
-7.2839999 6.586 2.1389999
-7.2449999 6.5900002 2.1129999
-7.2740002 6.5869999 2.1040001
-7.349 6.5809999 2.1059999
-7.3429999 6.5809999 2.0880001
-7.3369999 6.5819998 2.0699999
-7.3499999 6.5809999 2.0569999
-7.3439999 6.5809999 2.039
-7.3829999 6.5780001 2.0320001
-7.408 6.5760002 2.0209999
-7.4289999 6.5739999 2.0090001
-6.506 6.6399999 2.4920001
-6.4959998 6.6409998 2.474
-6.4780002 6.6430001 2.4530001
-6.46 6.6440001 2.4319999
-6.4749999 6.6430001 2.421
-6.494 6.6409998 2.4119999
-6.473 6.6430001 2.3900001
-6.474 6.6430001 2.375
-6.4699998 6.6430001 2.359
-6.4910002 6.6420002 2.349
-6.494 6.6409998 2.335
-6.4879999 6.6420002 2.3180001
-6.4980001 6.6409998 2.306
-6.4889998 6.6420002 2.2880001
-6.5 6.6409998 2.276
-6.4959998 6.6409998 2.26
-6.4920001 6.6409998 2.243
-6.494 6.6409998 2.2290001
-6.4959998 6.6409998 2.214
-6.533 6.6370001 2.2090001
-6.5809999 6.6329999 2.2079999
-7.046 6.592 2.3210001
-7.0929999 6.5879998 2.3180001
-7.1609998 6.5819998 2.3199999
-7.2090001 6.5780001 2.3169999
-7.2690001 6.572 2.316
-7.3610001 6.5640001 2.2909999
-7.3509998 6.5650001 2.2720001
-7.355 6.5650001 2.256
-7.3449998 6.566 2.237
-7.3530002 6.5650001 2.223
-7.348 6.5650001 2.2049999
-7.3410001 6.566 2.1860001
-7.211 6.5770001 2.138
-7.1929998 6.579 2.1170001
-7.21 6.5770001 2.105
-7.2800002 6.5710001 2.1059999
-7.3379998 6.566 2.1029999
-7.3499999 6.5650001 2.0899999
-7.3649998 6.5640001 2.0769999
-7.3439999 6.566 2.056
-7.3610001 6.5640001 2.043
-7.3509998 6.5650001 2.0250001
-7.3730001 6.5630002 2.013
-7.4219999 6.559 2.0079999
-7.4390001 6.5570002 1.9960001
-6.5050001 6.6259999 2.477
-6.5 6.6269999 2.46
-6.4759998 6.6290002 2.437
-6.4790001 6.6290002 2.4230001
-6.5019999 6.6269999 2.415
-6.4770002 6.6290002 2.392
-6.4650002 6.6300001 2.3729999
-6.4819999 6.6279998 2.3629999
-6.4809999 6.6279998 2.3469999
-6.493 6.6269999 2.335
-6.494 6.6269999 2.3199999
-6.5050001 6.6259999 2.3080001
-6.4949999 6.6269999 2.29
-6.4980001 6.6269999 2.276
-6.5120001 6.6259999 2.2650001
-6.4949999 6.6269999 2.2449999
-6.513 6.625 2.2349999
-6.526 6.6240001 2.223
-6.5089998 6.625 2.2030001
-6.54 6.6230001 2.197
-6.5970001 6.6170001 2.197
-7.098 6.572 2.319
-7.1550002 6.5669999 2.319
-7.211 6.5619998 2.3169999
-7.3520002 6.5489998 2.273
-7.3790002 6.5469999 2.263
-7.3629999 6.5479999 2.2420001
-7.3569999 6.5489998 2.224
-7.3509998 6.5500002 2.2060001
-7.1339998 6.5689998 2.135
-7.1240001 6.5700002 2.1159999
-7.1500001 6.5679998 2.1070001
-7.1929998 6.5640001 2.1010001
-7.2750001 6.5560002 2.105
-7.3499999 6.5500002 2.1070001
-7.362 6.5479999 2.0929999
-7.3530002 6.5489998 2.075
-7.3470001 6.5500002 2.0569999
-7.3449998 6.5500002 2.04
-7.3499999 6.5489998 2.0250001
-7.3340001 6.5510001 2.0050001
-7.3720002 6.5469999 1.997
-7.4029999 6.5450001 1.988
-7.4159999 6.5440001 1.974
-6.4959998 6.6129999 2.4590001
-6.48 6.6149998 2.4389999
-6.4759998 6.6149998 2.4219999
-6.4819999 6.6139998 2.4089999
-6.4879999 6.6139998 2.395
-6.4860001 6.6139998 2.3800001
-6.4759998 6.6149998 2.3610001
-6.4850001 6.6139998 2.349
-6.48 6.6139998 2.332
-6.4790001 6.6149998 2.316
-6.5 6.6129999 2.3069999
-6.493 6.6129999 2.29
-6.5029998 6.612 2.2780001
-6.4920001 6.6129999 2.2590001
-6.4949999 6.6129999 2.2449999
-6.5170002 6.6110001 2.2360001
-6.507 6.612 2.2179999
-6.5149999 6.6110001 2.2049999
-6.52 6.6110001 2.191
-6.5489998 6.6079998 2.184
-6.6290002 6.6009998 2.191
-7.1459999 6.553 2.316
-7.3670001 6.533 2.26
-7.3559999 6.5339999 2.2409999
-7.3600001 6.533 2.2249999
-7.0799999 6.559 2.138
-7.085 6.5580001 2.1229999
-7.0999999 6.5570002 2.1110001
-7.1269999 6.5539999 2.1010001
-7.2030001 6.5469999 2.1040001
-7.2849998 6.54 2.108
-7.3579998 6.533 2.109
-7.3579998 6.533 2.0929999
-7.3559999 6.533 2.076
-7.3670001 6.5320001 2.062
-7.3639998 6.533 2.0450001
-7.3610001 6.533 2.0280001
-7.3610001 6.533 2.0109999
-7.3509998 6.5339999 1.993
-7.3829999 6.5310001 1.984
-7.4260001 6.527 1.977
-7.4289999 6.527 1.961
-6.5050001 6.598 2.447
-6.4829998 6.5999999 2.425
-6.494 6.599 2.4130001
-6.4959998 6.599 2.398
-6.4829998 6.5999999 2.3789999
-6.48 6.5999999 2.3629999
-6.4710002 6.6009998 2.345
-6.4829998 6.5999999 2.3329999
-6.4829998 6.5999999 2.3180001
-6.4780002 6.6009998 2.3010001
-6.5190001 6.5970001 2.2980001
-6.5019999 6.598 2.2780001
-6.4959998 6.599 2.2609999
-6.5029998 6.598 2.2479999
-6.5 6.598 2.2320001
-6.513 6.5970001 2.22
-6.4990001 6.598 2.201
-6.5089998 6.5970001 2.1889999
-6.5139999 6.5970001 2.175
-6.5609999 6.592 2.1730001
-6.5409999 6.5939999 2.152
-7.3740001 6.5159998 2.2460001
-7.0040002 6.5510001 2.1340001
-7.0089998 6.5500002 2.1199999
-7.0510001 6.546 2.115
-7.079 6.5440001 2.1059999
-7.125 6.539 2.1010001
-7.2059999 6.5320001 2.105
-7.2680001 6.526 2.1040001
-7.3509998 6.5180001 2.108
-7.3629999 6.5170002 2.0940001
-7.355 6.5180001 2.076
-7.368 6.5170002 2.062
-7.3579998 6.5180001 2.0439999
-7.3639998 6.5170002 2.029
-7.3740001 6.5159998 2.0150001
-7.3540001 6.5180001 1.994
-7.3530002 6.5180001 1.977
-7.3979998 6.5139999 1.971
-7.4250002 6.5110002 1.961
-7.4559999 6.5079999 1.951
-6.4959998 6.585 2.4289999
-6.4809999 6.586 2.4089999
-6.48 6.586 2.3940001
-6.487 6.585 2.3800001
-6.5009999 6.5840001 2.3699999
-6.4949999 6.585 2.352
-6.4899998 6.585 2.336
-6.473 6.5869999 2.3150001
-6.4819999 6.586 2.303
-6.5050001 6.5840001 2.2939999
-6.4959998 6.5840001 2.277
-6.5 6.5840001 2.2620001
-6.5050001 6.5840001 2.2479999
-6.5019999 6.5840001 2.233
-6.5 6.5840001 2.217
-6.4959998 6.5840001 2.201
-6.513 6.5830002 2.1900001
-6.5240002 6.5819998 2.178
-6.5300002 6.5809999 2.165
-6.5650001 6.5780001 2.1589999
-6.5939999 6.5749998 2.152
-6.9549999 6.5409999 2.138
-6.9569998 6.54 2.1229999
-6.993 6.5370002 2.1159999
-7.0050001 6.5359998 2.1029999
-7.0840001 6.5279999 2.1070001
-7.1360002 6.5229998 2.1040001
-7.2210002 6.5149999 2.109
-7.2719998 6.5100002 2.105
-7.3590002 6.5019999 2.1099999
-7.3629999 6.5009999 2.095
-7.3390002 6.5029998 2.073
-7.3649998 6.5009999 2.062
-7.3600001 6.5009999 2.0450001
-7.3740001 6.5 2.0309999
-7.3530002 6.5019999 2.01
-7.3530002 6.5019999 1.994
-7.3470001 6.5029998 1.976
-7.3590002 6.5009999 1.962
-7.3889999 6.4990001 1.9529999
-7.428 6.4949999 1.9450001
-7.461 6.4920001 1.936
-6.5079999 6.5689998 2.4330001
-6.494 6.5710001 2.414
-6.4759998 6.572 2.3929999
-6.4879999 6.5710001 2.381
-6.4860001 6.5710001 2.365
-6.494 6.5710001 2.352
-6.5050001 6.5700002 2.3399999
-6.5009999 6.5700002 2.3239999
-6.4980001 6.5700002 2.3080001
-6.4819999 6.572 2.2880001
-6.4970002 6.5700002 2.277
-6.494 6.5710001 2.2609999
-6.5019999 6.5700002 2.2479999
-6.5019999 6.5700002 2.233
-6.5029998 6.5700002 2.2179999
-6.5100002 6.5689998 2.2049999
-6.5100002 6.5689998 2.1900001
-6.5120001 6.5689998 2.175
-6.5149999 6.5679998 2.161
-6.5370002 6.566 2.152
-6.5640001 6.5640001 2.1440001
-6.8930001 6.5310001 2.138
-6.915 6.5289998 2.128
-6.9400001 6.527 2.119
-6.954 6.5250001 2.1070001
-7.0170002 6.5190001 2.1070001
-7.0890002 6.5120001 2.109
-7.1350002 6.5079999 2.1040001
-7.21 6.5 2.1070001
-7.27 6.4949999 2.105
-7.3530002 6.487 2.109
-7.3649998 6.4850001 2.096
-7.3520002 6.487 2.076
-7.3559999 6.4860001 2.0610001
-7.3639998 6.4850001 2.046
-7.3579998 6.4860001 2.0280001
-7.375 6.4840002 2.016
-7.3559999 6.4860001 1.995
-7.3639998 6.4850001 1.98
-7.3629999 6.4850001 1.964
-7.362 6.4860001 1.947
-7.4029999 6.4819999 1.9400001
-7.4359999 6.4780002 1.931
-7.4530001 6.4770002 1.918
-6.5040002 6.5560002 2.4170001
-6.5019999 6.5560002 2.401
-6.487 6.5570002 2.381
-6.4840002 6.5580001 2.365
-6.4889998 6.5570002 2.352
-6.4920001 6.5570002 2.3369999
-6.5170002 6.5539999 2.329
-6.4949999 6.5560002 2.3080001
-6.4949999 6.5560002 2.2920001
-6.5170002 6.5539999 2.283
-6.5040002 6.5560002 2.2639999
-6.5029998 6.5560002 2.2490001
-6.5 6.5560002 2.233
-6.4860001 6.5570002 2.214
-6.4959998 6.5560002 2.2019999
-6.5079999 6.5549998 2.1900001
-6.5050001 6.5549998 2.174
-6.52 6.553 2.1630001
-6.5029998 6.5549998 2.1429999
-6.54 6.5510001 2.138
-6.566 6.5489998 2.1300001
-6.8270001 6.5229998 2.1370001
-6.862 6.52 2.131
-6.8709998 6.5190001 2.1170001
-6.9060001 6.5149999 2.1110001
-6.948 6.5110002 2.1059999
-7.0089998 6.5050001 2.105
-7.0749998 6.4980001 2.1059999
-7.1360002 6.4920001 2.105
-7.2020001 6.4860001 2.105
-7.2789998 6.4780002 2.108
-7.3210001 6.474 2.102
-7.3649998 6.4699998 2.096
-7.3730001 6.4689999 2.0810001
-7.3709998 6.4689999 2.0639999
-7.3759999 6.4689999 2.049
-7.362 6.4699998 2.029
-7.3720002 6.4689999 2.0150001
-7.3769999 6.4679999 2
-7.381 6.4679999 1.985
-7.3660002 6.4689999 1.965
-7.3600001 6.4699998 1.947
-7.369 6.4689999 1.933
-7.395 6.467 1.9220001
-7.434 6.4629998 1.914
-7.454 6.461 1.902
-6.5190001 6.54 2.4070001
-6.5 6.5419998 2.3859999
-6.4899998 6.5430002 2.3670001
-6.4829998 6.5430002 2.3499999
-6.487 6.5430002 2.336
-6.494 6.5419998 2.323
-6.513 6.54 2.313
-6.4819999 6.5430002 2.289
-6.4850001 6.5430002 2.2739999
-6.4990001 6.5419998 2.263
-6.4959998 6.5419998 2.247
-6.506 6.5409999 2.2349999
-6.4980001 6.5419998 2.217
-6.506 6.5409999 2.2049999
-6.5079999 6.5409999 2.1900001
-6.5079999 6.5409999 2.175
-6.5100002 6.54 2.1600001
-6.5180001 6.539 2.1470001
-6.5229998 6.539 2.1340001
-6.5289998 6.5380001 2.1199999
-6.5539999 6.5359998 2.112
-6.5749998 6.5339999 2.102
-6.8099999 6.5100002 2.1329999
-6.829 6.5079999 2.1229999
-6.8309999 6.5079999 2.108
-6.895 6.5009999 2.108
-6.9499998 6.4959998 2.1059999
-7.0219998 6.4879999 2.109
-7.0819998 6.4819999 2.108
-7.1529999 6.4749999 2.1099999
-7.21 6.4689999 2.108
-7.2779999 6.4619999 2.108
-7.3569999 6.4549999 2.1110001
-7.3730001 6.4530001 2.098
-7.349 6.4549999 2.076
-7.3709998 6.4530001 2.0650001
-7.3649998 6.454 2.0469999
-7.3569999 6.454 2.029
-7.3769999 6.4520001 2.017
-7.3720002 6.4530001 1.999
-7.3850002 6.4520001 1.9859999
-7.375 6.4530001 1.967
-7.368 6.4530001 1.949
-7.3660002 6.4530001 1.932
-7.3839998 6.4520001 1.92
-7.3839998 6.4520001 1.904
-7.4400001 6.4460001 1.9
-7.4569998 6.4439998 1.887
-6.5110002 6.526 2.3900001
-6.4980001 6.527 2.3699999
-6.4899998 6.5279999 2.3529999
-6.4809999 6.5289998 2.335
-6.4899998 6.5279999 2.322
-6.5170002 6.5250001 2.3150001
-6.4780002 6.5289998 2.2880001
-6.4970002 6.527 2.2780001
-6.4959998 6.527 2.263
-6.48 6.5289998 2.243
-6.4899998 6.5279999 2.2309999
-6.5089998 6.526 2.221
-6.5019999 6.527 2.204
-6.4990001 6.527 2.188
-6.5089998 6.526 2.1760001
-6.5139999 6.5250001 2.1619999
-6.5250001 6.5240002 2.1500001
-6.5240002 6.5240002 2.1340001
-6.5289998 6.5240002 2.1210001
-6.5539999 6.5209999 2.112
-6.5879998 6.5180001 2.1059999
-6.6729999 6.5089998 2.1129999
-6.7639999 6.5 2.122
-6.7969999 6.4959998 2.115
-6.8299999 6.493 2.108
-6.8979998 6.4860001 2.109
-6.9530001 6.48 2.108
-7.007 6.4749999 2.1059999
-7.085 6.467 2.109
-7.1399999 6.461 2.1070001
-7.204 6.454 2.1070001
-7.2659998 6.448 2.1059999
-7.3449998 6.4400001 2.108
-7.3800001 6.4359999 2.0999999
-7.3660002 6.4380002 2.0810001
-7.3699999 6.4369998 2.0650001
-7.3639998 6.4380002 2.0469999
-7.375 6.4369998 2.033
-7.3740001 6.4369998 2.017
-7.3740001 6.4369998 2
-7.3779998 6.4359999 1.985
-7.368 6.4369998 1.966
-7.3720002 6.4369998 1.951
-7.3800001 6.4359999 1.936
-7.4159999 6.4320002 1.928
-7.3959999 6.434 1.9069999
-7.4089999 6.4330001 1.893
-7.4369998 6.4299998 1.883
-7.4499998 6.4289999 1.869
-6.5180001 6.5110002 2.3770001
-6.5149999 6.5110002 2.3610001
-6.4980001 6.513 2.3399999
-6.5019999 6.5120001 2.326
-6.5009999 6.5120001 2.3110001
-6.5 6.513 2.2950001
-6.513 6.5110002 2.2839999
-6.4889998 6.5139999 2.2609999
-6.4850001 6.5139999 2.2449999
-6.493 6.513 2.2320001
-6.5050001 6.5120001 2.221
-6.5050001 6.5120001 2.2049999
-6.5089998 6.5110002 2.191
-6.5079999 6.5120001 2.1760001
-6.5170002 6.5110002 2.1630001
-6.5089998 6.5110002 2.1459999
-6.507 6.5120001 2.1300001
-6.5219998 6.5100002 2.119
-6.527 6.5089998 2.105
-6.5510001 6.507 2.0969999
-6.585 6.5029998 2.0899999
-6.717 6.4899998 2.1099999
-6.7729998 6.4840002 2.109
-6.8330002 6.4780002 2.109
-6.895 6.4710002 2.109
-6.961 6.4640002 2.1099999
-7.0050001 6.46 2.1059999
-7.0749998 6.4520001 2.1070001
-7.131 6.4460001 2.105
-7.1950002 6.4400001 2.105
-7.2680001 6.4320002 2.1070001
-7.3280001 6.4260001 2.105
-7.3660002 6.4219999 2.0969999
-7.3790002 6.421 2.0840001
-7.3769999 6.421 2.0669999
-7.3660002 6.4219999 2.0480001
-7.362 6.4219999 2.0309999
-7.3829999 6.4200001 2.0190001
-7.3829999 6.4200001 2.003
-7.348 6.4239998 1.978
-7.3800001 6.4200001 1.969
-7.3699999 6.421 1.951
-7.3730001 6.421 1.9349999
-7.3899999 6.4190001 1.9220001
-7.3940001 6.4180002 1.9069999
-7.3790002 6.4200001 1.887
-7.4099998 6.4169998 1.878
-7.4330001 6.414 1.8660001
-7.4549999 6.4120002 1.854
-6.52 6.4959998 2.3629999
-6.507 6.4980001 2.3429999
-6.507 6.4980001 2.3280001
-6.5050001 6.4980001 2.312
-6.4809999 6.5 2.29
-6.4980001 6.4990001 2.28
-6.5180001 6.4970002 2.27
-6.4970002 6.4990001 2.2490001
-6.4949999 6.4990001 2.233
-6.4949999 6.4990001 2.2179999
-6.4959998 6.4990001 2.2030001
-6.5170002 6.4970002 2.194
-6.507 6.4980001 2.1760001
-6.52 6.4959998 2.165
-6.5180001 6.4959998 2.1489999
-6.5159998 6.4970002 2.1329999
-6.5170002 6.4959998 2.118
-6.5349998 6.4949999 2.108
-6.5170002 6.4959998 2.0880001
-6.5640001 6.4910002 2.085
-6.5780001 6.4899998 2.0739999
-6.658 6.4809999 2.0799999
-6.836 6.4629998 2.1099999
-6.882 6.4580002 2.1059999
-6.9549999 6.4499998 2.109
-7.0159998 6.4429998 2.109
-7.0879998 6.4359999 2.1110001
-7.1339998 6.4310002 2.1059999
-7.1950002 6.4239998 2.105
-7.2690001 6.4169998 2.1070001
-7.3280001 6.4099998 2.105
-7.3740001 6.4060001 2.0999999
-7.3769999 6.4050002 2.0840001
-7.3860002 6.4039998 2.0699999
-7.3649998 6.4060001 2.0480001
-7.3730001 6.4060001 2.0339999
-7.382 6.4050002 2.0190001
-7.3709998 6.4060001 2
-7.3660002 6.4060001 1.983
-7.3779998 6.4039998 1.969
-7.3730001 6.4050002 1.952
-7.3720002 6.4060001 1.9349999
-7.3829999 6.4039998 1.921
-7.3990002 6.402 1.908
-7.3769999 6.4050002 1.887
-7.3899999 6.4029999 1.874
-7.4169998 6.4000001 1.863
-7.4499998 6.3969998 1.854
-7.428 6.3990002 1.8329999
-7.4419999 6.3839998 2.9860001
-7.5149999 6.3759999 2.993
-6.5359998 6.4809999 2.3529999
-6.5149999 6.4829998 2.3310001
-6.4790001 6.487 2.3050001
-6.5040002 6.4840002 2.2969999
-6.4980001 6.4850001 2.28
-6.5110002 6.4840002 2.2690001
-6.5050001 6.4840002 2.2520001
-6.4990001 6.4850001 2.2349999
-6.4949999 6.4850001 2.2179999
-6.506 6.4840002 2.207
-6.5050001 6.4840002 2.191
-6.5149999 6.4829998 2.1789999
-6.507 6.4840002 2.161
-6.5180001 6.4829998 2.1489999
-6.4970002 6.4850001 2.128
-6.5180001 6.4829998 2.119
-6.5310001 6.4809999 2.1070001
-6.513 6.4829998 2.0869999
-6.5339999 6.48 2.0780001
-6.566 6.4770002 2.0710001
-6.5890002 6.474 2.062
-6.6989999 6.4629998 2.075
-6.901 6.441 2.112
-6.9580002 6.4349999 2.1099999
-7.02 6.428 2.1099999
-7.0780001 6.4219999 2.109
-7.1269999 6.4159999 2.105
-7.1869998 6.4099998 2.1040001
-7.2649999 6.402 2.1070001
-7.3200002 6.3959999 2.1040001
-7.3720002 6.3899999 2.0999999
-7.3759999 6.3899999 2.0840001
-7.375 6.3899999 2.0669999
-7.3829999 6.3889999 2.053
-7.382 6.3889999 2.036
-7.3709998 6.3899999 2.017
-7.3790002 6.3889999 2.003
-7.369 6.3899999 1.984
-7.3730001 6.3899999 1.9680001
-7.3670001 6.3899999 1.951
-7.375 6.3899999 1.936
-7.3579998 6.3909998 1.916
-7.3759999 6.3889999 1.904
-7.3850002 6.388 1.8890001
-7.3889999 6.388 1.874
-7.3860002 6.388 1.857
-7.4330001 6.3829999 1.85
-7.4619999 6.3800001 1.84
-7.4860001 6.3769999 1.829
-7.4380002 6.369 2.9849999
-7.4499998 6.368 2.971
-7.5050001 6.362 2.9719999
-6.5339999 6.467 2.3529999
-6.5419998 6.4660001 2.3399999
-6.5079999 6.4699998 2.3139999
-6.4970002 6.4710002 2.296
-6.4920001 6.4710002 2.279
-6.5050001 6.4699998 2.2679999
