ply
format ascii 1.0
comment PCL generated
element vertex 752
property float x
property float y
property float z
element camera 1
property float view_px
property float view_py
property float view_pz
property float x_axisx
property float x_axisy
property float x_axisz
property float y_axisx
property float y_axisy
property float y_axisz
property float z_axisx
property float z_axisy
property float z_axisz
property float focal
property float scalex
property float scaley
property float centerx
property float centery
property int viewportx
property int viewporty
property float k1
property float k2
end_header
-10.631572 4.4952865 0.053428575
-10.5774 4.4954004 0.080000006
-10.824878 4.5643244 0.03056756
-10.756451 4.536015 0.054114293
-10.650579 4.5159001 0.048851233
-10.576853 4.5317807 0.067878045
-10.82487 4.6457677 0.03114493
-10.769917 4.6621637 0.074426234
-10.652999 4.6757998 0.056559999
-10.567999 4.6448894 0.052962963
-10.815599 4.7032003 0.017800001
-10.774801 4.7056003 0.043200001
-9.6464996 5.3842497 0.017749999
-9.5521431 5.3766665 0.054571431
-9.4932499 5.3827496 0.096000001
-9.818965 5.4775357 0.052928574
-9.7577267 5.4434247 0.056787882
-9.6468849 5.4492154 0.053960789
-9.5518942 5.4139476 0.071263164
-9.8156853 5.5459361 0.059240505
-9.7934999 5.5835838 0.034750003
-9.6307116 5.5519042 0.053096153
-9.8046846 5.6160522 0.049999997
-9.7600155 5.6234665 0.052919354
-9.6699686 5.6071014 0.051266678
-10.62325 4.4975004 0.1485
-10.549367 4.4931731 0.1568269
-10.499001 4.484334 0.18766665
-10.734711 4.5510907 0.14200762
-10.650546 4.5149159 0.14909919
-10.550477 4.5186625 0.14519718
-10.478063 4.5458746 0.18206251
-10.73278 4.6440449 0.14626668
-10.655616 4.6756673 0.15599999
-10.544849 4.6557274 0.14348485
-10.477 4.6401825 0.175
-10.7195 4.7079997 0.1275
-10.669 4.7212501 0.16850001
-9.7259998 5.3979998 0.131
-9.5282497 5.3733749 0.14324999
-9.4476357 5.3751516 0.15536363
-9.3999996 5.369 0.189
-9.8172293 5.4846158 0.15405127
-9.7631035 5.4572053 0.15394872
-9.6523151 5.4570212 0.14703922
-9.5245838 5.4144168 0.12841667
-9.467144 5.4078579 0.16642857
-9.8164225 5.548409 0.15022221
-9.7958002 5.5734 0.14400001
-9.6285 5.5494804 0.15381999
-9.8063021 5.6167998 0.14510001
-9.7552338 5.6244855 0.1478125
-9.6715431 5.6128569 0.14822857
-10.6104 4.4959998 0.2386
-10.539446 4.4921751 0.25058725
-10.465968 4.4873791 0.25840908
-10.705 4.55725 0.20275
-10.648804 4.5414944 0.24586312
-10.56677 4.5075903 0.25003573
-10.445679 4.5273547 0.24719355
-10.3894 4.5214 0.28340003
-10.704 4.6064997 0.20050001
-10.649908 4.6471906 0.24542999
-10.551001 4.6632581 0.25254837
-10.454526 4.647737 0.25399998
-10.384601 4.6259999 0.278
-10.6245 4.7129998 0.2315
-9.4360008 5.3746109 0.22416666
-9.3557882 5.3676744 0.2508269
-9.28475 5.3447504 0.28924999
-9.8165264 5.4872642 0.24865788
-9.7665138 5.4580245 0.25109753
-9.6569996 5.4617553 0.24896227
-9.4313335 5.4036665 0.21833333
-9.8135834 5.5478649 0.24788541
-9.7920008 5.5720835 0.25250003
-9.6279516 5.5471878 0.2511695
-9.8136673 5.6149168 0.24008337
-9.7582273 5.6263165 0.24850635
-9.6685266 5.6136942 0.24874997
-10.531209 4.4932799 0.33795351
-10.451523 4.4839907 0.34981582
-10.369773 4.4789615 0.36558491
-10.612902 4.550323 0.31599998
-10.563283 4.5337739 0.35500807
-10.4335 4.5019999 0.3655
-10.352953 4.5328093 0.33819044
-10.297501 4.5760002 0.39500001
-10.609333 4.6305838 0.30883333
-10.560719 4.6435485 0.35119507
-10.457384 4.6518073 0.34561545
-10.356158 4.6321578 0.35557896
-10.2825 4.612 0.37199998
-9.2720003 5.2979999 0.329
-9.4029999 5.3590002 0.301
-9.3249998 5.3608999 0.32930002
-9.2561083 5.3440666 0.3553867
-9.8109713 5.4848824 0.35514706
-9.754652 5.4572334 0.34821364
-9.6597176 5.461134 0.35370004
-9.8147135 5.543601 0.34983149
-9.7960005 5.5862222 0.35888889
-9.6293621 5.5503631 0.35124147
-9.8061543 5.6103854 0.36276922
-9.7601128 5.6296711 0.35147145
-9.6686878 5.6160002 0.35321876
-10.511286 4.495429 0.42071432
-10.444832 4.4842491 0.44673967
-10.352402 4.4698691 0.44971961
-10.272054 4.4700809 0.46659461
-10.526543 4.5399733 0.42575675
-10.482064 4.5358696 0.47103274
-10.326 4.559 0.40200001
-10.262 4.5472002 0.44009995
-10.519906 4.6268134 0.42081249
-10.46427 4.639318 0.45887306
-10.355502 4.6355386 0.44842312
-10.263155 4.6173849 0.46123081
-9.3170004 5.3319998 0.40200001
-9.2303343 5.3447084 0.42870831
-9.1576853 5.3314686 0.44753134
-9.8119354 5.4842577 0.44922578
-9.7565737 5.4599004 0.44955447
-9.6634989 5.4607553 0.45138583
-9.8141527 5.5448456 0.44891754
-9.7975006 5.5775003 0.44725001
-9.6292343 5.5527167 0.45118344
-9.5979996 5.5630002 0.417
-9.8052311 5.619616 0.45823076
-9.7620964 5.6306267 0.44897589
-9.6707439 5.6187949 0.44889745
-10.426081 4.4867549 0.53491837
-10.351602 4.4730086 0.54996616
-10.253866 4.4561248 0.55213487
-10.178765 4.4622936 0.57370591
-10.435516 4.5435357 0.54226804
-10.392401 4.5572004 0.58920002
-10.2125 4.5544996 0.50999999
-10.1771 4.5559001 0.5528
-9.9556255 4.5402231 0.5483529
-10.427763 4.6265793 0.53284216
-10.365023 4.6313024 0.56106967
-10.250286 4.6208925 0.55335724
-10.175334 4.6069999 0.58033335
-9.8070002 5.3930001 0.55900002
-9.1287775 5.3352222 0.5163334
-9.8171797 5.4782209 0.54769999
-9.7539492 5.4626074 0.55072147
-9.6610651 5.4612465 0.55153257
-9.8152056 5.5458746 0.54522729
-9.7953072 5.5709229 0.55107695
-9.6275759 5.5532122 0.55076921
-9.806715 5.6138568 0.56328571
-9.7661734 5.6321092 0.5513044
-9.6637955 5.6208982 0.54814285
-10.340459 4.479342 0.64082354
-10.25333 4.456934 0.64961344
-10.166363 4.4480586 0.65475357
-10.08675 4.4780002 0.67275
-10.353445 4.5473661 0.64737624
-10.1156 4.5923996 0.64280003
-10.0378 4.5415998 0.67500001
-9.9578485 4.5383506 0.64785016
-10.337179 4.6238399 0.64489979
-10.2638 4.6269999 0.64975995
-10.160749 4.6094999 0.65541673
-9.8090506 5.4804997 0.63580006
-9.7553234 5.4674001 0.65012205
-9.6622572 5.4668179 0.64974254
-9.8135986 5.5423412 0.64903659
-9.7972631 5.5704741 0.65352637
-9.629282 5.5519819 0.64783025
-9.8061113 5.613111 0.64022231
-9.7603779 5.6330113 0.65241468
-9.6675549 5.6229334 0.64917797
-10.313001 4.4795833 0.70791668
-10.247101 4.4667435 0.75071543
-10.150616 4.4424758 0.75126731
-10.061783 4.4389567 0.75913048
-9.9846363 4.4437308 0.74358732
-10.310463 4.5400004 0.70715386
-10.269061 4.5492043 0.75389153
-10.102 4.5970001 0.69999999
-10.032001 4.5701542 0.74107695
-10.3055 4.6069999 0.70050001
-10.252461 4.6174359 0.74738455
-10.148999 4.610889 0.75222218
-10.079668 4.6016669 0.76133335
-9.8122501 5.4943752 0.74825001
-9.7597075 5.4688659 0.75045329
-9.6599665 5.4684663 0.74390006
-9.8112373 5.5461006 0.74813473
-9.7930002 5.5544167 0.74916673
-9.6277781 5.5560374 0.74742591
-9.6000004 5.5799999 0.76899999
-9.8083849 5.6125379 0.73515397
-9.7606745 5.6369996 0.75326759
-9.663744 5.6232095 0.75158143
-10.007381 4.3637142 0.84695238
-10.221224 4.4731665 0.82716674
-10.152472 4.4516344 0.8510893
-10.055101 4.4298496 0.85113758
-9.9879484 4.4215388 0.84800005
-10.216607 4.551415 0.82265842
-10.175382 4.5494905 0.86921805
-10.036667 4.5947504 0.83925009
-10.212 4.6130004 0.81400001
-10.155252 4.6148577 0.85700005
-10.0724 4.6058002 0.86199999
-9.8037148 5.4892859 0.84914291
-9.7557516 5.4702654 0.84898531
-9.6599789 5.4649067 0.85044187
-9.8119869 5.5411515 0.85063297
-9.7959995 5.5597782 0.84711111
-9.6266556 5.5565014 0.84719241
-9.8062315 5.6133847 0.85176921
-9.7594995 5.6348109 0.85118902
-9.6615696 5.624227 0.85143185
-10.007769 4.3614616 0.94423079
-10.129003 4.4638224 0.93459707
-10.053908 4.4368229 0.94965625
-9.9870338 4.4206333 0.9544667
-10.127666 4.5464501 0.93511677
-10.070406 4.5648441 0.9736563
-10.117273 4.6082726 0.92736369
-10.070357 4.6081429 0.9590714
-9.810667 5.4921665 0.96350002
-9.7555609 5.4742336 0.95031506
-9.6597271 5.4668956 0.95143747
-9.8100891 5.5392351 0.94707346
-9.7949743 5.5603518 0.95213515
-9.6272287 5.5534091 0.94302267
-9.8052006 5.6152005 0.93850005
-9.7624941 5.6374812 0.95374042
-9.6647263 5.6288633 0.95231813
-10.007267 4.3670001 1.0541335
-9.9587126 4.3574715 1.0512707
-10.039081 4.4589891 1.042091
-9.9883251 4.4220996 1.0467501
-10.036065 4.5528555 1.0433682
-9.9575396 4.577693 1.0658462
-9.8455429 4.5625997 1.0481999
-10.047 4.60325 1.0241251
-9.9463749 4.6125002 1.050375
-9.8080006 5.4903078 1.0493076
-9.7574415 5.4794722 1.0488529
-9.6614914 5.4723396 1.049415
-9.8100471 5.5375867 1.0478731
-9.7926693 5.5534892 1.050889
-9.6245642 5.5502563 1.0448463
-9.803401 5.6158004 1.0432
-9.7671442 5.6321926 1.0493734
-9.6559753 5.6304364 1.0519489
-10.004416 4.3727498 1.1513333
-9.9617548 4.3601303 1.151
-9.8512831 4.3434439 1.149716
-9.771596 4.3487091 1.1503417
-10.006145 4.4428573 1.1131428
-9.985693 4.4487834 1.1510891
-9.7570543 4.4516211 1.1553782
-10.005 4.5050001 1.1059999
-9.9691925 4.5512404 1.1513752
-9.8507633 4.568666 1.1481429
-9.967 4.6199999 1.1160001
-9.8074999 5.4890003 1.1645
-9.7474871 5.4828596 1.1482821
-9.6610594 5.4779224 1.1497452
-9.8080759 5.5431318 1.1499622
-9.7878609 5.5411239 1.145375
-9.6273003 5.5480204 1.1477599
-9.8040009 5.6160002 1.1213335
-9.7699137 5.6356282 1.1524571
-9.6590242 5.6307611 1.1520239
-10.0065 4.3813753 1.2492501
-9.9602499 4.361805 1.2484965
-9.8514137 4.3461032 1.2516552
-9.7698984 4.3501053 1.2518491
-10.002 4.414 1.2
-9.9847736 4.4515057 1.2484553
-9.7572718 4.4512539 1.2448473
-9.9659815 4.5501189 1.2496789
-9.853343 4.5749435 1.2493713
-9.7557039 4.5433931 1.2497538
-9.7482548 5.4841743 1.2506802
-9.6665211 5.4812403 1.2466739
-9.8067503 5.5484376 1.2484062
-9.7883911 5.5392919 1.2490276
-9.6275797 5.5478444 1.2459778
-9.8063335 5.6273336 1.237
-9.7695341 5.6369061 1.2517121
-9.6520252 5.6317677 1.2470233
-10.004909 4.3675456 1.3571819
-9.9576731 4.3653808 1.3494525
-9.8507624 4.3508911 1.3489999
-9.7697515 4.3537536 1.3514941
-10.001 4.4120002 1.3430001
-9.9852314 4.4480743 1.3484071
-9.7560425 4.4520812 1.3507142
-9.9635925 4.5525317 1.3514072
-9.8470259 4.5752902 1.3457369
-9.7562819 4.544817 1.3446474
-9.8809996 4.5999999 1.339
-9.8050003 5.4975004 1.388
-9.7466002 5.486846 1.3505077
-9.657711 5.483789 1.3501345
-9.8056498 5.5447841 1.3526218
-9.7836514 5.5428333 1.3461027
-9.6379986 5.5393419 1.3411462
-9.7681341 5.6434216 1.3517104
-9.6514997 5.6353874 1.3436135
-10.005928 4.3722148 1.4449286
-9.9578791 4.3688478 1.4511118
-9.8515873 4.3542447 1.4497222
-9.7755432 4.3537493 1.4477499
-10.00325 4.4172502 1.4664999
-9.9832363 4.4511542 1.4497831
-9.7612228 4.4462442 1.452289
-10.007 4.5749998 1.4579999
-9.9640579 4.5532341 1.4495995
-9.8475122 4.5789742 1.4528462
-9.7588005 4.5493503 1.4495668
-9.9425001 4.6056671 1.4545001
-9.8039999 5.4990001 1.4069999
-9.7415276 5.4904523 1.4453399
-9.6606827 5.4869514 1.4499755
-9.8049202 5.5416794 1.4478799
-9.7807684 5.540133 1.4522889
-9.6408081 5.5353074 1.4450191
-9.7679052 5.6399188 1.4488904
-9.6520987 5.6388049 1.4440643
-10.004842 4.3777885 1.5616843
-9.9528484 4.3713017 1.5490885
-9.8507891 4.3563938 1.5518087
-9.7748919 4.3562527 1.5469733
-10.0044 4.4224 1.5316
-9.9850979 4.4514751 1.5505054
-9.7606411 4.4496388 1.5498199
-9.9666891 4.5545659 1.548823
-9.8446827 4.5825233 1.5505682
-9.7586946 4.5513062 1.550597
-9.9346666 4.6021109 1.549
-9.7332115 5.4930606 1.5472728
-9.6655722 5.4861145 1.5474287
-9.8032503 5.5491252 1.5491251
-9.774827 5.5393438 1.5499833
-9.6391878 5.5353203 1.5492076
-9.8009996 5.6009998 1.533
-9.7649012 5.643383 1.548041
-9.6528511 5.6385927 1.5449259
-10.008273 4.3797274 1.6466365
-9.9584837 4.3744001 1.6473043
-9.8534985 4.3588595 1.6515698
-9.772707 4.358624 1.6515176
-9.6859999 4.3790002 1.626
-9.9852962 4.4494052 1.650238
-9.8590002 4.4029999 1.6
-9.7610197 4.4486923 1.6479809
-9.9686031 4.5518475 1.6467208
-9.8477955 4.5868864 1.64575
-9.7600946 4.5550809 1.6480494
-9.9389992 4.6037226 1.6550554
-9.8800001 4.6018004 1.6628002
-9.7284441 5.4955559 1.6390554
-9.6685944 5.4896245 1.6479688
-9.8050003 5.5470004 1.6474546
-9.7718439 5.5355697 1.650057
-9.6343279 5.5374217 1.6454616
-9.764576 5.6427975 1.6478001
-9.6504068 5.6394815 1.6446667
-10.005384 4.3853078 1.7507693
-9.9565067 4.375905 1.7478014
-9.8526144 4.3617611 1.747568
-9.7719793 4.3625703 1.7495824
-10.0025 4.4274998 1.77175
-9.9873743 4.4514999 1.7501569
-9.7627792 4.4482088 1.7460971
-9.969883 4.5551348 1.7474735
-9.8398886 4.5876107 1.7506113
-9.7556591 4.5531187 1.7492204
-9.9353905 4.610445 1.7557778
-9.8818998 4.6021996 1.7418
-9.7679996 4.6059999 1.79
-9.7227516 5.4965 1.7424167
-9.6665783 5.4936318 1.7433158
-9.804287 5.5508571 1.749
-9.768712 5.5342011 1.7480077
-9.6501513 5.5254784 1.7504345
-9.7720003 5.6394529 1.7493973
-9.6511803 5.6436791 1.7387501
-10.002899 4.381 1.8462
-9.9563913 4.3789911 1.8475711
-9.8526154 4.3665566 1.8477322
-9.772069 4.3658509 1.8523451
-10.003715 4.4144287 1.8578572
-9.9884853 4.45122 1.8495582
-9.7629738 4.4503832 1.8501234
-10.00875 4.5065002 1.8875
-9.9739046 4.5511155 1.8475192
-9.8391199 4.5910802 1.84832
-9.7549372 4.5505319 1.8495449
-9.9384136 4.6095858 1.8544137
-9.8910007 4.6054287 1.8422858
-9.7609997 4.6030002 1.808
-9.7288342 5.4941673 1.8491668
-9.6536665 5.4947782 1.8311111
-9.8032017 5.5512004 1.8430001
-9.7658291 5.5370374 1.8491242
-9.6582041 5.5173726 1.8494262
-9.7687883 5.6422257 1.8489736
-9.6570854 5.6572504 1.8425001
-9.8533564 4.3706331 1.9470884
-9.7724857 4.367444 1.9486948
-10.004153 4.4430003 1.9627693
-9.9873638 4.4475913 1.9486665
-9.7638168 4.45155 1.9522839
-10.007278 4.5431166 1.9453721
-9.9852381 4.5484228 1.9537183
-9.8241577 4.5902109 1.951
-9.7539454 4.5519872 1.9495809
-10.0055 4.6110001 1.9974999
-9.9543419 4.6148534 1.9561706
-9.8782501 4.6088333 1.9485831
-9.7650003 4.6040001 1.9450001
-9.7089996 5.4749999 1.916
-9.6718569 5.4907146 1.9377143
-9.802001 5.5556669 1.9633334
-9.7621374 5.5399017 1.9497094
-9.6583815 5.5226359 1.9481996
-9.7693806 5.6438098 1.9505318
-9.6534996 5.6515002 1.9504999
-9.9591293 4.3593259 2.0533412
-9.8542948 4.3668919 2.049011
-9.7769575 4.3725653 2.0444348
-10.008097 4.4302578 2.0564516
-9.9922228 4.4537911 2.0471256
-9.7646399 4.4511414 2.0504062
-10.002777 4.5522223 2.017
-9.9856873 4.5500317 2.0521145
-9.8310833 4.5910835 2.0533335
-9.7599869 4.5484347 2.0492172
-10.00391 4.6521821 2.0572729
-9.9775534 4.652585 2.0491595
-9.8654013 4.6603003 2.0467668
-9.9593334 4.7194171 2.0780416
-9.8772306 4.7246923 2.0731537
-9.6564999 5.4949999 2.033
-9.8079996 5.539 2.0899999
-9.7620153 5.543581 2.0485165
-9.658515 5.525209 2.0493062
-9.7678623 5.644722 2.050458
-9.64081 5.6530952 2.0596192
-9.9616003 4.3276749 2.1171501
-9.8582754 4.3473554 2.1455655
-9.775425 4.3778939 2.1414466
-10.008036 4.432724 2.1362412
-9.9919033 4.4568276 2.1560936
-9.7655392 4.4512286 2.1450326
-10.004 4.5050001 2.1259999
-9.9760923 4.548861 2.1504998
-9.8213339 4.5918336 2.1423335
-9.7578421 4.5484209 2.1524925
-10.003 4.6675 2.1159999
-9.9766655 4.6484442 2.1498988
-9.8467197 4.6558437 2.1484373
-10.002 4.7199998 2.112
-9.974103 4.7465506 2.1502244
-9.8578901 4.7495995 2.147418
-9.9517002 4.8119502 2.1783502
-9.8747997 4.8228664 2.1768003
-9.7629395 5.5485296 2.1477027
-9.6650887 5.531054 2.1486967
-9.7642488 5.6481624 2.1488502
-9.6479712 5.6615553 2.1520834
-9.5930004 5.6469998 2.115
-10.012087 4.3473959 2.2485492
-9.9785557 4.3644443 2.2468889
-9.8606443 4.3483386 2.2510152
-9.7731667 4.3821397 2.2436948
-10.00571 4.4193754 2.243125
-9.9903584 4.4591627 2.250562
-9.7693062 4.4440498 2.2489319
-10.001 4.527 2.24
-9.9815044 4.5502081 2.2486935
-9.8163338 4.5913334 2.243
-9.7604465 4.54459 2.2504108
-9.9585972 4.6510224 2.2500567
-9.8546505 4.6512504 2.2454002
-9.9697266 4.7506299 2.2478502
-9.8338652 4.7443638 2.2483182
-9.9661398 4.84899 2.2504897
-9.8507175 4.8530288 2.2500567
-9.9488573 4.9106431 2.2829287
-9.8644285 4.9134288 2.2818573
-9.7596617 5.5496135 2.2493255
-9.6582022 5.5304441 2.2477033
-9.7591057 5.6520009 2.2503808
-9.6495018 5.6650262 2.2527633
-9.5939999 5.6529999 2.2939999
-10.011351 4.3371625 2.335108
-9.9597492 4.3672304 2.3548272
-9.8535004 4.3620005 2.344893
-9.7736177 4.3845587 2.3482652
-10.005041 4.4352918 2.35675
-9.9910717 4.4509997 2.3470716
-9.8070002 4.4770002 2.342
-9.7677422 4.4459629 2.3525372
-10.002 4.5050001 2.3099999
-9.9815111 4.5508671 2.3507555
-9.8196669 4.5916667 2.3773334
-9.7584143 4.5431895 2.3507931
-9.954463 4.6224179 2.3489072
-9.8579521 4.6112857 2.354238
-9.9478178 4.7562408 2.3415184
-9.8411045 4.7683105 2.3362412
-9.9616766 4.8500729 2.347302
-9.8276367 4.8496366 2.3506725
-9.9561815 4.9450307 2.3542759
-9.8448906 4.9463587 2.3492103
-9.942112 5.010778 2.3853333
-9.8582735 5.0095453 2.3873639
-9.6789999 5.4840002 2.398
-9.7575436 5.5509191 2.3471723
-9.6573038 5.5335212 2.3510654
-9.7575684 5.6546283 2.350771
-9.6480255 5.6690745 2.35025
-9.5943336 5.6553335 2.3540001
-9.9118052 4.1470199 2.4458432
-9.8909998 4.1525331 2.4454668
-10.020452 4.2356505 2.4401836
-9.9349995 4.2478647 2.4454596
-9.8948889 4.2266669 2.4195552
-10.00925 4.3977499 2.44875
-9.9603119 4.3832574 2.4477973
-9.8616676 4.3840418 2.4602084
-9.773942 4.3847051 2.4490881
-10.00591 4.4367881 2.4520607
-9.9915056 4.4488215 2.4487395
-9.7668133 4.4501114 2.4505002
-10.003333 4.5213337 2.4523335
-9.9827366 4.5496769 2.4487572
-9.8083334 4.598 2.4646668
-9.7621899 4.5532804 2.4482939
-9.9597836 4.6219182 2.4494054
-9.8573341 4.6134443 2.4473333
-9.793334 4.6030002 2.4576669
-9.9242496 4.7915001 2.4067502
-9.9373617 4.8555174 2.4442089
-9.8392715 4.8648872 2.4429092
-9.9531832 4.9515328 2.4494672
-9.8207598 4.9488306 2.4449716
-9.7989998 4.9489999 2.4860001
-9.949172 5.04564 2.4562097
-9.840436 5.047513 2.451539
-9.915 5.1034999 2.4895
-9.8597775 5.1055551 2.4831111
-9.7560549 5.5567064 2.4480541
-9.6528292 5.5397234 2.4515746
-9.7576485 5.6536674 2.4470735
-9.650691 5.670743 2.4510772
-9.5974998 5.6605 2.4289999
-9.8599997 3.9949999 2.5550001
-10.039342 4.1475835 2.5454936
-9.9266739 4.1432614 2.5425432
-9.8966675 4.1339998 2.5166669
-10.022818 4.2125459 2.5190911
-9.9447498 4.2069998 2.5122499
-10.01 4.3970003 2.572
-9.9492188 4.3938289 2.5477805
-9.866127 4.38483 2.5522554
-9.7760792 4.3848801 2.5506799
-10.006 4.435122 2.5450482
-9.9847116 4.436501 2.5509005
-9.7720213 4.4479465 2.5497856
-10.004001 4.5261431 2.5545716
-9.9840031 4.5499778 2.5493588
-9.8109999 4.599 2.586
-9.7628202 4.5494924 2.5487211
-9.9656782 4.6214056 2.5492976
-9.8435001 4.6222811 2.559375
-9.7729998 4.6024003 2.5253999
-9.9209089 4.8878183 2.5117273
-9.8955002 4.8909998 2.5054998
-9.9329538 4.9544759 2.5447385
-9.83815 4.9602036 2.5432208
-9.7967501 4.9797497 2.5400002
-9.9446487 5.0475502 2.549438
-9.8161125 5.0517735 2.5463223
-9.7945004 5.0356665 2.5689998
-9.9382172 5.141511 2.5565367
-9.835824 5.1442118 2.5513885
-9.9139996 5.2025003 2.5840001
-9.8504295 5.2067142 2.590143
-9.7557917 5.5579009 2.5488794
-9.6510372 5.5401134 2.5521693
-9.5869999 5.5570002 2.556
-9.757268 5.6536398 2.549268
-9.6403732 5.6685119 2.5509071
-9.5962505 5.6422501 2.5379999
-9.7410002 5.7025003 2.5704999
-9.6879997 5.7030001 2.595
-10.055066 4.0483484 2.6475425
-9.9344597 4.0467453 2.6458249
-10.0344 4.121841 2.62696
-9.9593649 4.1177273 2.6219091
-9.9350271 4.3940797 2.6477895
-9.8515358 4.386375 2.6485901
-9.7809324 4.384295 2.6533635
-10.006248 4.4443054 2.6455712
-9.9829531 4.4336324 2.6499195
-9.7711248 4.4509377 2.6525154
-10.004001 4.513 2.6461999
-9.9850969 4.552783 2.6486633
-9.7657957 4.5464258 2.6465182
-9.9627218 4.6223602 2.6516109
-9.8384495 4.6304002 2.6465251
-9.7801056 4.6235266 2.670105
-9.9219999 4.9868002 2.6138999
-9.8850002 4.9946666 2.6313334
-9.9286261 5.0549879 2.6429374
-9.8373203 5.0529237 2.6467383
-9.7966003 5.0742002 2.6318002
-9.9368362 5.1516366 2.6487367
-9.8126249 5.1536498 2.6395502
-9.7941427 5.1454649 2.6645355
-9.9301319 5.2420292 2.6594784
-9.8349686 5.2492728 2.653337
-9.7915001 5.2426672 2.6818333
-9.9069996 5.3080001 2.6949999
-9.8438339 5.3043337 2.6911666
-9.7910004 5.3039999 2.697
-9.754529 5.5613332 2.6494999
-9.6518145 5.5444069 2.6468518
-9.756443 5.6533141 2.6488793
-9.6374807 5.6749072 2.647722
-9.5978003 5.645 2.6456001
-9.7263336 5.7041674 2.6660001
-9.6934996 5.7049999 2.6719999
-10.045154 4.0284872 2.7323589
-9.9689999 4.0315337 2.7170002
-9.9332867 4.3909044 2.7435238
-9.8499393 4.3889804 2.7524197
-9.7841043 4.3851318 2.7490261
-10.008713 4.4451532 2.7494569
-9.9696217 4.4260368 2.7477551
-9.8824997 4.4005003 2.73
-9.7719402 4.4543138 2.7513921
-10.017988 4.5476003 2.7684124
-9.9873476 4.5440001 2.7287827
-9.7527475 4.547791 2.7500594
-10.015478 4.6239567 2.7794785
-9.972353 4.6348886 2.7441113
-9.85219 4.6323819 2.7455237
-9.7555466 4.6263866 2.751091
-9.9680004 4.7150002 2.7650001
-9.9165001 5.0846 2.7120004
-9.8623333 5.0712223 2.7283335
-9.9199448 5.1553292 2.746562
-9.8451052 5.143064 2.7537448
-9.7931862 5.1696558 2.729687
-9.927516 5.2482686 2.7469327
-9.8122377 5.2552853 2.7350004
-9.7896528 5.2411256 2.7556999
-9.691 5.2150002 2.7030001
-9.9222517 5.3357468 2.7589438
-9.8457394 5.3492742 2.7536306
-9.791522 5.3322172 2.7669129
-9.7499428 5.564208 2.750375
-9.6504717 5.5560527 2.7488947
-9.75488 5.6537895 2.7502799
-9.6356068 5.6764836 2.7484643
-9.5935001 5.6592503 2.7512498
-9.7290001 5.7107143 2.7504287
-9.6884995 5.7020006 2.7506666
-10.037 4.0085001 2.8179998
-9.9285002 4.3917999 2.8389001
-9.8434219 4.3904033 2.8494041
-9.7837267 4.3918643 2.8462727
-10.008914 4.4420877 2.8532982
-9.9664412 4.4229136 2.8480191
-9.8741121 4.408 2.8602223
-9.7615528 4.4518118 2.8519866
-9.6750002 4.4980001 2.8989999
-10.055819 4.5449338 2.8528855
-9.9919004 4.5103002 2.8462
-9.7174997 4.5412502 2.8244164
-9.6847219 4.5570931 2.8674188
-10.050301 4.6355901 2.8509514
-9.9522629 4.6453681 2.8522105
-9.8405304 4.6354704 2.8495884
-9.7413893 4.6285124 2.8441703
-9.6827087 4.6200008 2.8629167
-9.9139996 5.1797142 2.8107142
-9.8648672 5.1819334 2.8245335
-9.9154472 5.2547703 2.8443251
-9.8468332 5.2378955 2.854166
-9.7874146 5.2625523 2.8351722
-10.005 5.3899999 2.826
-9.9200678 5.3512254 2.8470457
-9.8322859 5.3805714 2.8352859
-9.7869043 5.348619 2.8489053
-9.9169998 5.4304605 2.8599424
-9.8496456 5.4439702 2.8522389
-9.7893343 5.4340739 2.8687408
-9.9099998 5.5050001 2.8989999
-9.7484112 5.5681767 2.8493381
-9.6434746 5.5671639 2.8488688
-9.5819998 5.579 2.8610001
-9.755209 5.6559591 2.8508854
-9.6304293 5.6685734 2.8502941
-9.5979996 5.6223335 2.8353336
-9.7236166 5.7024612 2.8466923
-9.653944 5.7041116 2.8521667
-9.6379995 6.4720001 2.8989999
-9.9327507 4.3812499 2.9655001
-9.8386726 4.3921528 2.9469569
-9.7848339 4.3915 2.9433334
-10.00851 4.4472275 2.9500701
-9.957737 4.4210777 2.9476795
-9.8742857 4.4044762 2.9577143
-9.7643242 4.4423532 2.9482613
-9.671546 4.4847274 2.9549549
-10.120626 4.5609493 2.9590001
-10.060434 4.5283842 2.9445252
-9.9893332 4.5177779 2.9415557
-9.7650003 4.5879998 2.9979999
-9.6482086 4.5452332 2.9488363
-10.120983 4.638833 2.9675922
-10.080166 4.6490622 2.9302292
-9.9571171 4.6508231 2.9465885
-9.8470459 4.6290455 2.9528637
-9.7522001 4.6249499 2.9528496
-9.6508045 4.6168036 2.9508698
-10.096 4.717 2.9760001
-9.9078894 5.272778 2.914222
-9.8615294 5.2812352 2.929059
-9.7799997 5.2950001 2.9030001
-9.9119377 5.3538904 2.9382966
-9.8697624 5.3310795 2.9586318
-9.7797499 5.364429 2.935322
-9.9126377 5.4458365 2.9462249
-9.8514767 5.4765244 2.9317145
-9.780138 5.4469438 2.9459722
-9.9117193 5.5217505 2.9628439
-9.8512621 5.5394583 2.958246
-9.7597303 5.5576243 2.946959
-9.6394367 5.5756154 2.952795
-9.8079996 5.6700001 2.977
-9.7572136 5.6571236 2.9470677
-9.6269054 5.6701097 2.9471724
-9.5978003 5.6573997 2.9591999
-9.721199 5.7062397 2.9507599
-9.6597624 5.7079525 2.963619
0 0 0 1 0 0 0 1 0 0 0 1 0 0 0 0 0 752 1 0 0
