# .PCD v0.7 - Point Cloud Data file format
VERSION 0.7
FIELDS x y z
SIZE 4 4 4
TYPE F F F
COUNT 1 1 1
WIDTH 1536
HEIGHT 1
VIEWPOINT 0 0 0 1 0 0 0
POINTS 1536
DATA ascii
-8.7756672 -6.4653335 -1.4846667
-8.6303329 -6.4396667 -1.4856668
-8.5080004 -6.4070001 -1.488
-8.4742002 -6.4509997 -1.4886
-8.3462505 -6.4335003 -1.4915
-7.5359998 -6.4959998 -1.4960001
-7.4394999 -6.4466667 -1.4980001
-7.3585005 -6.4714999 -1.4955001
-7.2566662 -6.4436674 -1.4940002
-7.1494002 -6.4452004 -1.492
-7.0510001 -6.4615002 -1.4893334
-6.9400001 -6.4382005 -1.4908001
-6.8717499 -6.4765005 -1.487
-6.7810001 -6.4134998 -1.4865
-6.0421667 -6.4495001 -1.4808334
-5.9467502 -6.4476252 -1.480875
-5.8797498 -6.4394999 -1.4819999
-5.5240002 -6.4685001 -1.4835
-5.4499998 -6.4595556 -1.4851111
-5.3577499 -6.4542503 -1.48575
-5.2766666 -6.4130001 -1.4853333
-4.8207502 -6.4900002 -1.48975
-4.7506671 -6.4261665 -1.4916667
-4.4710002 -6.4679999 -1.4910001
-3.9414997 -6.4444003 -1.4896001
-3.8547223 -6.4586115 -1.4879445
-3.7626364 -6.4316368 -1.4912727
-3.1216667 -6.4870005 -1.4861667
-3.0475001 -6.4554381 -1.4871874
-2.9482005 -6.4499335 -1.4860668
-2.8546667 -6.4524002 -1.4844668
-2.7485626 -6.4506874 -1.4836875
-2.6514668 -6.4600668 -1.482
-2.5451336 -6.4412665 -1.4809999
-2.4555335 -6.4557333 -1.4791335
-2.3472667 -6.4422665 -1.4775335
-2.2511251 -6.4526873 -1.4748125
-2.1479378 -6.4544382 -1.4735626
-2.0507646 -6.4416475 -1.4716471
-1.9549288 -6.4547863 -1.4682144
-1.8443078 -6.4446926 -1.4646926
-1.7473571 -6.4407859 -1.4634286
-1.6630834 -6.444417 -1.4605832
-0.95749998 -6.4274998 -1.4549999
-0.847 -6.4189997 -1.4619999
-0.73299998 -6.428 -1.402
-0.6437692 -6.4457698 -1.4036155
-0.55088234 -6.4447641 -1.4069412
-0.44957143 -6.4520483 -1.4109049
-0.3486 -6.4432998 -1.4139999
-0.24621053 -6.4537368 -1.4178947
-0.14654545 -6.4538188 -1.4205
-0.044999998 -6.4445505 -1.42265
0.048833333 -6.4427776 -1.4232222
0.1462727 -6.4524102 -1.4244092
0.24766666 -6.4432225 -1.4263333
0.34890908 -6.4436812 -1.4242729
0.45039999 -6.4465995 -1.4245601
0.54605258 -6.4545264 -1.4226315
0.60299999 -6.4970002 -1.426
1.099 -6.4190001 -1.411
1.15705 -6.44385 -1.4088
1.2463334 -6.4542222 -1.406889
1.349353 -6.4449415 -1.4069412
1.4352144 -6.4550719 -1.4052144
1.939 -6.4060001 -1.402
2.3439999 -6.4064999 -1.4284999
2.8685 -6.4254999 -1.4035
2.941 -6.4216003 -1.4024
3.095 -6.4159999 -1.402
3.108 -6.415 -1.403
-26.895 -6.3309999 -1.4859999
-26.218832 -6.3413334 -1.4504999
-21.429001 -6.3455 -1.4549999
-12.601 -6.3400002 -1.499
-12.593 -6.3769999 -1.5
-12.327499 -6.3234997 -1.4965
-12.276001 -6.3650007 -1.4936666
-12.042 -6.3379998 -1.49375
-11.997 -6.3800001 -1.492
-11.818501 -6.3255 -1.495
-11.758749 -6.3727503 -1.4915
-11.602 -6.3010001 -1.4960001
-11.5596 -6.3569999 -1.4946001
-11.349167 -6.3565001 -1.4966667
-11.12075 -6.3305001 -1.4947499
-8.6654997 -6.3724999 -1.4844999
-8.5341997 -6.3566003 -1.4872
-8.4214993 -6.3070002 -1.489
-8.3814001 -6.3568001 -1.4887999
-8.2565002 -6.3415003 -1.4916667
-8.1665001 -6.3175001 -1.4974999
-7.3421998 -6.3734002 -1.4968002
-7.2156668 -6.3366671 -1.4953334
-7.1720004 -6.3751998 -1.4944
-7.0220003 -6.3346 -1.4894
-6.9790001 -6.383667 -1.4893334
-6.8425722 -6.3475718 -1.4864286
-6.7420001 -6.3336005 -1.4864
-6.6989999 -6.3470001 -1.4859999
-5.9489999 -6.3530002 -1.4858571
-5.8527775 -6.3616662 -1.4863333
-5.7836666 -6.323 -1.487
-5.4443336 -6.3866668 -1.4863334
-5.3476367 -6.3381815 -1.486091
-5.2558999 -6.336 -1.4873999
-5.1869998 -6.3315001 -1.4897499
-4.743 -6.3969998 -1.4960001
-4.6826668 -6.337667 -1.4946666
-3.9123333 -6.3693333 -1.4983333
-3.8449233 -6.359077 -1.4969232
-3.7381539 -6.3510776 -1.4966154
-3.6638 -6.3362002 -1.4986
-3.0226002 -6.3631997 -1.4910001
-2.9540718 -6.3548574 -1.4887145
-2.8481333 -6.3437333 -1.4877335
-2.7596154 -6.357615 -1.4856154
-2.648875 -6.3471875 -1.4843749
-2.5484002 -6.3514671 -1.4831334
-2.4471762 -6.3508234 -1.4814117
-2.3482502 -6.3565006 -1.4788334
-2.2448335 -6.3442779 -1.4768332
-2.1480718 -6.3580718 -1.4754283
-2.0479336 -6.3485999 -1.4746668
-1.949353 -6.3547645 -1.4707646
-1.8518125 -6.3702502 -1.4683751
-1.7488334 -6.3574996 -1.4648333
-1.6514736 -6.3477373 -1.4622632
-0.9250589 -6.3287644 -1.4267057
-0.85427594 -6.3294477 -1.4236209
-0.7513333 -6.3308811 -1.4164047
-0.65520006 -6.3342748 -1.4150499
-0.55091894 -6.3345141 -1.4185672
-0.4544211 -6.3331847 -1.422421
-0.3535676 -6.3403254 -1.4273784
-0.2530278 -6.346611 -1.4284166
-0.15312903 -6.3505478 -1.4311932
-0.050233338 -6.3476996 -1.4327335
0.054074064 -6.34937 -1.4335557
0.15403999 -6.3467994 -1.4332398
0.2496154 -6.3485003 -1.4343077
0.34463999 -6.3502002 -1.4341202
0.45068184 -6.3439097 -1.4321363
0.5302667 -6.3615336 -1.4304001
1.0821999 -6.3523002 -1.4219999
1.1497692 -6.3466539 -1.420923
1.245393 -6.3535709 -1.4166073
1.3521377 -6.3472414 -1.4148622
1.4447274 -6.349864 -1.4140453
1.503 -6.3235002 -1.4265001
1.9606842 -6.3382106 -1.4108948
2.0508699 -6.3413043 -1.4115652
2.1519475 -6.3329477 -1.4141579
2.2431877 -6.3385 -1.4141876
2.3435001 -6.3649998 -1.4141668
2.8573749 -6.3385625 -1.4071873
2.9491429 -6.3418574 -1.4039999
3.0450001 -6.346231 -1.4015386
3.1324999 -6.3935003 -1.401
-26.940001 -6.2919998 -1.488
-26.358501 -6.23 -1.4325
-26.24275 -6.2637501 -1.43875
-21.434668 -6.2453337 -1.4538335
-12.355 -6.2969999 -1.498
-12.1285 -6.2480001 -1.4974999
-12.096 -6.2979999 -1.497
-11.923 -6.2080002 -1.499
-11.8626 -6.2564001 -1.4958
-11.646 -6.2590003 -1.498
-11.344667 -6.2380004 -1.4893334
-11.1445 -6.2544999 -1.4925001
-10.95725 -6.2372499 -1.4949999
-10.751 -6.2069998 -1.494
-8.5523329 -6.2779999 -1.4886665
-8.474 -6.2658 -1.4916
-8.3410006 -6.2578578 -1.4940001
-8.2288008 -6.2410002 -1.4982001
-8.1835003 -6.2855 -1.497
-8.0950003 -6.2059999 -1.498
-7.302 -6.2490001 -1.497
-7.2506003 -6.2718 -1.4928001
-7.1563334 -6.2228336 -1.4936666
-7.0625 -6.2516255 -1.4918751
-6.9537144 -6.251143 -1.489
-6.8518887 -6.2481112 -1.4896667
-6.7481251 -6.2459998 -1.4911249
-6.653667 -6.2596664 -1.4901667
-6.5749998 -6.2174997 -1.49
-5.8435001 -6.2581253 -1.4878751
-5.7508574 -6.2428575 -1.4880002
-5.3438573 -6.2528577 -1.4924287
-5.2490001 -6.2562003 -1.4931
-5.151556 -6.2506666 -1.4942223
-5.0799999 -6.2279997 -1.49525
-4.627667 -6.2709999 -1.4970001
-4.598 -6.2449999 -1.499
-3.8461251 -6.2542496 -1.4965
-3.7574546 -6.2497277 -1.4963636
-3.6516666 -6.2428002 -1.4969333
-3.5706668 -6.2366672 -1.4966667
-2.9379165 -6.2635002 -1.4908333
-2.8514547 -6.2511821 -1.489
-2.7524445 -6.2561111 -1.4873891
-2.6472001 -6.2486672 -1.4864
-2.5570002 -6.2576003 -1.4844667
-2.4415386 -6.2508464 -1.4822309
-2.3534374 -6.2624993 -1.4803126
-2.2527997 -6.2503009 -1.4775
-2.1491251 -6.2476873 -1.4740624
-2.0554547 -6.2559996 -1.4716364
-1.945909 -6.2496367 -1.4680911
-1.8497058 -6.2495303 -1.4652354
-1.7521877 -6.2562504 -1.4616876
-1.6437271 -6.2317271 -1.4573637
-1.5915 -6.2585001 -1.4579999
-0.92066669 -6.2170005 -1.4306667
-0.84947366 -6.2452626 -1.4343685
-0.74970001 -6.2568502 -1.4381502
-0.64579993 -6.2575207 -1.43944
-0.55415386 -6.2544618 -1.4380001
-0.45295238 -6.2482381 -1.4402381
-0.34988892 -6.2468328 -1.440889
-0.252 -6.2492776 -1.4404446
-0.15366666 -6.2526116 -1.4404446
-0.050000001 -6.2503004 -1.43955
0.053111114 -6.2496109 -1.4393332
0.14989474 -6.2478952 -1.438421
0.25049999 -6.239388 -1.4382222
0.3534286 -6.2433801 -1.4377618
0.44709998 -6.2522998 -1.4373502
0.51524997 -6.2625003 -1.43575
0.99599999 -6.2069998 -1.431
1.05975 -6.2544374 -1.4284376
1.1503527 -6.2426472 -1.4268824
1.2495264 -6.2526312 -1.4255264
1.3465714 -6.2474761 -1.4235713
1.450353 -6.2497659 -1.4230589
1.5015 -6.2220001 -1.4275
1.9626155 -6.2380772 -1.4206924
2.0513527 -6.2519999 -1.4203529
2.1433332 -6.2418671 -1.4197334
2.2453887 -6.2481117 -1.4178888
2.3299999 -6.2572508 -1.4143333
2.77 -6.2391429 -1.4151429
2.8497338 -6.2547336 -1.4118
2.9542222 -6.2528329 -1.4092222
3.0576873 -6.2577496 -1.4057499
3.1490831 -6.2439995 -1.4045
3.2527499 -6.2309999 -1.4018749
-12.153 -6.1939998 -1.497
-11.9215 -6.1415 -1.4960001
-11.881 -6.1205001 -1.4905
-11.6315 -6.1475 -1.4905001
-11.424 -6.1139998 -1.4905
-11.368751 -6.1609998 -1.4877501
-11.228 -6.1230001 -1.494
-11.1632 -6.1636 -1.4894
-11.01 -6.1040001 -1.493
-10.981 -6.1499996 -1.49225
-10.806999 -6.1269999 -1.495
-10.7765 -6.1590004 -1.494
-10.6165 -6.1169996 -1.4960001
-10.599 -6.145 -1.4960001
-9.4329996 -6.1700001 -1.4960001
-9.3039999 -6.1079998 -1.4960001
-8.4239998 -6.1620002 -1.4960001
-8.3929996 -6.1833334 -1.494
-8.2726669 -6.1500006 -1.4953334
-8.1322012 -6.1454005 -1.4967999
-8.0039997 -6.1360002 -1.499
-7.9875002 -6.1564999 -1.4985
-7.223 -6.1929998 -1.4985
-7.1313996 -6.1466002 -1.4992
-7.0463333 -6.1516666 -1.498
-6.9488335 -6.170167 -1.4968333
-6.8461432 -6.1445718 -1.4957144
-6.7516665 -6.1538329 -1.4956667
-6.6531434 -6.1714292 -1.4937142
-6.5571671 -6.1359997 -1.4941667
-5.8169999 -6.1940002 -1.49
-5.7423749 -6.1470003 -1.491625
-5.664 -6.1567502 -1.49075
-5.2417274 -6.1544547 -1.4961818
-5.1393003 -6.1514001 -1.4958001
-5.0476246 -6.155375 -1.49725
-4.9770002 -6.1333332 -1.498
-3.8251667 -6.173667 -1.4973334
-3.739455 -6.1440001 -1.4971819
-3.652143 -6.1572862 -1.498
-3.5576155 -6.1490006 -1.4973078
-3.4724998 -6.1090002 -1.498
-2.914 -6.178 -1.493
-2.8495333 -6.1610675 -1.4894
-2.7458003 -6.1418004 -1.4874001
-2.6553848 -6.1485391 -1.4840001
-2.5443125 -6.145937 -1.483125
-2.4555717 -6.1545005 -1.4807857
-2.3547223 -6.1351113 -1.4778334
-2.2537777 -6.1550555 -1.4752778
-2.1543124 -6.1450629 -1.4731874
-2.0527892 -6.1512628 -1.4697899
-1.9495555 -6.1581669 -1.4669443
-1.8494705 -6.1422939 -1.465647
-1.7498333 -6.1563888 -1.462389
-1.6515557 -6.157167 -1.4592222
-1.5716666 -6.1450839 -1.4561667
-0.91359997 -6.1552005 -1.432
-0.85838467 -6.1564617 -1.4364616
-0.74555558 -6.1486673 -1.4377779
-0.6538462 -6.1588459 -1.4400001
-0.55580002 -6.1612 -1.4408001
-0.44438466 -6.152 -1.4393078
-0.35024998 -6.1520495 -1.4418499
-0.24844445 -6.1574445 -1.4418889
-0.15034783 -6.149478 -1.4428694
-0.052576918 -6.147923 -1.4423846
0.049181815 -6.1516814 -1.442409
0.1507 -6.1435499 -1.43955
0.24672219 -6.1483331 -1.4397225
0.3463158 -6.1409469 -1.4386842
0.4463 -6.1454501 -1.43705
0.98216671 -6.1329994 -1.4341667
1.0507307 -6.1497312 -1.4315387
1.1452999 -6.1506996 -1.4312501
1.2494233 -6.1512694 -1.4293077
1.34955 -6.1541996 -1.4281001
1.4469092 -6.1495004 -1.4277728
1.5015 -6.1275001 -1.4299999
1.9618126 -6.1509371 -1.4258749
2.0440457 -6.1544547 -1.4259547
2.1512725 -6.1525464 -1.4256818
2.2552607 -6.1576099 -1.4261304
2.3207002 -6.1583996 -1.4211999
2.6865001 -6.1195002 -1.424
2.7500527 -6.1449466 -1.4187895
2.8474 -6.1499496 -1.4155501
2.9514704 -6.1520591 -1.4119411
3.0520005 -6.1501107 -1.4092776
3.1546004 -6.1544671 -1.4074003
3.2439229 -6.1548457 -1.4046922
-12.23575 -6.0369997 -1.4979999
-11.9462 -6.0363998 -1.493
-11.7325 -6.0179996 -1.494
-11.676 -6.0669999 -1.4907501
-11.528 -6.0155001 -1.4960001
-11.4715 -6.0627499 -1.49275
-11.313 -6.0159998 -1.497
-11.2648 -6.0666003 -1.4946001
-11.057601 -6.0552001 -1.4948
-10.8505 -6.0521669 -1.4951667
-10.658334 -6.0423336 -1.4958334
-10.46625 -6.05475 -1.4974999
-9.3264999 -6.0885 -1.4974999
-9.175334 -6.0243335 -1.4950001
-8.3155003 -6.0929999 -1.495
-8.2197495 -6.0447502 -1.49825
-8.175334 -6.0886664 -1.4970001
-8.0766001 -6.0372005 -1.4984001
-7.9273334 -6.0483336 -1.4996667
-6.9316669 -6.0653334 -1.4996667
-6.8327503 -6.02425 -1.4992499
-6.7564287 -6.0611434 -1.4965714
-6.6421256 -6.0437498 -1.494
-6.537714 -6.0340009 -1.4938571
-6.4464998 -6.0558748 -1.4935
-6.381 -6.0334997 -1.493
-5.718667 -6.0783339 -1.4926666
-5.6475558 -6.0477777 -1.495111
-5.5771432 -6.0418572 -1.4961429
-5.2119999 -6.0489998 -1.5
-5.1524291 -6.0525718 -1.497143
-5.0630002 -6.0664001 -1.4988002
-4.9492731 -6.0468192 -1.4970908
-4.8772497 -6.0212502 -1.4974999
-4.2273998 -6.0502667 -1.4276667
-3.7642503 -6.0792503 -1.49775
-3.6427143 -6.0650005 -1.4987142
-3.5227776 -6.0516672 -1.4993333
-3.4623749 -6.0401249 -1.497625
-3.3940001 -6.0079999 -1.4960001
-2.8155 -6.0570002 -1.4879999
-2.7543333 -6.0534167 -1.4874167
-2.6537368 -6.053369 -1.4861053
-2.5520589 -6.0440588 -1.4842941
-2.4558821 -6.0554113 -1.4817058
-2.3477333 -6.0382004 -1.4791999
-2.2502105 -6.0559998 -1.4773158
-2.1512351 -6.0475302 -1.4755297
-2.0527222 -6.052278 -1.4718891
-1.956722 -6.0590558 -1.4691665
-1.8532224 -6.0403891 -1.4656667
-1.7524736 -6.0558944 -1.4632632
-1.6486667 -6.0600557 -1.4598889
-1.5601667 -6.0362501 -1.4568334
-0.90566671 -6.0656662 -1.433
-0.8562308 -6.0630779 -1.4321537
-0.73699999 -6.0297499 -1.424
-0.65249997 -6.0415001 -1.4273
-0.54890001 -6.0738001 -1.4323
-0.45387498 -6.070375 -1.4325
-0.35066667 -6.0072227 -1.424
-0.24076925 -6.0470777 -1.4350772
-0.14814284 -6.0534282 -1.446524
-0.045125 -6.0487089 -1.4455836
0.053913038 -6.0544348 -1.4462609
0.14749999 -6.0497704 -1.4448076
0.24955174 -6.0510683 -1.4442068
0.35029632 -6.0466294 -1.4435555
0.42783332 -6.0545835 -1.4425834
0.96140009 -6.0426002 -1.4378002
1.0498573 -6.0510478 -1.4371905
1.15125 -6.0487089 -1.4349165
1.2467369 -6.0462103 -1.4338949
1.34504 -6.0554395 -1.4327199
1.4484738 -6.0479999 -1.4313159
1.502 -6.0374999 -1.4330001
1.9535002 -6.0406489 -1.43205
2.0526001 -6.0473599 -1.4315201
2.1497085 -6.0467505 -1.4341668
2.25284 -6.0500402 -1.4325198
2.3014998 -6.0285001 -1.4215
2.6711819 -6.0336361 -1.4242728
2.7547498 -6.0458746 -1.4215626
2.8440626 -6.0444374 -1.4185625
2.9400003 -6.0548749 -1.4156877
3.0444999 -6.0506244 -1.4123124
3.151294 -6.0520587 -1.4091763
3.2257502 -6.0740004 -1.4059999
-23.658667 -5.9330001 -1.4676666
-12.038668 -5.9523335 -1.498
-12 -5.9860001 -1.4960001
-11.831667 -5.9273334 -1.4993334
-11.782333 -5.9790001 -1.4966667
-11.5752 -5.9498 -1.4976
-11.3444 -5.9574003 -1.4968001
-11.129801 -5.9436002 -1.4960002
-11.093 -5.9990001 -1.495
-10.9404 -5.9412003 -1.498
-10.9 -5.993 -1.497
-10.741401 -5.9545999 -1.4994
-9.1960001 -5.9920001 -1.495
-9.0745001 -5.9464998 -1.4972501
-8.9460001 -5.9064999 -1.4979999
-7.0089998 -5.9770002 -1.5
-6.994 -5.987 -1.499
-6.8746672 -5.9733334 -1.4993334
-6.7512865 -5.9627147 -1.4987143
-6.6516666 -5.9265003 -1.498
-6.5533333 -5.9480004 -1.4970002
-6.4511433 -5.9595709 -1.4970001
-6.3465004 -5.9487495 -1.4957501
-6.271667 -5.9200001 -1.4966668
-5.625 -5.9790001 -1.4980001
-5.5386252 -5.9387503 -1.4963751
-5.448 -5.9136672 -1.4963335
-5.1312499 -5.9709997 -1.4965
-5.0432224 -5.9665556 -1.497111
-4.955143 -5.9667149 -1.4990001
-4.8114996 -5.9820004 -1.4974999
-4.3321872 -5.9301872 -1.4238125
-4.2344804 -5.9346733 -1.4423845
-3.6199999 -5.9629998 -1.499
-3.5725002 -5.94275 -1.49975
-3.4558334 -5.9526668 -1.4990834
-3.3666668 -5.9390001 -1.4978335
-2.7362146 -5.9645 -1.4895712
-2.6457648 -5.9482355 -1.487353
-2.5502942 -5.9485288 -1.4864117
-2.4477897 -5.9508958 -1.4845788
-2.3554997 -5.9487281 -1.4823637
-2.2493162 -5.9518423 -1.4792105
-2.1519523 -5.9427624 -1.4765714
-2.0443501 -5.9482007 -1.4734999
-1.9482083 -5.9502916 -1.4713335
-1.8491905 -5.9475713 -1.4695239
-1.7502499 -5.9466262 -1.4660418
-1.6510003 -5.9525714 -1.4630717
-1.55735 -5.9506507 -1.4611501
-0.84324247 -5.9424849 -1.4302424
-0.75183791 -5.9371896 -1.4261891
-0.64973676 -5.9276319 -1.4289474
-0.54914278 -5.9348817 -1.430262
-0.45132557 -5.9347205 -1.4313024
-0.34841463 -5.9263659 -1.4317559
-0.25354284 -5.932086 -1.4342856
-0.15647826 -5.9569135 -1.4482175
-0.047347825 -5.9535651 -1.4496523
0.050200004 -5.9486504 -1.4479499
0.14840908 -5.9492273 -1.4483637
0.25142106 -5.9425793 -1.4463683
0.3499524 -5.9450955 -1.4460952
0.41457143 -5.9637141 -1.4447143
0.89400005 -5.9239998 -1.4436667
0.95256507 -5.9476519 -1.4405651
1.0466666 -5.9459581 -1.4387083
1.1503333 -5.9433331 -1.437143
1.2453479 -5.9493046 -1.4364347
1.3554585 -5.9474583 -1.4355419
1.4464501 -5.955451 -1.4355501
1.5009999 -5.9460001 -1.4345
1.9630715 -5.9525003 -1.4355
2.0464668 -5.9368 -1.4338001
2.159143 -5.9410715 -1.4345001
2.2580557 -5.9455552 -1.4319444
2.3035557 -5.9469995 -1.4178889
2.5795002 -5.9254999 -1.4325
2.6473806 -5.9472384 -1.429857
2.7450004 -5.9499526 -1.4255714
2.8453 -5.948051 -1.4233
2.9495714 -5.9497142 -1.4177619
3.0477729 -5.9463181 -1.4158182
3.1406 -5.9576669 -1.4119999
3.7539999 -5.901 -1.401
-23.818668 -5.8260002 -1.4466667
-23.678249 -5.8572497 -1.4605
-11.857 -5.8456669 -1.4976667
-11.617001 -5.8570004 -1.4967501
-11.418334 -5.8186674 -1.4970001
-11.370001 -5.8696666 -1.4946668
-11.216 -5.8270001 -1.4990001
-11.168333 -5.8653336 -1.4956667
-11.017 -5.8109999 -1.499
-10.989666 -5.8606672 -1.499
-10.8195 -5.8140001 -1.4995
-10.613501 -5.836 -1.5
-8.9685001 -5.8769999 -1.4985
-8.8267498 -5.8282499 -1.497
-6.7280002 -5.8390002 -1.498
-6.6346002 -5.8434 -1.4992001
-6.5570002 -5.8627501 -1.4990001
-6.4500003 -5.8668003 -1.4974002
-6.3548751 -5.842875 -1.4983749
-6.2451115 -5.8422227 -1.4976667
-6.1399999 -5.8055 -1.4965
-5.5209999 -5.868 -1.499
-5.4628334 -5.8676672 -1.4988334
-5.0450001 -5.8969998 -1.5
-4.3112502 -5.8930001 -1.4635
-4.2622609 -5.8837395 -1.4753914
-4.1989999 -5.8930001 -1.476
-3.6229999 -5.8959999 -1.5
-3.5159998 -5.8605003 -1.4995
-3.4230001 -5.8429999 -1.4992
-3.342 -5.8635716 -1.4991429
-3.2842004 -5.8558002 -1.4988
-2.7190001 -5.8990002 -1.49
-2.6417999 -5.8585501 -1.4929
-2.5467274 -5.8521819 -1.4907728
-2.4495215 -5.8459568 -1.4890872
-2.3486316 -5.8453679 -1.4866318
-2.2548845 -5.8528461 -1.4852693
-2.148 -5.8479123 -1.4833913
-2.0508399 -5.85356 -1.4802802
-1.9489567 -5.8502173 -1.4790436
-1.8531479 -5.8491111 -1.4766665
-1.7505163 -5.8469028 -1.4762256
-1.6515183 -5.8543706 -1.4734076
-1.5527999 -5.8583674 -1.471
-1.4895 -5.8401661 -1.4710001
-0.8444615 -5.8543468 -1.4447306
-0.75017142 -5.858315 -1.4465142
-0.64821875 -5.8558755 -1.4472812
-0.55125928 -5.8498139 -1.4491481
-0.45117247 -5.8569317 -1.4488275
-0.35224143 -5.8483806 -1.4516894
-0.25037929 -5.8539991 -1.4517585
-0.14920001 -5.8539672 -1.4516
-0.047962952 -5.8558526 -1.4518888
0.049240008 -5.8577204 -1.4519999
0.14760715 -5.8546429 -1.4515358
0.24983335 -5.8520007 -1.4509666
0.345 -5.8491154 -1.4510384
0.40099999 -5.895 -1.4529999
0.87038463 -5.8375387 -1.4470001
0.95057154 -5.8506441 -1.4465001
1.05212 -5.8547997 -1.44468
1.1496897 -5.8478627 -1.4432759
1.2537308 -5.8543844 -1.4415387
1.3466923 -5.8490777 -1.441
1.4507999 -5.8565607 -1.4400799
1.5050001 -5.8526664 -1.4413333
1.9480003 -5.8537736 -1.4356821
2.0520475 -5.8470478 -1.4354764
2.147579 -5.8498421 -1.4349998
2.2499502 -5.8490996 -1.4354002
2.312 -5.8496466 -1.4205883
2.487 -5.803 -1.425
2.5557146 -5.8541431 -1.4355714
2.6453128 -5.8600621 -1.4339374
2.7462223 -5.8518891 -1.4300001
2.8543 -5.8513999 -1.4266999
2.945375 -5.855937 -1.423375
3.0498331 -5.8464999 -1.4201113
3.1118 -5.8701997 -1.4180001
3.6751668 -5.8418331 -1.4036669
3.7440774 -5.8454623 -1.4025385
3.8428335 -5.8218336 -1.4021667
3.9230001 -5.836 -1.403
-11.6608 -5.7653999 -1.4966
-11.457 -5.7764997 -1.4990001
-11.0425 -5.7557497 -1.49825
-10.845 -5.7670002 -1.5
-8.7224998 -5.7694998 -1.4985
-6.7156668 -5.7266669 -1.4996667
-6.6739998 -5.7720003 -1.4995
-6.5679998 -5.75 -1.4992501
-6.4419994 -5.7561665 -1.4990001
-6.3344002 -5.7612004 -1.498
-6.289 -5.7919998 -1.499
-6.1723337 -5.7853332 -1.4983333
-4.2256365 -5.7396827 -1.4583182
-3.2090001 -5.7509999 -1.499
-3.1819999 -5.7620001 -1.4985
-2.6264 -5.7812004 -1.4966
-2.5477142 -5.7525239 -1.4961904
-2.45155 -5.7475505 -1.4948001
-2.349 -5.7528 -1.4930398
-2.2485499 -5.7462006 -1.4897499
-2.1528261 -5.747653 -1.4882175
-2.0483336 -5.7482924 -1.486125
-1.9539198 -5.7517595 -1.4839998
-1.8501199 -5.7512403 -1.4843998
-1.7529444 -5.7402782 -1.4813887
-1.6493043 -5.7530441 -1.4793912
-1.5490772 -5.7540774 -1.4772693
-1.4805715 -5.7431436 -1.4755714
-0.84468192 -5.7623181 -1.4505001
-0.74583995 -5.74752 -1.4536401
-0.64875007 -5.7501082 -1.4547857
-0.55153847 -5.7546153 -1.4549617
-0.45003706 -5.7535186 -1.4555928
-0.34785181 -5.7488155 -1.4574075
-0.24865519 -5.7493105 -1.4569654
-0.14693102 -5.7486892 -1.4566551
-0.04686667 -5.7526665 -1.4568336
0.053233325 -5.7528343 -1.4570334
0.15085715 -5.7537503 -1.4579645
0.24768966 -5.7487245 -1.4567589
0.3272143 -5.7600002 -1.4566429
0.79400003 -5.7220001 -1.452
0.85312003 -5.7442398 -1.4509599
0.94942856 -5.7446084 -1.4511783
1.0490689 -5.7496905 -1.4493793
1.1500869 -5.7487397 -1.447826
1.2495714 -5.7486072 -1.4465357
1.3506665 -5.7492495 -1.4454584
1.4471154 -5.7492695 -1.4439616
1.505 -5.7494998 -1.4450001
1.896 -5.757 -1.4349999
1.9518845 -5.7497692 -1.4398077
2.0500455 -5.7504096 -1.4395001
2.1475654 -5.7504349 -1.438261
2.2470951 -5.7498088 -1.4370476
2.3501348 -5.749217 -1.426973
2.4456787 -5.7434292 -1.4299285
2.5508637 -5.7585006 -1.4358636
2.6513498 -5.7551999 -1.4329
2.7487895 -5.755053 -1.4312105
2.8456666 -5.748611 -1.4286667
2.9492271 -5.7570906 -1.4260455
3.0349998 -5.7576156 -1.4236922
3.5795 -5.7049999 -1.4105
3.6505291 -5.7492948 -1.4092941
3.7483895 -5.7479448 -1.4058331
3.8522 -5.7473335 -1.4044667
3.9356251 -5.7449999 -1.403125
-11.111 -5.6254997 -1.4990001
-11.096 -5.6539998 -1.499
-6.7319999 -5.6999998 -1.499
-4.2097421 -5.646419 -1.4513227
-4.1999998 -5.6220002 -1.47
-2.5295556 -5.6673331 -1.4983333
-2.4453888 -5.6488891 -1.496778
-2.3544092 -5.6420908 -1.4957271
-2.2475219 -5.6495223 -1.4931306
-2.1484349 -5.6435223 -1.4913044
-2.0557084 -5.6480002 -1.4905418
-1.94768 -5.6481595 -1.4890001
-1.8543911 -5.652348 -1.4870436
-1.7495835 -5.6522079 -1.48575
-1.6570799 -5.6559997 -1.48224
-1.5576363 -5.6508188 -1.4794998
-1.4695555 -5.6453333 -1.4772779
-0.875 -5.6382003 -1.4217999
-0.73830003 -5.6505003 -1.4573001
-0.64896286 -5.6509633 -1.4589999
-0.55173337 -5.6544347 -1.4597667
-0.4524667 -5.6580338 -1.4603999
-0.34917241 -5.6491718 -1.4610345
-0.25090322 -5.6521616 -1.4627095
-0.15149999 -5.6515365 -1.4622858
-0.049406253 -5.6487184 -1.4620315
0.05093104 -5.6504478 -1.4617931
0.15122224 -5.651371 -1.4617779
0.25062504 -5.6574993 -1.4615835
0.318625 -5.6737504 -1.45875
0.7841 -5.6414003 -1.4559001
0.85033339 -5.6586666 -1.4550953
0.94972724 -5.651 -1.4544091
1.0475 -5.6527505 -1.4542857
1.1506296 -5.6568151 -1.4520371
1.2482963 -5.6486301 -1.4511113
1.3548148 -5.6562586 -1.4499259
1.4538 -5.6473603 -1.4481601
1.505 -5.6506667 -1.4483335
1.8929999 -5.6507497 -1.44625
1.9527587 -5.6459651 -1.4462413
2.0512309 -5.6504617 -1.4454234
2.1486249 -5.6483431 -1.4459686
2.2510939 -5.6482806 -1.4452188
2.3501208 -5.6433034 -1.4447273
2.4540739 -5.6475549 -1.4447037
2.5501156 -5.6480393 -1.4395387
2.6532607 -5.6540875 -1.4358264
2.7533638 -5.6532731 -1.4331818
2.8490002 -5.6473155 -1.4304211
2.9431579 -5.6486316 -1.4281577
3.0144002 -5.6729999 -1.4268001
3.5607998 -5.6418004 -1.4115002
3.6528463 -5.6486154 -1.4097693
3.7513332 -5.6533332 -1.4073334
3.8441665 -5.6597495 -1.4058335
3.9145 -5.6715002 -1.4054999
-4.336 -5.5382729 -1.4553639
-4.2396154 -5.5513458 -1.4484805
-4.1955714 -5.5492864 -1.4300001
-2.4355557 -5.574111 -1.4983333
-2.3449471 -5.5545793 -1.4985789
-2.2523501 -5.55235 -1.4971499
-2.1505599 -5.5542397 -1.49664
-2.047375 -5.5498328 -1.4955418
-1.9517199 -5.5502 -1.4926802
-1.8479166 -5.5477085 -1.4900001
-1.7563998 -5.5492005 -1.4869199
-1.6493182 -5.5547271 -1.4834999
-1.5459285 -5.5544643 -1.4814643
-1.4569445 -5.5497775 -1.4791666
-0.72686678 -5.5467334 -1.4621334
-0.65416664 -5.5519662 -1.4621668
-0.55216664 -5.5445337 -1.4626
-0.4505161 -5.5518384 -1.4631292
-0.34800005 -5.5453668 -1.4643004
-0.24796551 -5.5442762 -1.4655169
-0.15083869 -5.5469036 -1.4651612
-0.050272733 -5.5445757 -1.4656062
0.052129027 -5.5446777 -1.4651289
0.14893548 -5.5475163 -1.4641935
0.24353126 -5.5574999 -1.4642812
0.30050001 -5.5679998 -1.4584999
0.76149988 -5.5417919 -1.4600834
0.84897071 -5.5554414 -1.4576766
0.94893539 -5.5485477 -1.4567422
1.0527407 -5.5489259 -1.4558148
1.1501291 -5.5466776 -1.4544194
1.255154 -5.5504236 -1.4532307
1.3496552 -5.5483789 -1.4533105
1.4483669 -5.5493011 -1.4531002
1.505 -5.5360003 -1.4525
1.895 -5.5600004 -1.4553335
1.9468215 -5.5474997 -1.4545715
2.0445201 -5.5558 -1.4547598
2.1475186 -5.5479999 -1.4548148
2.2528636 -5.5523181 -1.4555
2.3477085 -5.5475421 -1.4550416
2.4517038 -5.5523334 -1.4544814
2.5506296 -5.5500751 -1.4441111
2.6489546 -5.553319 -1.4411364
2.7501903 -5.5537624 -1.4367621
2.8490953 -5.5523334 -1.4325715
2.9350002 -5.5565834 -1.4301667
3.4796002 -5.5400004 -1.4123999
3.548625 -5.5430622 -1.4100624
3.6451175 -5.5568819 -1.4078237
3.7435 -5.5482502 -1.4062499
3.8224287 -5.5605717 -1.4042858
-4.3262496 -5.4942498 -1.4107499
-4.2697501 -5.4957504 -1.4100001
-2.421 -5.5 -1.5
-2.3285 -5.4369998 -1.49825
-2.2326667 -5.4484 -1.4986668
-2.1503181 -5.443728 -1.4976363
-2.0522499 -5.4494581 -1.4967917
-1.9491667 -5.4448752 -1.493625
-1.8511482 -5.444593 -1.4914445
-1.7461072 -5.4413924 -1.4891429
-1.6517861 -5.4506078 -1.4857144
-1.5504196 -5.4432893 -1.4829355
-1.4486336 -5.4477339 -1.4807668
-1.3875 -5.4117498 -1.482
-0.71985716 -5.4525714 -1.4675714
-0.65002948 -5.4529705 -1.4682648
-0.55237132 -5.4492855 -1.4686857
-0.44744122 -5.4533825 -1.4690003
-0.35151517 -5.4477272 -1.4697273
-0.25052777 -5.4498048 -1.4706668
-0.15032256 -5.4488063 -1.4704838
-0.04951515 -5.4492416 -1.4707577
0.049966663 -5.4463673 -1.4700001
0.14774193 -5.4510651 -1.4698067
0.23459093 -5.4553185 -1.4694545
0.68300003 -5.4318571 -1.4674287
0.74786669 -5.4539003 -1.4663666
0.8496666 -5.4496388 -1.4647223
0.95043755 -5.4561567 -1.4629064
1.0486668 -5.4535761 -1.4620305
1.1518824 -5.4478827 -1.4606179
1.2485623 -5.4556875 -1.4599686
1.3474138 -5.4535513 -1.4595174
1.449375 -5.4513435 -1.4591563
1.5043334 -5.434 -1.459
1.8874 -5.4318004 -1.4604
1.9503849 -5.4531922 -1.4601539
2.052793 -5.4539995 -1.4595518
2.1499233 -5.4484625 -1.4601153
2.2468574 -5.4525709 -1.4602145
2.3481195 -5.4488397 -1.4607601
2.4513929 -5.4553938 -1.460036
2.5432496 -5.4476566 -1.4513438
2.6515176 -5.4479985 -1.4450344
2.7495925 -5.4530373 -1.4418889
2.8479664 -5.4507003 -1.4380333
2.915 -5.4726667 -1.4333334
3.3929999 -5.4200001 -1.42
3.456857 -5.448524 -1.4187143
3.5464766 -5.449286 -1.4152858
3.6478183 -5.4560914 -1.4114546
3.7521999 -5.4530501 -1.4107499
-28.063335 -5.3426666 -1.4696667
-2.3247776 -5.3646665 -1.498889
-2.25225 -5.3654375 -1.4978749
-2.1494002 -5.3606 -1.4978001
-2.0535002 -5.3581109 -1.497389
-1.9516088 -5.3587394 -1.4971304
-1.8475417 -5.348834 -1.495625
-1.7509001 -5.3462338 -1.4952335
-1.6466875 -5.3508749 -1.4917814
-1.5472499 -5.3533931 -1.4896071
-1.4503237 -5.3494411 -1.4881765
-1.3807 -5.3445005 -1.4866999
-0.71162498 -5.3555002 -1.474625
-0.6618799 -5.3550005 -1.4742799
-0.54738885 -5.3505554 -1.4749447
-0.45094737 -5.3481059 -1.4748687
-0.35080558 -5.3463888 -1.4746392
-0.25028124 -5.3439379 -1.4746876
-0.1507647 -5.3463235 -1.4739705
-0.047843758 -5.3470001 -1.4727501
0.048233334 -5.3435335 -1.4727335
0.14723529 -5.3485885 -1.4715883
0.21945456 -5.3446364 -1.4710001
0.66999996 -5.3391333 -1.467467
0.74929041 -5.3490648 -1.4677097
0.8495357 -5.3446794 -1.4666785
0.94758058 -5.3496771 -1.466387
1.0494138 -5.3522758 -1.4651381
1.1451852 -5.3498893 -1.4650742
1.2516876 -5.3581243 -1.4656249
1.3472813 -5.349812 -1.463375
1.4503449 -5.3496208 -1.4626553
1.50625 -5.3467503 -1.46325
1.886 -5.3353338 -1.4643333
1.9481933 -5.3508706 -1.4640644
2.0498967 -5.3500347 -1.4651726
2.1491852 -5.3518519 -1.465259
2.2501249 -5.3560004 -1.4645834
2.3496666 -5.3529587 -1.4648333
2.4465652 -5.3502612 -1.4644783
2.5515127 -5.350564 -1.4628974
2.6503334 -5.3483057 -1.4591668
2.7506855 -5.3545713 -1.4555715
2.8296111 -5.3553338 -1.451
3.3686836 -5.3464212 -1.4338949
3.451 -5.3514237 -1.4296154
3.5505388 -5.3556156 -1.4267309
3.6479292 -5.3534293 -1.4218571
3.7170999 -5.3474998 -1.4217
6.3189998 -5.3049998 -1.402
-28.223999 -5.2284999 -1.4935
-28.146999 -5.2650003 -1.465
-28.099001 -5.2810001 -1.438
-27.535 -5.2750001 -1.41
-2.1040001 -5.3000002 -1.497
-2.0415001 -5.2869997 -1.4985
-1.9295 -5.2613335 -1.4986668
-1.8423125 -5.2553749 -1.4979374
-1.7504445 -5.2525558 -1.497889
-1.6529353 -5.2482252 -1.4967095
-1.5537057 -5.2497363 -1.4941766
-1.4515001 -5.2499342 -1.491467
-1.375353 -5.2464709 -1.4913532
-0.70500004 -5.2593336 -1.4816666
-0.66314292 -5.2587867 -1.4828571
-0.5439375 -5.2555003 -1.4816253
-0.4501892 -5.2471361 -1.4821624
-0.35078946 -5.2464218 -1.4813422
-0.24887805 -5.2499261 -1.4819269
-0.14936586 -5.2489996 -1.4804878
-0.048386365 -5.2471824 -1.4787502
0.053842101 -5.2502894 -1.4777895
0.1489737 -5.2467642 -1.4770001
0.20574999 -5.27425 -1.4735
0.59299999 -5.2129998 -1.475
0.65254289 -5.2455435 -1.4724284
0.74925709 -5.2513709 -1.4710857
0.84944433 -5.2495828 -1.4698333
0.95125008 -5.2481565 -1.4689064
1.0491463 -5.2457314 -1.4688047
1.1519997 -5.2524443 -1.4679449
1.2495624 -5.2525625 -1.4678437
1.3515002 -5.2489705 -1.4682353
1.4504118 -5.2484121 -1.4663532
1.5040001 -5.2440004 -1.4656667
1.8838888 -5.235889 -1.4708887
1.9513335 -5.2518339 -1.4706333
2.0510938 -5.2498436 -1.4712813
2.1524 -5.250515 -1.4704858
2.2505624 -5.2520318 -1.4706877
2.3494003 -5.2586999 -1.4703668
2.4430304 -5.2522116 -1.4715759
2.5468464 -5.2508845 -1.474
2.650393 -5.2448578 -1.4697145
2.7469995 -5.2521076 -1.4655358
2.8080001 -5.2834997 -1.46
3.2765718 -5.2372856 -1.4430001
3.3477275 -5.2487731 -1.4400002
3.4515004 -5.2504091 -1.4370911
3.5505455 -5.2514095 -1.4327273
3.6453123 -5.2523131 -1.4301875
5.1434283 -5.243 -1.4020001
5.2376671 -5.2176666 -1.402
5.3039999 -5.2529998 -1.402
5.9630003 -5.2242498 -1.404
6.0476251 -5.2401252 -1.404375
6.1506362 -5.25 -1.4040909
6.2601671 -5.2473335 -1.405
6.3444295 -5.2492862 -1.4034286
6.4230003 -5.2278004 -1.4042
-28.318501 -5.1440001 -1.4725001
-28.243 -5.1809998 -1.444
-7.5618005 -5.1226001 -1.4742
-2.092 -5.1890001 -1.5
-1.9383333 -5.1673336 -1.4996667
-1.8382858 -5.1505718 -1.4992858
-1.7511111 -5.1505556 -1.4986668
-1.6439166 -5.1524167 -1.4984167
-1.5497502 -5.1490421 -1.4961252
-1.4511515 -5.1517582 -1.4945152
-1.3616499 -5.1471 -1.492
-0.66721737 -5.1546521 -1.4880435
-0.53496295 -5.1547036 -1.4889631
-0.45134151 -5.1499996 -1.4882439
-0.34856096 -5.1466837 -1.4882681
-0.25338459 -5.1503077 -1.487667
-0.14899999 -5.1518373 -1.4869733
-0.047363643 -5.1503935 -1.4853637
0.050026316 -5.1529474 -1.4836581
0.13981481 -5.1512594 -1.4825926
0.57941669 -5.1435003 -1.48075
0.64917511 -5.1435499 -1.4779505
0.74635893 -5.1523843 -1.4772565
0.8511281 -5.1574349 -1.4774359
0.94948834 -5.154326 -1.4776745
1.0475937 -5.1532183 -1.4762499
1.1475714 -5.155972 -1.4753715
1.2458422 -5.1559997 -1.4742105
1.3522308 -5.1425133 -1.4731796
1.4509252 -5.1462493 -1.4724252
1.5090001 -5.138 -1.4729999
1.8844166 -5.1536665 -1.4811666
1.9495119 -5.1542916 -1.4812438
2.0485401 -5.1532431 -1.4809189
2.146909 -5.1537266 -1.4824851
2.2471619 -5.1576757 -1.4822974
2.3446472 -5.160265 -1.4802943
2.4429667 -5.1517673 -1.4818667
2.5462224 -5.1504173 -1.480139
2.6483212 -5.1478214 -1.4745715
2.7224288 -5.1540003 -1.4700714
3.2505832 -5.1463337 -1.4483335
3.3491666 -5.1514173 -1.4450834
3.4407728 -5.1520457 -1.4419092
3.54456 -5.1548796 -1.4374002
3.6241429 -5.1632857 -1.4355716
5.1516924 -5.1460772 -1.4057692
5.2470002 -5.1438336 -1.4052501
5.3039999 -5.1529999 -1.402
5.7379999 -5.1160002 -1.402
5.8284998 -5.1245003 -1.402
5.9551673 -5.1348338 -1.4063333
6.0530005 -5.1548886 -1.4077778
6.1529999 -5.1573 -1.4073
6.2631111 -5.1484447 -1.4064443
6.3450003 -5.170167 -1.4051669
6.4229999 -5.1869998 -1.403
7.0009999 -5.1659999 -1.401
-28.427 -5.0370002 -1.452
-28.360001 -5.0749998 -1.449
-7.5482507 -5.048964 -1.4572501
-1.8484285 -5.0817146 -1.4997144
-1.7424445 -5.0747781 -1.4983333
-1.654 -5.0798335 -1.4985001
-1.5472223 -5.0788336 -1.496889
-1.4439999 -5.0712223 -1.4960001
-1.3554738 -5.0746317 -1.4934738
-0.6584546 -5.0766368 -1.4921818
-0.52492857 -5.0712862 -1.4923571
-0.45824999 -5.0782504 -1.4934375
-0.36214289 -5.0897141 -1.4917142
-0.24844445 -5.0914445 -1.490111
-0.15110001 -5.0946002 -1.4897
-0.079999998 -5.0917501 -1.4862499
0.059 -5.0999999 -1.4809999
0.5701924 -5.0537686 -1.4847695
0.64989191 -5.0478106 -1.484027
0.75269228 -5.0528722 -1.4821796
0.84945011 -5.0484252 -1.4807501
0.94853121 -5.0472808 -1.4809374
1.05295 -5.0535007 -1.478825
1.1486579 -5.0502644 -1.4791845
1.249262 -5.0479293 -1.4784763
1.3483824 -5.0451775 -1.479
1.4490573 -5.0517139 -1.4807713
1.5116668 -5.0510001 -1.4818333
1.8861111 -5.0483332 -1.487
1.95275 -5.0500946 -1.488156
2.051125 -5.0515003 -1.4884063
2.151536 -5.0541072 -1.4871789
2.2489231 -5.0506539 -1.4865001
2.3489258 -5.0618153 -1.4865186
2.4476666 -5.059792 -1.4867499
2.5504544 -5.0533342 -1.4862425
2.6471934 -5.0523548 -1.4812255
2.7130001 -5.0939999 -1.472
3.1795001 -5.0556002 -1.4575001
3.2517304 -5.0523462 -1.4539615
3.3485832 -5.0570421 -1.4505417
3.4501598 -5.0547199 -1.44644
3.5420003 -5.0565495 -1.4418002
5.1546364 -5.0441818 -1.4078182
5.2255001 -5.0772495 -1.40725
5.7210002 -5.0120001 -1.401
5.8940001 -5.0380001 -1.401
5.9647002 -5.0425 -1.4052
6.0590005 -5.043889 -1.4051111
6.1521254 -5.041625 -1.4065
6.232667 -5.0635004 -1.4051666
6.8509998 -5.0336666 -1.404
6.956111 -5.0437779 -1.4020001
7.0623336 -5.0360003 -1.4016666
7.1044998 -5.0255003 -1.401
-28.469999 -4.9949999 -1.4529999
-7.5389991 -4.9491558 -1.4477187
0.57055551 -4.9574065 -1.490963
0.64920932 -4.9543948 -1.4914417
0.74821997 -4.9579 -1.4909799
0.85213965 -4.9589071 -1.4892789
0.95281631 -4.956408 -1.4886731
1.0493543 -4.954855 -1.4882501
1.1496089 -4.95574 -1.4879131
1.2527674 -4.9516745 -1.4880699
1.3485713 -4.9558811 -1.4872859
1.4499267 -4.9559021 -1.4866586
1.5115001 -4.9419999 -1.4882001
1.8809999 -4.9502144 -1.4905715
1.9478751 -4.9498119 -1.4895624
2.0503824 -4.9450884 -1.4906764
2.1495426 -4.952085 -1.4902002
2.2478485 -4.9525156 -1.4891214
2.3512895 -4.9541059 -1.4887633
2.4516873 -4.9491878 -1.4888749
2.5520308 -4.9470005 -1.4882729
2.621455 -4.9502726 -1.4865454
3.0798752 -4.9258752 -1.4658751
3.1525941 -4.9460936 -1.4603753
3.250643 -4.9466434 -1.4573929
3.3486297 -4.9483328 -1.4524816
3.4520395 -4.9497595 -1.4491999
3.5176666 -4.9656668 -1.4460001
5.1487498 -4.9726248 -1.41175
5.5812502 -4.9247499 -1.4045
5.6506667 -4.933444 -1.4028889
5.7454286 -4.9331431 -1.4028572
5.8395 -4.9387503 -1.402
5.9582 -4.9449 -1.4097999
6.0490832 -4.9493332 -1.4094167
6.1329999 -4.9667501 -1.40775
6.75 -4.962667 -1.4086666
6.8365998 -4.9712 -1.406
6.9294996 -4.9750004 -1.4035
7.0209999 -4.994 -1.402
-28.464001 -4.8899999 -1.402
-7.6510005 -4.8483005 -1.4715999
-7.5399647 -4.8522754 -1.4450344
0.5695926 -4.8478146 -1.495037
0.65142113 -4.8513947 -1.4935791
0.75068414 -4.8480263 -1.493421
0.84719568 -4.8514991 -1.4930656
0.94764864 -4.8488374 -1.4928108
1.0478158 -4.8492641 -1.4922897
1.1485137 -4.8488917 -1.4913788
1.2490475 -4.8443108 -1.4915001
1.3501792 -4.8537188 -1.4922049
1.4487075 -4.851707 -1.4930731
1.5091251 -4.8439999 -1.492625
1.8771765 -4.847589 -1.4943529
1.9507107 -4.8522635 -1.4949211
2.0489666 -4.8540668 -1.4947668
2.1503422 -4.8494201 -1.4952894
2.2520282 -4.8539162 -1.4953057
2.3460908 -4.8496671 -1.494303
2.447031 -4.8491569 -1.4935627
2.5439599 -4.85536 -1.4941602
2.6010001 -4.8850002 -1.494
3.0589564 -4.8429132 -1.4718696
3.1466072 -4.8506441 -1.4677501
3.2489617 -4.8503466 -1.4627694
3.3507688 -4.8526158 -1.4570768
3.4411666 -4.8615003 -1.4536667
5.5662861 -4.8622856 -1.411
5.6447997 -4.8610001 -1.4068999
5.7474995 -4.8593001 -1.4051999
5.8351111 -4.8655562 -1.4042221
5.9289999 -4.8655 -1.4130001
6.026 -4.8846664 -1.4153335
11.435 -4.8130002 -1.493
-24.927 -4.7750001 -1.498
-7.6269999 -4.7989998 -1.419
-7.5665002 -4.7934999 -1.41425
0.56021744 -4.7565222 -1.4951739
0.64363331 -4.7634668 -1.4949669
0.74879998 -4.7693 -1.4951333
0.85047984 -4.7685599 -1.49524
0.95071447 -4.7678928 -1.4945357
1.049926 -4.7703333 -1.4940741
1.1517309 -4.7736158 -1.4938078
1.2435263 -4.7675266 -1.4929999
1.3517895 -4.7766314 -1.4939474
1.4460002 -4.781929 -1.4953572
1.5129999 -4.7940001 -1.498
1.892 -4.7989998 -1.498
1.952 -4.7877998 -1.4978001
2.0541108 -4.7934442 -1.4972221
2.1589999 -4.7865 -1.4960001
2.2383335 -4.7956672 -1.4976667
2.3538001 -4.7932005 -1.497
2.4520001 -4.7895718 -1.4968573
2.5282001 -4.7807999 -1.4960001
2.9879999 -4.7930002 -1.472
3.0349998 -4.7834997 -1.4712501
3.1587501 -4.783 -1.4647501
3.256 -4.7915001 -1.46175
3.3526666 -4.796 -1.457
11.447001 -4.7825003 -1.4925001
2.9809999 -4.6360002 -1.426
3.217 -4.6020002 -1.401
10.984 -4.6459999 -1.414
11.0365 -4.6569996 -1.431
11.116 -4.6480002 -1.4143333
11.205 -4.6700001 -1.439
-10.857 -4.515667 -1.4906667
0.49700001 -4.5209999 -1.406
0.52700001 -4.5050001 -1.428
0.64300001 -4.5250001 -1.431
0.94499999 -4.5289998 -1.431
1.039 -4.506 -1.421
1.1569999 -4.506 -1.421
1.234 -4.5222502 -1.423
1.335 -4.5209999 -1.4215
1.4145 -4.5235 -1.4205
1.8555 -4.5215001 -1.419
1.961 -4.5152497 -1.4154999
2.0307498 -4.52425 -1.4170001
2.1560001 -4.5261664 -1.4181669
2.2492499 -4.5116248 -1.4167501
2.3377776 -4.5214443 -1.4207778
2.4249997 -4.5370002 -1.4157499
2.8588464 -4.526154 -1.403923
2.9443336 -4.5209999 -1.4023333
3.0039999 -4.5830002 -1.408
3.142 -4.5985003 -1.405
6.5550003 -4.5015001 -1.4295
6.7709999 -4.5029998 -1.4255
6.859333 -4.5036669 -1.4186667
6.9386668 -4.5071669 -1.4183334
7.0415001 -4.5078335 -1.4133333
7.1438746 -4.5116248 -1.413125
7.2616005 -4.5208001 -1.4167999
7.3541431 -4.5237145 -1.4144286
7.4521432 -4.5274291 -1.4172858
-10.840905 -4.4427137 -1.4538573
-3.9624996 -4.4229379 -1.4328125
-1.216 -4.402 -1.447
-1.192 -4.4029999 -1.4450001
-0.61199999 -4.4087496 -1.425
-0.57799995 -4.4068747 -1.409
-0.44056666 -4.4106998 -1.4112999
-0.34687749 -4.4151835 -1.4175304
-0.24960712 -4.4198036 -1.4172499
-0.14878003 -4.4257798 -1.4160599
-0.052212775 -4.425405 -1.414404
0.0096666664 -4.4226665 -1.4066666
0.38191664 -4.4285831 -1.4088334
0.44442108 -4.4345794 -1.4086841
0.55052376 -4.4392385 -1.4138573
0.65240002 -4.4373336 -1.4123336
0.75162071 -4.430069 -1.4096895
0.84626681 -4.436667 -1.4114332
0.95117867 -4.4337502 -1.410393
1.0514849 -4.4354854 -1.4107575
1.1510667 -4.436933 -1.4101337
1.2490644 -4.4433217 -1.4110647
1.3500311 -4.4450936 -1.4099374
1.4198464 -4.4419999 -1.4079232
1.7628335 -4.4514999 -1.4089167
1.8503426 -4.4512563 -1.4119998
1.9501619 -4.4493246 -1.4128917
2.049381 -4.4530478 -1.412524
2.149425 -4.4478755 -1.4150751
2.2465751 -4.4434996 -1.4174751
2.3492103 -4.4441848 -1.4214998
2.4201431 -4.4457855 -1.4159645
2.7835002 -4.4311876 -1.4120001
2.8505948 -4.4508915 -1.4072433
2.9467087 -4.436708 -1.405375
3.0414 -4.4197001 -1.4038
4.1462498 -4.40275 -1.43975
5.1530342 -4.424552 -1.431276
5.2525601 -4.4246001 -1.4300799
5.3483047 -4.4289994 -1.4290869
5.4499264 -4.4342961 -1.4282223
5.5513501 -4.4400005 -1.4278001
5.6490006 -4.4400001 -1.4287273
5.746429 -4.4479523 -1.4245715
5.8537221 -4.4531665 -1.4291111
5.9494762 -4.4523811 -1.4305714
6.0437999 -4.4478002 -1.4283
6.1467886 -4.4578419 -1.4247369
6.2463675 -4.4607368 -1.4255788
6.3467898 -4.461 -1.4232632
6.4532228 -4.4618888 -1.4265555
6.5491333 -4.459734 -1.4257333
6.6427226 -4.4687781 -1.4231111
6.7402 -4.4662671 -1.4221333
6.8375454 -4.4540911 -1.4266363
6.947084 -4.4616671 -1.4262499
7.0480003 -4.4514003 -1.4253999
7.1522498 -4.4477501 -1.4236251
7.2521253 -4.4442501 -1.4225
7.3137503 -4.43325 -1.4227499
7.411334 -4.4743338 -1.4246668
8.1575003 -4.4064999 -1.4189999
8.2544994 -4.408 -1.4195
8.3565998 -4.4070001 -1.4138
8.4526672 -4.4046669 -1.4106668
8.5342503 -4.4102502 -1.41875
8.6485004 -4.41225 -1.41675
8.7723331 -4.4180002 -1.4186667
8.8690004 -4.428 -1.42
8.9336662 -4.4213333 -1.4163334
9.0226669 -4.4140005 -1.4153333
9.1040001 -4.4070001 -1.413
9.2544994 -4.421 -1.406
9.3311996 -4.4253998 -1.421
9.4254999 -4.4315 -1.4184999
9.5209999 -4.4359999 -1.4119999
9.6130009 -4.4175 -1.4035
-10.836143 -4.3471904 -1.4479048
-4.1104999 -4.3505001 -1.411
-4.0526667 -4.3095007 -1.411
-3.9601765 -4.3456907 -1.4488232
-3.3829999 -4.3010001 -1.477
-3.0263336 -4.3186665 -1.4689999
-2.9405 -4.336 -1.4725
-2.8623333 -4.3266668 -1.4680002
-2.7467146 -4.3340006 -1.4668572
-2.6433334 -4.3263335 -1.4630001
-2.5482223 -4.3183331 -1.4604443
-2.454143 -4.3292861 -1.4614285
-2.3547001 -4.3268003 -1.4602
-2.2502728 -4.3176365 -1.4539092
-2.147625 -4.3266253 -1.454875
-2.0899999 -4.3080001 -1.454
-1.7191154 -4.3661923 -1.4198846
-1.6504999 -4.3664141 -1.428443
-1.5504929 -4.3706474 -1.4262251
-1.4500743 -4.3745666 -1.4259996
-1.3490139 -4.3767366 -1.4244859
-1.2520159 -4.3825569 -1.4249204
-1.1696745 -4.3828144 -1.4234188
-0.61074996 -4.3853755 -1.4258751
-0.57526088 -4.379478 -1.4202175
-0.44725925 -4.3795919 -1.4217036
-0.36146155 -4.3911538 -1.4255385
-0.25362501 -4.3943748 -1.4281248
-0.15058334 -4.3639169 -1.4164166
-0.021000002 -4.3966665 -1.4176668
0.01175 -4.3592501 -1.4037499
0.38999999 -4.4000001 -1.408
0.48199999 -4.3849998 -1.4057499
0.57683331 -4.3514671 -1.414
0.64815259 -4.3485422 -1.4126104
0.74816942 -4.3457632 -1.4113051
0.85189104 -4.3473086 -1.4110181
0.95027268 -4.3500185 -1.4118907
1.048286 -4.3458366 -1.4104896
1.149 -4.3499222 -1.4110588
1.2477591 -4.3478518 -1.4106483
1.3495358 -4.3474293 -1.4104108
1.4223214 -4.3337855 -1.4093214
1.635 -4.3015003 -1.4760001
1.7574999 -4.3460741 -1.4173331
1.8521093 -4.3390932 -1.4258282
1.9511299 -4.3307657 -1.4332988
2.0499804 -4.3282828 -1.4420289
2.1488686 -4.3231764 -1.4476575
2.2506731 -4.3265572 -1.4496195
2.3506958 -4.3264613 -1.453667
2.4469376 -4.323318 -1.4461504
2.5483909 -4.3177729 -1.4530108
2.6492126 -4.3246384 -1.4522343
2.7523372 -4.3408532 -1.4500314
2.8511071 -4.3464479 -1.4467187
2.9501388 -4.350019 -1.443604
3.0505512 -4.3512459 -1.4458674
3.146138 -4.3488879 -1.452175
3.2014999 -4.3520002 -1.4935
3.5913334 -4.3443332 -1.4380001
3.6526339 -4.3622117 -1.4493803
3.748842 -4.3651857 -1.4486711
3.8502002 -4.3685851 -1.4486144
3.9486842 -4.3735003 -1.4453832
4.0459032 -4.3750319 -1.4461292
4.1489825 -4.3767619 -1.4473901
5.149909 -4.3470912 -1.4514545
5.2466664 -4.3427224 -1.4483334
5.3474545 -4.3411822 -1.4458183
5.4438748 -4.3452497 -1.4440626
5.5473847 -4.3440771 -1.4433079
5.6500001 -4.3440595 -1.4418232
5.7470002 -4.342 -1.440643
5.848454 -4.3525462 -1.4406364
5.9500828 -4.3440003 -1.4430835
6.042357 -4.3481426 -1.4392858
6.1460915 -4.3510914 -1.4377276
6.2434549 -4.3559093 -1.4374547
6.3435001 -4.3467503 -1.4361666
6.4558182 -4.3453636 -1.4360909
6.5553751 -4.3511248 -1.43525
6.6482725 -4.3562727 -1.4330909
6.7332859 -4.3535719 -1.4321429
6.8348999 -4.3540001 -1.4304999
6.9584002 -4.3509002 -1.4297999
7.054625 -4.348875 -1.4265001
7.1518183 -4.3415451 -1.4256363
7.2490001 -4.368 -1.423
7.9724998 -4.3070002 -1.427
8.060667 -4.3515 -1.4234999
8.1531248 -4.3563747 -1.42275
8.2578573 -4.3532863 -1.4225715
8.3458004 -4.3422008 -1.4244001
8.4201994 -4.3330002 -1.4236001
8.5417147 -4.3394289 -1.4234288
8.6526003 -4.3577995 -1.4222001
8.7487144 -4.3597145 -1.4201429
8.8416004 -4.3496003 -1.4222
8.9250002 -4.3406005 -1.4218
9.0498753 -4.3598752 -1.4168749
9.1617498 -4.3617501 -1.418
9.1999998 -4.355 -1.4220001
9.3809996 -4.3730001 -1.4167999
9.4478006 -4.3439999 -1.4088
9.5354996 -4.342 -1.40825
9.6424999 -4.3501663 -1.4031667
9.7950001 -4.3170004 -1.401
-10.923 -4.263 -1.4593334
-10.848462 -4.2709999 -1.4391539
-4.0210614 -4.265151 -1.4401513
-3.9756277 -4.2689991 -1.4584315
-3.8250833 -4.2416668 -1.4728334
-3.7555716 -4.2408571 -1.471357
-3.6476874 -4.2255626 -1.4710624
-3.5557647 -4.2325292 -1.4721178
-3.4511578 -4.2284737 -1.4688423
-3.3632221 -4.2235003 -1.4666111
-3.0187337 -4.2388 -1.4574667
-2.9554863 -4.2428102 -1.4579463
-2.8508687 -4.2482109 -1.4615
-2.7487249 -4.248075 -1.461375
-2.6501029 -4.2519236 -1.4596156
-2.5516975 -4.2443724 -1.4595116
-2.4481554 -4.2503786 -1.4593999
-2.348273 -4.2526808 -1.4585227
-2.2482793 -4.2508607 -1.4566282
-2.1505206 -4.2486048 -1.4553961
-2.0858891 -4.2458887 -1.451
-1.6864001 -4.2518001 -1.4072001
-1.418 -4.2969999 -1.425
-1.298 -4.2290001 -1.401
-1.1813334 -4.2743335 -1.4133334
0.57317954 -4.2500906 -1.4524103
0.64885885 -4.2555251 -1.4510895
0.74828839 -4.2580385 -1.4509875
0.84842396 -4.261292 -1.4501389
0.949664 -4.2632637 -1.4510859
1.0494 -4.2658348 -1.4501588
1.1490561 -4.2702594 -1.4509861
1.250157 -4.2745152 -1.4531418
1.3491831 -4.2775397 -1.4542618
1.4498729 -4.2815242 -1.4525596
1.5467168 -4.2778358 -1.4495118
1.6482347 -4.2753906 -1.4479529
1.7476983 -4.2844253 -1.4587736
1.8490357 -4.2914238 -1.4572589
1.9461232 -4.2944617 -1.4569383
2.0428386 -4.2953539 -1.4585483
2.1489232 -4.2959232 -1.4653076
2.2502 -4.2964997 -1.4605
2.3440001 -4.2980003 -1.4431667
2.46275 -4.2947502 -1.4307501
2.5339999 -4.2979999 -1.439
2.6159999 -4.2989998 -1.433
3.108 -4.21 -1.5
3.5648334 -4.2293887 -1.4848888
3.6490293 -4.2420001 -1.4814707
3.7505586 -4.2453527 -1.4779998
3.852097 -4.2446446 -1.4752257
3.9472814 -4.2461562 -1.4719691
4.0528579 -4.2451072 -1.4717859
4.151083 -4.2465005 -1.4697087
5.1525297 -4.2463527 -1.453353
5.2548423 -4.2520003 -1.4517368
5.3524289 -4.2552862 -1.4505715
5.4452505 -4.2557502 -1.4499376
5.5454121 -4.2511177 -1.4502941
5.650188 -4.248313 -1.4480625
5.7506151 -4.2471538 -1.4456924
5.8425717 -4.2555714 -1.4440715
5.9449286 -4.235929 -1.4420713
6.0488181 -4.2578182 -1.4400001
6.150538 -4.2524614 -1.4396924
6.2465558 -4.2550001 -1.4376668
6.347909 -4.2479095 -1.4383637
6.4448338 -4.2432499 -1.4376668
6.5491672 -4.2579174 -1.43575
6.6471109 -4.2448893 -1.4357779
6.7414169 -4.2566671 -1.4343333
6.8457999 -4.2575002 -1.4333
6.9516668 -4.2505836 -1.4331667
7.051333 -4.2502222 -1.4317777
7.13275 -4.2685003 -1.4312499
7.2059999 -4.3000002 -1.426
7.8605995 -4.2309999 -1.431
7.957375 -4.2362499 -1.431375
8.0366669 -4.2331672 -1.4303335
8.1409998 -4.2521248 -1.4300001
8.2538338 -4.2568336 -1.4293334
8.3587141 -4.2544289 -1.4292856
8.4616671 -4.2588339 -1.427
8.5482502 -4.2405 -1.43025
8.6260004 -4.2418337 -1.4285001
8.7344294 -4.2480001 -1.4234287
8.8466673 -4.283 -1.4256667
8.9669991 -4.2449999 -1.40825
9.1149998 -4.276 -1.4069999
9.3554001 -4.2504001 -1.4176
9.4317503 -4.2550001 -1.409
9.5556669 -4.2806668 -1.4073334
9.6786671 -4.2686667 -1.4033334
9.7080002 -4.2680001 -1.4069999
9.8129997 -4.2740002 -1.401
-6.2609997 -4.1072502 -1.4532501
-5.0339999 -4.112 -1.4910001
-4.9784999 -4.1094999 -1.4985
-4.7480001 -4.1105003 -1.4979999
-4.6492496 -4.1187506 -1.49775
-4.5514998 -4.11975 -1.49825
-4.4543333 -4.1262221 -1.4992223
-4.0025554 -4.1686668 -1.4481112
-3.971329 -4.1434183 -1.4549104
-3.8482502 -4.1488218 -1.4775002
-3.7551618 -4.1517568 -1.4781622
-3.6509998 -4.1463056 -1.4765832
-3.5531712 -4.1445718 -1.4770858
-3.4518461 -4.1465902 -1.4756156
-3.3540263 -4.1441317 -1.4754474
-3.2717998 -4.1191001 -1.4628
-3.0179563 -4.136652 -1.4728698
-2.9557469 -4.1423726 -1.4679735
-2.8484924 -4.1412234 -1.4774327
-2.7501667 -4.1409082 -1.476621
-2.648562 -4.1423287 -1.476
-2.5480416 -4.1416249 -1.4759719
-2.4513564 -4.1463971 -1.4763973
-2.3504932 -4.1448607 -1.4757597
-2.2499881 -4.1452708 -1.4748238
-2.1502168 -4.1461806 -1.4747109
-2.0757651 -4.1365595 -1.4740883
0.524625 -4.1251874 -1.4548125
0.83350003 -4.1224999 -1.4905
0.93800002 -4.1205001 -1.4809999
1.035 -4.1900001 -1.5
1.191 -4.105 -1.494
1.2513335 -4.1196666 -1.4996667
3.4844999 -4.1245003 -1.4974999
3.5507879 -4.1492729 -1.4943638
3.6495459 -4.148788 -1.4910609
3.7496364 -4.1531205 -1.4866366
3.8510687 -4.1514826 -1.4839312
3.946852 -4.1522965 -1.4818888
4.0488334 -4.1526003 -1.4784999
4.1448464 -4.1468077 -1.475692
5.145474 -4.1483684 -1.4568419
5.2444377 -4.1545625 -1.4561876
5.3491054 -4.1545792 -1.4540526
5.4539342 -4.1490002 -1.4533335
5.5461879 -4.1467505 -1.4505
5.6479998 -4.1493082 -1.4486153
5.7366667 -4.1429167 -1.4448333
5.8485003 -4.1539288 -1.4440715
5.9444289 -4.1564288 -1.4422858
6.0495291 -4.1579409 -1.447
6.1506243 -4.1512504 -1.447125
6.2500587 -4.151412 -1.4473528
6.3448749 -4.1488132 -1.4468126
6.4481544 -4.1532311 -1.4458462
6.5518003 -4.1572666 -1.4454
6.652 -4.1422668 -1.4446667
6.7596374 -4.1560912 -1.4425457
6.8435001 -4.1571665 -1.4395001
6.948637 -4.1478186 -1.4408182
7.0307498 -4.1785002 -1.4375
7.6920004 -4.1215 -1.436
7.7639999 -4.14675 -1.4367499
7.8596678 -4.1581669 -1.437
7.9531665 -4.1451669 -1.4360001
8.052 -4.152667 -1.4346666
