# .PCD v0.7 - Point Cloud Data file format
VERSION 0.7
FIELDS x y z
SIZE 4 4 4
TYPE F F F
COUNT 1 1 1
WIDTH 1549
HEIGHT 1
VIEWPOINT 0 0 0 1 0 0 0
POINTS 1549
DATA ascii
15.751021 -8.54953 -1.2598367
15.852158 -8.5479412 -1.2574314
15.949443 -8.5515566 -1.2557777
16.047926 -8.5511122 -1.2520185
16.14817 -8.5499992 -1.2483621
16.249826 -8.5518742 -1.2431744
16.34952 -8.5494051 -1.2392751
16.450174 -8.5488119 -1.2350147
16.549047 -8.5507727 -1.2309874
16.649664 -8.5519171 -1.226709
16.748783 -8.5486498 -1.224045
16.850336 -8.5518904 -1.2198123
16.94842 -8.5492878 -1.2175835
17.047621 -8.5493231 -1.2162896
17.149363 -8.5516825 -1.2129604
17.249979 -8.5516262 -1.2102103
17.346972 -8.5495501 -1.2080274
17.450283 -8.5491734 -1.2048569
17.546164 -8.5523539 -1.2045002
17.645096 -8.5511694 -1.204049
17.745827 -8.5484362 -1.203182
17.845695 -8.5479307 -1.2037886
17.945631 -8.5466137 -1.2031225
18.052931 -8.5440807 -1.2035981
18.151667 -8.5498505 -1.2047305
18.244619 -8.5520935 -1.2053145
22.29562 -8.5390472 -1.233095
22.349998 -8.5503473 -1.2388786
22.449688 -8.5495205 -1.2432263
22.549416 -8.5517044 -1.2465813
22.648817 -8.5503674 -1.2501992
22.74873 -8.5507021 -1.2559377
22.848894 -8.5512676 -1.2617625
22.949402 -8.5501356 -1.2669901
23.044729 -8.5513916 -1.2610328
23.149551 -8.5503206 -1.2537318
23.245861 -8.5526962 -1.2430522
23.349756 -8.5486784 -1.2401671
23.448301 -8.5504255 -1.2355683
23.549377 -8.5513353 -1.2292798
23.649345 -8.550312 -1.2226595
23.748812 -8.5506945 -1.2172031
23.847256 -8.5489464 -1.2124999
23.949778 -8.5503311 -1.2084899
24.047499 -8.5455532 -1.204962
24.144775 -8.5427561 -1.204453
24.240128 -8.5361948 -1.2033548
24.33675 -8.5240822 -1.2026666
24.420502 -8.5200005 -1.2019999
-10.251499 -8.4705 -1.2344999
-6.2800002 -8.408 -1.274
4.2649999 -8.4650002 -1.298
4.5700002 -8.4969997 -1.2920001
4.8080001 -8.5 -1.293
5.8930001 -8.4630003 -1.3
5.908 -8.4879999 -1.298
6.1104999 -8.4537506 -1.2987499
6.3342505 -8.4572506 -1.296
6.5469999 -8.4607496 -1.294
6.7664003 -8.4527998 -1.2902001
6.9846668 -8.4330006 -1.2863333
7.013 -8.4799995 -1.2819999
7.1815004 -8.4365005 -1.2845
7.2069998 -8.4605007 -1.2804999
7.3744998 -8.4517498 -1.28175
7.5640001 -8.4552498 -1.2787499
7.7318001 -8.4471998 -1.2788
7.8815002 -8.4279995 -1.281
7.9040003 -8.4650002 -1.277
8.0556002 -8.4536009 -1.2780001
8.1859999 -8.4130001 -1.2819999
8.2089996 -8.4672499 -1.2779999
8.3567495 -8.4487495 -1.2785001
8.4880009 -8.448 -1.2806667
8.5050001 -8.4619999 -1.278
8.6384001 -8.4442005 -1.2792
8.7807999 -8.4471998 -1.2792
8.9289999 -8.450201 -1.2772
9.0661993 -8.4530001 -1.2766
9.1890001 -8.4557495 -1.27775
9.2110004 -8.4560003 -1.274
9.3321667 -8.4490013 -1.2751667
9.4580002 -8.4518337 -1.2750001
9.5896006 -8.4454002 -1.2734002
9.7114 -8.4482002 -1.2728
9.8298006 -8.4507999 -1.2724
9.9449997 -8.4533997 -1.2724
10.054167 -8.4470005 -1.2725
10.162333 -8.4495001 -1.2728333
10.269333 -8.4519997 -1.2726667
10.366167 -8.4545002 -1.2738334
10.463834 -8.456501 -1.275
10.5532 -8.4504004 -1.277
10.641167 -8.4440012 -1.279
10.737333 -8.4465008 -1.279
10.833 -8.4488335 -1.279
10.926833 -8.451334 -1.2790002
11.03225 -8.4561253 -1.28025
11.156364 -8.4505463 -1.2802728
11.269286 -8.4520006 -1.2811428
11.351501 -8.4463329 -1.2820001
11.438334 -8.4486666 -1.2815001
11.520332 -8.4510002 -1.2813333
11.648769 -8.4504614 -1.2802308
11.77543 -8.4505711 -1.2778572
11.847286 -8.4524288 -1.2787144
11.944901 -8.4492006 -1.2787001
12.056001 -8.4497004 -1.2769001
12.149 -8.4465714 -1.277143
12.246113 -8.4495554 -1.2745557
12.351001 -8.4524174 -1.2719167
12.452889 -8.44489 -1.272
12.549202 -8.4540005 -1.2711999
12.647728 -8.4502726 -1.2752727
12.733199 -8.4481001 -1.2747
12.845707 -8.4458237 -1.275353
12.960714 -8.4571438 -1.2744999
13.052084 -8.4469166 -1.2755834
13.151214 -8.4495001 -1.272643
13.257416 -8.4497509 -1.2693332
13.342455 -8.4541826 -1.2654545
13.450883 -8.4519997 -1.2620002
13.560312 -8.4499378 -1.25875
13.648223 -8.4506674 -1.2546667
13.74037 -8.4499483 -1.2518948
13.850454 -8.4522724 -1.2509091
13.954143 -8.4502373 -1.2515714
14.047549 -8.4485006 -1.2539002
14.148002 -8.4509125 -1.2546086
14.25029 -8.4514589 -1.2544999
14.349383 -8.4516926 -1.2559617
14.448828 -8.4492178 -1.2566522
14.546276 -8.4506207 -1.2565172
14.646824 -8.4498577 -1.2578572
14.746643 -8.4546432 -1.2581786
14.850307 -8.4481668 -1.2578331
14.953353 -8.4484186 -1.2587095
15.048845 -8.4487581 -1.2581818
15.148177 -8.4501495 -1.26
15.249545 -8.4481707 -1.259743
15.343328 -8.4529257 -1.25995
15.450326 -8.4471092 -1.2588912
15.554876 -8.4519176 -1.259125
15.653093 -8.4509325 -1.2589319
15.750122 -8.4508181 -1.258245
15.849409 -8.4511309 -1.2569076
15.950016 -8.4480686 -1.2564313
16.048128 -8.4508419 -1.2572856
16.152594 -8.4506292 -1.2540965
16.252275 -8.4497242 -1.2508065
16.352095 -8.4500313 -1.2459242
16.447001 -8.4502773 -1.2436388
16.547789 -8.4480772 -1.2394543
16.650967 -8.4519997 -1.2346438
16.75 -8.4505796 -1.2315342
16.848909 -8.4499178 -1.2271246
16.949488 -8.4496708 -1.224113
17.051529 -8.4499474 -1.2218187
17.149311 -8.4517736 -1.2187481
17.247931 -8.4500141 -1.2170829
17.348598 -8.4493113 -1.2150817
17.451157 -8.4481268 -1.2101347
17.548969 -8.4498148 -1.208393
17.647964 -8.4494762 -1.2065749
17.751135 -8.4477243 -1.2053314
17.848415 -8.4446135 -1.2054175
17.946655 -8.44625 -1.2055831
18.051401 -8.4424601 -1.2069575
18.152357 -8.4481049 -1.2072356
18.248909 -8.4514036 -1.2062191
18.301334 -8.4173336 -1.2033334
22.28948 -8.4401274 -1.2331126
22.347609 -8.4516449 -1.2371771
22.44803 -8.4504852 -1.2403936
22.54845 -8.4508781 -1.2427877
22.648632 -8.4514341 -1.2460713
22.749479 -8.4508533 -1.2507157
22.848925 -8.4502087 -1.2548401
22.947123 -8.4517183 -1.2588023
23.048857 -8.450779 -1.2608994
23.148628 -8.4502592 -1.2565321
23.248726 -8.4509239 -1.2517964
23.348299 -8.4496975 -1.2468715
23.449371 -8.4499798 -1.2410772
23.54948 -8.4521418 -1.2367684
23.649103 -8.4497709 -1.2309072
23.752274 -8.450675 -1.2248861
23.850653 -8.4519091 -1.2194865
23.948486 -8.4500399 -1.2142209
24.048075 -8.4495001 -1.2100528
24.147968 -8.450964 -1.2067834
24.246386 -8.4503603 -1.204827
24.349092 -8.4484291 -1.2032381
24.446592 -8.4474068 -1.2027407
24.534386 -8.4360771 -1.2017694
24.626499 -8.4355001 -1.2019999
24.762001 -8.4309998 -1.2014999
-18.216 -8.3459997 -1.235
-6.2870002 -8.3620005 -1.275
5.9130001 -8.3360004 -1.3
6.1186671 -8.3493338 -1.2993333
6.3433332 -8.3549995 -1.2966667
6.5494995 -8.3517494 -1.29575
6.7746668 -8.3413343 -1.2913334
6.9630003 -8.3540001 -1.2906667
7.0100002 -8.3389997 -1.285
7.1752501 -8.3555002 -1.2865
7.3462 -8.3481998 -1.2874
7.4660001 -8.3520002 -1.294
7.5290003 -8.3527498 -1.2852501
7.6809998 -8.3239994 -1.288
7.7210002 -8.3800001 -1.281
7.8622499 -8.35075 -1.28475
8.0302 -8.3445997 -1.2833999
8.1735001 -8.3594999 -1.2845
8.2270002 -8.3447504 -1.28275
8.3520002 -8.3535004 -1.2804999
8.493 -8.3575001 -1.2815
8.6464996 -8.3362494 -1.2802501
8.7674999 -8.3354998 -1.2835
8.8043327 -8.3530006 -1.2773333
8.9287996 -8.3498001 -1.2792001
9.0531998 -8.3536005 -1.2804
9.2138329 -8.3486671 -1.2756667
9.3380003 -8.3430014 -1.2764
9.4709997 -8.3472004 -1.2748001
9.5912008 -8.3509998 -1.275
9.6949997 -8.3920002 -1.277
9.72225 -8.3457499 -1.273
9.8303337 -8.3491669 -1.2743332
9.947834 -8.3531666 -1.2735001
10.056 -8.3478003 -1.2744001
10.167601 -8.3518009 -1.2737999
10.2695 -8.3461676 -1.2746667
10.367167 -8.3496666 -1.276
10.467334 -8.3528328 -1.2761667
10.558333 -8.3561668 -1.2778333
10.6452 -8.3506002 -1.2802
10.744667 -8.3460007 -1.2798334
10.843 -8.3493338 -1.2793335
10.933666 -8.3526669 -1.2795
11.027143 -8.3545723 -1.2814287
11.145166 -8.3480835 -1.2821666
11.273001 -8.3486671 -1.2828333
11.361834 -8.3521671 -1.2820001
11.445001 -8.3475714 -1.282143
11.533144 -8.3508568 -1.2808571
11.632556 -8.3599997 -1.2804445
11.754001 -8.3457012 -1.2781
11.86125 -8.3429995 -1.2763751
11.954626 -8.3580008 -1.276
12.039144 -8.353714 -1.2741429
12.149545 -8.3405466 -1.2711819
12.251 -8.3516665 -1.2689999
12.344749 -8.355875 -1.2687502
12.447072 -8.3465729 -1.2668571
12.557787 -8.3494997 -1.2711428
12.651112 -8.3520002 -1.2747778
12.744929 -8.3510008 -1.2725714
12.856833 -8.3537493 -1.2725
12.954166 -8.3452492 -1.2718334
13.046786 -8.3508577 -1.2712858
13.156401 -8.3498678 -1.2706001
13.258539 -8.3536167 -1.2690001
13.347714 -8.349144 -1.2676429
13.444374 -8.3470631 -1.2658125
13.557353 -8.349 -1.2632942
13.661334 -8.3491335 -1.2604668
13.760499 -8.3435011 -1.2564286
13.846941 -8.3535299 -1.2549411
13.947857 -8.3508091 -1.253762
14.051229 -8.3521357 -1.2539092
14.14565 -8.3537006 -1.2555999
14.247193 -8.3489227 -1.2544616
14.349957 -8.3533049 -1.2556522
14.449347 -8.3477306 -1.2545003
14.55107 -8.354001 -1.2569333
14.654001 -8.3505554 -1.2563704
14.747288 -8.347928 -1.2571071
14.851888 -8.3504448 -1.2568889
14.954001 -8.3513947 -1.2584546
15.056714 -8.3495131 -1.2582285
15.151573 -8.3523426 -1.2592001
15.247927 -8.3526907 -1.2612619
15.353788 -8.3486738 -1.2613256
15.451452 -8.3482628 -1.2617857
15.548959 -8.3514881 -1.2614
15.648891 -8.3489981 -1.260553
15.74804 -8.3492384 -1.2592797
15.848637 -8.3488712 -1.2590359
15.950802 -8.3520365 -1.2569089
16.049549 -8.3514509 -1.2562834
16.146622 -8.3510695 -1.2546377
16.246462 -8.3488503 -1.2514029
16.351282 -8.3507586 -1.2486271
16.451628 -8.3494587 -1.2455573
16.551708 -8.3500881 -1.2415183
16.650949 -8.351428 -1.2383807
16.748558 -8.3506117 -1.2363013
16.851471 -8.3483829 -1.2322531
16.952446 -8.3489914 -1.2297333
17.052691 -8.3512783 -1.225964
17.14876 -8.3501883 -1.2229673
17.249727 -8.348527 -1.2199374
17.350258 -8.3501844 -1.2174317
17.451681 -8.3509989 -1.2130185
17.550499 -8.3502016 -1.2098857
17.648062 -8.3489714 -1.2088597
17.746231 -8.3480473 -1.2071327
17.847216 -8.3475609 -1.20655
17.948185 -8.3436565 -1.2060789
18.049444 -8.346632 -1.2056224
18.14916 -8.3449173 -1.2062362
18.250416 -8.3460741 -1.2059993
18.307264 -8.3429489 -1.2059474
22.280912 -8.3455057 -1.2329999
22.348238 -8.3512783 -1.2357887
22.448702 -8.3515425 -1.2381892
22.549465 -8.3504133 -1.2413998
22.648495 -8.3512039 -1.2448781
22.749716 -8.350297 -1.2499588
22.84915 -8.3512936 -1.2536352
22.946785 -8.3507919 -1.2576895
23.047987 -8.3497753 -1.2595942
23.147806 -8.3511333 -1.2559947
23.247412 -8.3507051 -1.2523186
23.34807 -8.3497429 -1.2479331
23.447464 -8.3505249 -1.2427466
23.547707 -8.3519659 -1.2381057
23.647432 -8.3502884 -1.232088
23.749521 -8.3508673 -1.2268534
23.849367 -8.3501272 -1.221243
23.949253 -8.3518295 -1.2166097
24.047392 -8.3503189 -1.2107139
24.145115 -8.3502407 -1.206506
24.245169 -8.3520699 -1.2043662
24.344896 -8.3586044 -1.2038158
24.449528 -8.3646317 -1.2026842
24.550751 -8.3504992 -1.202
24.718 -8.3669996 -1.201
24.82 -8.3909998 -1.202
-14.805 -8.2550001 -1.211
-14.792 -8.2559996 -1.272
-11.3175 -8.2434998 -1.2409999
6.3240004 -8.2845001 -1.3
6.5415001 -8.2665005 -1.2980001
6.7452502 -8.2489996 -1.2967501
6.9447498 -8.25525 -1.2945
7.1368003 -8.250001 -1.2936
7.3232503 -8.2449999 -1.2920001
7.4903336 -8.262001 -1.2923334
7.5 -8.2180004 -1.2920001
7.6725998 -8.2462006 -1.2906001
7.8471999 -8.2517996 -1.2886
8.0162506 -8.2472496 -1.2875
8.18575 -8.2530003 -1.285
8.3402004 -8.2482004 -1.2846
8.4916668 -8.2466669 -1.2836667
8.5109997 -8.2649994 -1.2804999
8.6450005 -8.2492504 -1.2822499
8.7790003 -8.2135 -1.2839999
8.8056669 -8.265667 -1.279
8.9518003 -8.2504005 -1.2778
9.0726662 -8.2420006 -1.2793334
9.1477499 -8.2585001 -1.2777499
9.2066669 -8.2410002 -1.279
9.3396006 -8.2466002 -1.2780001
9.4656 -8.2515993 -1.2776
9.5752497 -8.2605 -1.2795
9.6573334 -8.2466679 -1.2796667
9.7189999 -8.2522497 -1.2757499
9.8452005 -8.2482004 -1.274
9.96 -8.2530003 -1.2736
10.063501 -8.2484999 -1.2750001
10.1785 -8.2531672 -1.274
10.2844 -8.2492008 -1.274
10.385 -8.2275 -1.2755001
10.460143 -8.2544289 -1.2744286
10.566429 -8.2568579 -1.2762858
10.668501 -8.2574997 -1.2781667
10.756332 -8.2448339 -1.2798333
10.848167 -8.2491674 -1.2801666
10.935833 -8.253334 -1.2811668
11.031375 -8.2498751 -1.2828749
11.141889 -8.2444448 -1.2843333
11.249625 -8.2542496 -1.285375
11.354571 -8.2495718 -1.2857144
11.4495 -8.2466669 -1.2836666
11.539167 -8.2511673 -1.2820001
11.637499 -8.2502499 -1.280375
11.733 -8.256875 -1.27925
11.8544 -8.2418013 -1.276
11.956625 -8.2502499 -1.2746251
12.048287 -8.2551432 -1.2722858
12.143888 -8.2456675 -1.2712221
12.255335 -8.251833 -1.2676667
12.355876 -8.2504997 -1.267375
12.459001 -8.2493572 -1.2667859
12.562467 -8.2515326 -1.2732667
12.642667 -8.2493334 -1.2777778
12.749643 -8.2506428 -1.2742143
12.839778 -8.2462225 -1.2750001
12.939439 -8.2564373 -1.273375
13.052715 -8.2502155 -1.2727857
13.160501 -8.2498579 -1.2717857
13.256386 -8.2527704 -1.2703848
13.345695 -8.2507687 -1.2686923
13.447187 -8.2512493 -1.2679374
13.556058 -8.2493525 -1.2658236
13.662118 -8.2480001 -1.2654704
13.762646 -8.2532358 -1.2620001
13.865071 -8.2517853 -1.2597859
13.956286 -8.251523 -1.2580951
14.058389 -8.2517776 -1.2567778
14.150209 -8.253211 -1.2560527
14.251999 -8.2506084 -1.2567501
14.352212 -8.2493162 -1.2572629
14.446593 -8.2521105 -1.2569259
14.552357 -8.2531071 -1.2577499
14.65225 -8.2520008 -1.2585713
14.750518 -8.2511387 -1.2587585
14.851312 -8.2469063 -1.2591562
14.947313 -8.251812 -1.2601874
15.050138 -8.2502518 -1.2598609
15.151909 -8.2499399 -1.2590909
15.247843 -8.2519732 -1.2589474
15.3465 -8.2495832 -1.2578887
15.446813 -8.2513027 -1.2568371
15.55032 -8.2510414 -1.2562978
15.652083 -8.2492733 -1.2567501
15.748681 -8.2501698 -1.2562128
15.849037 -8.2517338 -1.2549999
15.951218 -8.2484655 -1.2550669
16.05591 -8.2492695 -1.2552836
16.148912 -8.2498283 -1.2566036
16.249283 -8.2508068 -1.2533431
16.350471 -8.2497654 -1.2504117
16.451672 -8.2480917 -1.2469484
16.552469 -8.2521629 -1.2425065
16.648592 -8.2502441 -1.2396704
16.749233 -8.2511501 -1.2363615
16.851767 -8.2503443 -1.2322503
16.951389 -8.2505579 -1.229411
17.049868 -8.2496128 -1.2260809
17.149788 -8.2507954 -1.2226992
17.250263 -8.249795 -1.2197574
17.349987 -8.2492027 -1.2172517
17.448692 -8.250618 -1.2149932
17.550184 -8.2504473 -1.2125347
17.650703 -8.24963 -1.2112802
17.750565 -8.2515011 -1.2093605
17.850399 -8.2538023 -1.2085096
17.950079 -8.2534637 -1.2073019
18.050604 -8.2516823 -1.205928
18.150957 -8.2509766 -1.2065623
18.250652 -8.2502251 -1.2074788
18.317589 -8.2440195 -1.2069196
22.269548 -8.2470455 -1.2329477
22.348381 -8.2518044 -1.2351228
22.449877 -8.2508307 -1.2389539
22.548981 -8.2502375 -1.2421285
22.64887 -8.2500038 -1.2459817
22.748684 -8.2507467 -1.2506776
22.847391 -8.2510891 -1.2549999
22.949213 -8.2497711 -1.2624677
23.049204 -8.2503529 -1.2654138
23.147205 -8.2502584 -1.2609843
23.246664 -8.2495556 -1.2565939
23.34903 -8.2494812 -1.2523478
23.448153 -8.2500772 -1.2472093
23.548019 -8.2508249 -1.2412866
23.648062 -8.2483168 -1.2357162
23.749676 -8.2515945 -1.230865
23.850937 -8.249568 -1.226284
23.950663 -8.250289 -1.2202364
24.046923 -8.2503138 -1.2134243
24.147009 -8.2502375 -1.2098877
24.248167 -8.2455492 -1.2077249
24.34605 -8.2383566 -1.2075715
24.447342 -8.243926 -1.206634
24.543001 -8.2417507 -1.2063572
24.647905 -8.2341423 -1.205857
24.741753 -8.2461672 -1.2089167
24.85075 -8.258625 -1.2101251
24.945501 -8.258667 -1.2113334
25.056669 -8.2618332 -1.2106667
25.144001 -8.2545004 -1.209625
25.226202 -8.2638006 -1.2068001
-11.306334 -8.1703339 -1.251
-11.293 -8.1330004 -1.214
6.7356672 -8.165 -1.2996666
6.9295998 -8.1490002 -1.299
7.1219997 -8.1447496 -1.2975
7.3142505 -8.1529999 -1.2950001
7.4879999 -8.1486006 -1.295
7.6654997 -8.1450005 -1.2934999
7.83425 -8.1522503 -1.29275
7.9949999 -8.1479998 -1.2920001
8.0072498 -8.1490002 -1.2902501
8.1652012 -8.1560011 -1.29
8.3195009 -8.1520004 -1.28975
8.4707994 -8.1486006 -1.2888001
8.6280003 -8.1557999 -1.2868
8.7746 -8.1423998 -1.2859999
8.9285994 -8.1496 -1.2832001
9.0804005 -8.1568003 -1.2803999
9.1925001 -8.1377497 -1.2835
9.2049999 -8.1630001 -1.281
9.3388004 -8.1500006 -1.2802
9.4505997 -8.1554003 -1.2819999
9.5848331 -8.1528339 -1.2803334
9.6890001 -8.1300001 -1.2835
9.7070007 -8.1620007 -1.2793334
9.8226662 -8.1463337 -1.2800001
9.9466667 -8.1530008 -1.278
10.056 -8.1498003 -1.2786
10.1705 -8.1470003 -1.2778333
10.275001 -8.1525002 -1.2781668
10.379799 -8.1496 -1.2780001
10.485168 -8.1468334 -1.2776668
10.573 -8.1516666 -1.28
10.658834 -8.1566677 -1.2820001
10.761833 -8.1456671 -1.2815001
10.8475 -8.1506672 -1.283
10.9305 -8.1553326 -1.2848333
11.039779 -8.149889 -1.287111
11.157888 -8.1481113 -1.2874444
11.268429 -8.151 -1.2884288
11.356334 -8.1486673 -1.2878333
11.4495 -8.154501 -1.2860001
11.542715 -8.1521435 -1.284
11.63643 -8.1491432 -1.284
11.748818 -8.1459093 -1.2820909
11.859715 -8.1547146 -1.2790002
11.958625 -8.1521244 -1.2767501
12.045286 -8.1541433 -1.2758573
12.147 -8.1425457 -1.2755455
12.2528 -8.1575994 -1.2727001
12.348751 -8.1494999 -1.273375
12.455231 -8.1510773 -1.2709999
12.566923 -8.1515398 -1.2729999
12.64082 -8.1584549 -1.2792728
12.751463 -8.1440001 -1.2764616
12.854701 -8.1545 -1.2756999
12.9455 -8.1500006 -1.273643
13.053909 -8.1572733 -1.2711821
13.141999 -8.14643 -1.2692144
13.247562 -8.1516886 -1.2681876
13.356601 -8.1547995 -1.2666001
13.453313 -8.1515617 -1.2658125
13.553 -8.1538668 -1.2630666
13.649058 -8.1500587 -1.2618823
13.751048 -8.1484756 -1.2624286
13.849001 -8.1551104 -1.2623335
13.947157 -8.1498423 -1.2607368
14.052292 -8.1486664 -1.2603333
14.150699 -8.1538 -1.2605499
14.252924 -8.148654 -1.2605002
14.354001 -8.1492176 -1.2614783
14.451074 -8.1526299 -1.2616296
14.55611 -8.1494818 -1.2612593
14.651039 -8.1500378 -1.262
14.742276 -8.1481724 -1.2631381
14.84688 -8.1500006 -1.2633636
14.9512 -8.1481161 -1.2648572
15.053767 -8.1496477 -1.2649999
15.153948 -8.1519184 -1.2656485
15.249029 -8.1475143 -1.2669429
15.349149 -8.1503744 -1.2650251
15.447497 -8.147975 -1.265725
15.547697 -8.1499071 -1.2639768
15.650021 -8.153533 -1.2624222
15.752023 -8.149806 -1.2621566
15.851274 -8.1489239 -1.2623653
15.951258 -8.1483917 -1.2610196
16.050144 -8.1505966 -1.2591931
16.149185 -8.1495667 -1.2573835
16.249968 -8.1508923 -1.2544528
16.350288 -8.1513081 -1.2508154
16.448143 -8.1486292 -1.2485145
16.550608 -8.151515 -1.2435948
16.648464 -8.149292 -1.2405728
16.750851 -8.1522655 -1.2375998
16.851667 -8.1515484 -1.2347423
16.949778 -8.1500883 -1.2320101
17.047884 -8.1500883 -1.2294688
17.152098 -8.1507483 -1.2251933
17.253609 -8.1515846 -1.2216309
17.352165 -8.1515388 -1.2188677
17.450399 -8.1525631 -1.2156646
17.549656 -8.1514912 -1.2131479
17.650982 -8.1508808 -1.2112329
17.752056 -8.1510754 -1.2105044
17.85096 -8.152482 -1.2106497
17.950558 -8.1529074 -1.2100779
18.05076 -8.1509047 -1.2097499
18.149452 -8.1511211 -1.2101057
18.250654 -8.1502829 -1.2104315
18.329556 -8.1438332 -1.2110238
22.198 -8.1020002 -1.228
22.256002 -8.1481667 -1.2332431
22.348236 -8.1511164 -1.2355893
22.448456 -8.1507273 -1.2388206
22.548681 -8.1509295 -1.24217
22.647161 -8.1515741 -1.2458402
22.746965 -8.1506872 -1.2508351
22.846878 -8.1504612 -1.2557877
22.947838 -8.1508598 -1.2640678
23.048487 -8.150629 -1.2660332
23.149311 -8.1504602 -1.2618915
23.246675 -8.1495361 -1.2560909
23.348843 -8.1501026 -1.2522826
23.449333 -8.1509371 -1.2464132
23.548237 -8.1485548 -1.2420388
23.64587 -8.1499023 -1.2373205
23.746805 -8.1516247 -1.232188
23.847668 -8.1491232 -1.2268333
23.94899 -8.1505384 -1.222029
24.0481 -8.1493626 -1.2154641
24.14756 -8.1507034 -1.211262
24.24946 -8.1498289 -1.2102631
24.34746 -8.1518431 -1.208357
24.446592 -8.147747 -1.2074606
24.542765 -8.1469994 -1.2060003
24.644962 -8.1459579 -1.2047915
24.752819 -8.1386814 -1.2043638
24.85355 -8.1388712 -1.2030644
24.947315 -8.127368 -1.2026315
25.046183 -8.1235456 -1.202909
25.1325 -8.1359997 -1.201
25.230499 -8.1285 -1.201
-11.298 -8.0769997 -1.2425001
6.9499998 -8.0675001 -1.2980001
7.1455002 -8.0532494 -1.29625
7.3339996 -8.0511999 -1.2946
7.494 -8.0819998 -1.296
7.5093336 -8.0373335 -1.2943333
7.6564999 -8.0562506 -1.2965
7.723 -8.0050001 -1.289
7.8492503 -8.06075 -1.2925
7.9890003 -8.0615005 -1.2950001
8.0363331 -8.0289993 -1.289
8.1707497 -8.0605001 -1.29125
8.2119999 -8.0109997 -1.2869999
8.3322001 -8.0587997 -1.2898
8.4440002 -8.0645008 -1.2945
8.5326672 -8.0353336 -1.2823334
8.6290007 -8.074667 -1.2886667
8.7456665 -8.0470009 -1.2786667
8.8425007 -8.0360003 -1.2785001
8.9492493 -8.0567493 -1.2822499
9.0750008 -8.0491667 -1.28
9.1549997 -8.0345001 -1.2815
9.2089996 -8.0524998 -1.283
9.3304005 -8.0542011 -1.2836
9.4608345 -8.0524998 -1.2828335
9.5886002 -8.0503998 -1.2818
9.7098341 -8.0488338 -1.2818334
9.8313999 -8.0469999 -1.2808001
9.9438 -8.0537996 -1.2811999
10.069167 -8.0525007 -1.2788334
10.175601 -8.0502005 -1.2794001
10.269501 -8.0473337 -1.2816668
10.382833 -8.0548344 -1.28
10.479601 -8.0524006 -1.2814001
10.565001 -8.0494995 -1.2838334
10.661334 -8.0558338 -1.2843333
10.755167 -8.045167 -1.2878333
10.846001 -8.0513344 -1.2886667
10.950375 -8.0461245 -1.2902499
11.058857 -8.0507154 -1.2902857
11.162667 -8.0577784 -1.2907778
11.2702 -8.0502005 -1.291
11.3556 -8.056201 -1.2906001
11.441144 -8.0528584 -1.2902857
11.532167 -8.0518341 -1.289
11.637 -8.0517778 -1.2877778
11.745999 -8.0427151 -1.2852857
11.855501 -8.0560007 -1.2823
11.969144 -8.0470009 -1.2795714
12.048876 -8.0529995 -1.280125
12.147901 -8.052 -1.2786001
12.257455 -8.0484552 -1.2768183
12.353715 -8.0484295 -1.2758572
12.451384 -8.0552311 -1.2747693
12.565616 -8.0486164 -1.2755384
12.6525 -8.0537996 -1.2772
12.7515 -8.0591993 -1.2759999
12.848334 -8.0455837 -1.2724167
12.959002 -8.0562496 -1.2706666
13.047834 -8.046834 -1.26825
13.15793 -8.0538578 -1.2657144
13.246668 -8.0539169 -1.2654166
13.3422 -8.0463333 -1.2629333
13.445825 -8.049118 -1.2621176
13.556389 -8.0502768 -1.2607223
13.662002 -8.0543127 -1.258875
13.756 -8.0504379 -1.2585
13.851351 -8.0475988 -1.2579501
13.953631 -8.0514202 -1.2572632
14.0466 -8.0510015 -1.2571501
14.149799 -8.0515194 -1.25752
14.248199 -8.0497503 -1.2576002
14.351733 -8.050334 -1.2579
14.451999 -8.0511913 -1.2589047
14.547174 -8.049552 -1.2594136
14.652776 -8.0515156 -1.2602903
14.755138 -8.0524149 -1.261862
14.851125 -8.049345 -1.2634375
14.94816 -8.0516129 -1.263613
15.047659 -8.0494461 -1.2649474
15.148944 -8.0541086 -1.2663785
15.250002 -8.0479736 -1.2675898
15.352539 -8.0533571 -1.2666923
15.449046 -8.0487146 -1.2669762
15.550958 -8.0524216 -1.2665112
15.649169 -8.0502768 -1.266468
15.74783 -8.048852 -1.2657447
15.847596 -8.0522194 -1.2647799
15.948911 -8.0502224 -1.263352
16.047853 -8.0503073 -1.2625648
16.154318 -8.0494671 -1.2593
16.251345 -8.0486889 -1.2563937
16.349829 -8.0519133 -1.2534285
16.448475 -8.0501261 -1.2508888
16.548914 -8.0492792 -1.2468231
16.649193 -8.0520611 -1.2438693
16.750452 -8.0490742 -1.2410523
16.8538 -8.0500031 -1.237949
16.951384 -8.0501842 -1.2359028
17.050663 -8.050231 -1.2329915
17.150974 -8.0489759 -1.2297833
17.25025 -8.0517864 -1.2280225
17.349522 -8.0517368 -1.2259022
17.452278 -8.0509253 -1.2231324
17.551052 -8.0506668 -1.2214335
17.64963 -8.0500908 -1.2195137
17.74999 -8.0489101 -1.2175869
17.849159 -8.048954 -1.217077
17.949385 -8.0512791 -1.2161616
18.049311 -8.0493269 -1.2151144
18.15015 -8.0508699 -1.2148184
18.251577 -8.0499554 -1.2149209
18.343079 -8.0463171 -1.2160848
22.188728 -8.029747 -1.2348508
22.249413 -8.0507221 -1.2355914
22.349144 -8.0507812 -1.2381505
22.448429 -8.0512972 -1.241866
22.548048 -8.0522785 -1.2455418
22.649849 -8.05371 -1.2500089
22.748304 -8.0542164 -1.2534819
22.848366 -8.0526066 -1.258347
22.949278 -8.0505333 -1.2650174
23.048611 -8.0502281 -1.2659049
23.149633 -8.0513391 -1.2610272
23.248688 -8.0512123 -1.2559773
23.350279 -8.0499706 -1.2512262
23.449966 -8.0504265 -1.2467146
23.550499 -8.0504494 -1.241478
23.650486 -8.0514555 -1.2369827
23.747398 -8.0512075 -1.2317495
23.846817 -8.050127 -1.2264401
23.9473 -8.0508795 -1.2212869
24.048492 -8.0507669 -1.2167035
24.150307 -8.0515976 -1.2133213
24.247597 -8.0508194 -1.2112638
24.347927 -8.0489302 -1.211457
24.447041 -8.0501471 -1.2101765
24.545418 -8.0493841 -1.2086999
24.646999 -8.0513868 -1.2077099
24.74728 -8.0503206 -1.2060379
24.8459 -8.0467978 -1.2046939
24.947569 -8.0531197 -1.2041429
25.046278 -8.0507231 -1.2031723
25.146502 -8.0507145 -1.2014999
25.247717 -8.0594997 -1.2028573
-13.638 -7.94175 -1.25
6.7639999 -7.9759998 -1.3
6.9736667 -7.948667 -1.2969999
7.1675997 -7.9519997 -1.2954
7.3587499 -7.9517503 -1.2935001
7.5464005 -7.9512 -1.291
7.7260003 -7.9502501 -1.2892499
7.8839998 -7.9274998 -1.2905
7.903667 -7.9646673 -1.2873334
8.0514994 -7.9482498 -1.289
8.1835003 -7.9139996 -1.2925
8.2153339 -7.9689999 -1.2869999
8.365799 -7.9572001 -1.2874001
8.5298004 -7.9463997 -1.2848001
8.6696663 -7.948667 -1.2853334
8.7577496 -7.9407501 -1.28275
8.8616676 -7.9670005 -1.2773333
8.9646006 -7.9538002 -1.2822
9.0646667 -7.9210005 -1.2883334
9.1230011 -7.9706669 -1.2850001
9.2215004 -7.9464998 -1.2835
9.3435001 -7.9498339 -1.2845001
9.4673996 -7.9486003 -1.2844
9.573 -7.9749999 -1.286
9.6251431 -7.9460001 -1.2842858
9.7342491 -7.9527502 -1.28475
9.8357496 -7.94625 -1.28275
9.9458342 -7.954 -1.2833333
10.0532 -7.9530001 -1.2842
10.158834 -7.9514999 -1.2848333
10.263 -7.9502001 -1.2853999
10.368334 -7.949667 -1.2855
10.466667 -7.9566669 -1.286
10.554 -7.9463339 -1.2885001
10.644334 -7.9531665 -1.2901666
10.733001 -7.9431667 -1.2918334
10.819167 -7.9500003 -1.2935001
10.916334 -7.9576664 -1.2928333
11.045818 -7.9551826 -1.2935456
11.173429 -7.9418573 -1.2934287
11.269 -7.9533339 -1.2940001
11.365286 -7.9531431 -1.2918571
11.462667 -7.9535003 -1.2895
11.554572 -7.9531431 -1.2875714
11.647834 -7.9531665 -1.2851666
11.735858 -7.9532862 -1.2835716
11.848091 -7.9467268 -1.282182
11.961499 -7.9491 -1.2799001
12.052428 -7.9511433 -1.2807144
12.138834 -7.9518337 -1.2780001
12.250143 -7.9507151 -1.2770001
12.347 -7.951375 -1.27675
12.4446 -7.9519 -1.2749
12.550501 -7.949214 -1.2737859
12.642643 -7.9541435 -1.278643
12.743 -7.9533749 -1.2775
12.849801 -7.9536004 -1.2746668
12.952 -7.9477501 -1.2717501
13.043125 -7.9505625 -1.2708124
13.15877 -7.9545383 -1.2687693
13.244909 -7.9486365 -1.2662728
13.346375 -7.9507504 -1.265125
13.459188 -7.9506249 -1.2633125
13.566072 -7.9503574 -1.2614287
13.64893 -7.9461432 -1.2597144
13.740105 -7.952158 -1.259421
13.848299 -7.9517007 -1.25815
13.955273 -7.9484091 -1.2578182
14.058667 -7.9493332 -1.2574445
14.15352 -7.9536533 -1.2583914
14.252417 -7.947084 -1.2593334
14.348895 -7.9528418 -1.2597895
14.441822 -7.9502869 -1.2609643
14.555964 -7.9498615 -1.2611378
14.652779 -7.9539251 -1.2641852
14.749357 -7.9477148 -1.2640002
14.848873 -7.9492188 -1.2650625
14.952736 -7.9526162 -1.2658529
15.055763 -7.948648 -1.2664119
15.153854 -7.9502573 -1.267457
15.250178 -7.9533334 -1.2688462
15.348529 -7.9499745 -1.2695
15.452972 -7.9500251 -1.2672926
15.548203 -7.94907 -1.2679317
15.651106 -7.9511046 -1.2675316
15.753508 -7.948585 -1.2677169
15.851478 -7.9542904 -1.2671041
15.950573 -7.9502769 -1.2642221
16.046833 -7.9509807 -1.2613957
16.150806 -7.9504361 -1.2562257
16.250753 -7.9513111 -1.2536061
16.348709 -7.9522309 -1.2500923
16.450092 -7.9498806 -1.2471603
16.552197 -7.9497724 -1.2437869
16.65011 -7.9512987 -1.2402219
16.750244 -7.9506159 -1.2377028
16.850245 -7.9510016 -1.2346915
16.95046 -7.9524498 -1.2319304
17.04982 -7.9522324 -1.2296427
17.15029 -7.9522386 -1.2278421
17.250893 -7.9522009 -1.225522
17.349432 -7.9531727 -1.2234654
17.449682 -7.9521646 -1.2212437
17.550745 -7.9513083 -1.2197733
17.650805 -7.9512444 -1.2190627
17.750051 -7.9509602 -1.2189803
17.850235 -7.9516997 -1.2181362
17.9496 -7.9508061 -1.2180635
18.051256 -7.9509664 -1.2165257
18.150532 -7.9505639 -1.2168121
18.251556 -7.9493647 -1.2164514
18.349146 -7.9497423 -1.2183276
18.41601 -7.932744 -1.2149146
22.169308 -7.9451046 -1.2331111
22.248693 -7.9498267 -1.2367738
22.347527 -7.9513707 -1.2392553
22.449053 -7.9497952 -1.2439243
22.548994 -7.9512224 -1.2478551
22.650101 -7.9528985 -1.2547295
22.748711 -7.9517608 -1.2589749
22.84906 -7.9506903 -1.2656556
22.951773 -7.9509883 -1.2698692
23.050079 -7.9499946 -1.2653111
23.147692 -7.9496856 -1.2598324
23.249014 -7.9490795 -1.2549766
23.349474 -7.9504037 -1.2516286
23.449505 -7.9481378 -1.2473447
23.548416 -7.9495111 -1.2421137
23.651222 -7.9498367 -1.2382734
23.748335 -7.949007 -1.2326345
23.848473 -7.9517856 -1.2292684
23.949329 -7.9485803 -1.2252332
24.04987 -7.9488411 -1.2191484
24.150806 -7.9496531 -1.2161283
24.249315 -7.9472747 -1.2138745
24.348852 -7.951273 -1.2115753
24.449032 -7.9516058 -1.209909
24.549749 -7.950695 -1.2093221
24.649137 -7.9497004 -1.209167
24.748625 -7.9504132 -1.2083019
24.848608 -7.9547553 -1.2059511
24.947001 -7.9430447 -1.2065455
25.051052 -7.9432998 -1.2105502
25.142765 -7.9260001 -1.2190588
25.240274 -7.9343643 -1.2092727
7.1535001 -7.848 -1.2995
7.3382006 -7.8484001 -1.2988
7.5352502 -7.8499999 -1.29475
7.7087998 -7.8502007 -1.2942002
7.8839998 -7.8512497 -1.2925
8.0482006 -7.8516002 -1.2916
8.2185001 -7.8527498 -1.28925
8.3716002 -7.8526001 -1.2888
8.5222006 -7.8428001 -1.2886
8.6552 -7.8522005 -1.2900001
8.7822495 -7.8512502 -1.2919999
8.8570004 -7.8070002 -1.2819999
8.9368 -7.8527999 -1.289
9.0580006 -7.8519998 -1.29125
9.1545 -7.849 -1.2865
9.2127504 -7.8442497 -1.28775
9.3476009 -7.8446002 -1.2866
9.4757996 -7.8546004 -1.2856001
9.5906668 -7.850667 -1.2869999
9.6100006 -7.8365002 -1.2839999
9.7147999 -7.8539996 -1.2861999
9.8274994 -7.854001 -1.2868333
9.9532003 -7.8547997 -1.285
10.057333 -7.8545008 -1.2863334
10.1706 -7.8544002 -1.2855999
10.271501 -7.8540001 -1.2868333
10.375 -7.8450003 -1.2873334
10.481001 -7.8538332 -1.2863333
10.577167 -7.8450003 -1.2876667
10.658834 -7.8521667 -1.2905
10.752501 -7.8433332 -1.2916667
10.837334 -7.8508334 -1.2933334
10.928 -7.8507147 -1.294
11.021999 -7.8509998 -1.2936667
11.130333 -7.8492222 -1.294
11.254727 -7.8525462 -1.2938181
11.372333 -7.8513331 -1.2938333
11.466715 -7.8525715 -1.2918572
11.545001 -7.8523331 -1.2925
11.635859 -7.8531432 -1.2908572
11.736 -7.8478756 -1.289
11.843625 -7.8453751 -1.2870001
11.9483 -7.8509002 -1.2840999
12.05575 -7.8519998 -1.2856249
12.139999 -7.8496246 -1.283375
12.243909 -7.8537273 -1.2812726
12.3467 -7.8460999 -1.281
12.456401 -7.8546996 -1.2789
12.556601 -7.8422999 -1.2764
12.6607 -7.8590999 -1.2740999
12.751301 -7.8582993 -1.2723
12.839144 -7.8481426 -1.2700001
12.956073 -7.8530006 -1.2685714
13.04975 -7.8553329 -1.2686667
13.152312 -7.8475003 -1.2665
13.257915 -7.8513336 -1.2644167
13.343 -7.854785 -1.2635715
13.446177 -7.8490591 -1.2615883
13.548352 -7.8489418 -1.2605294
13.652235 -7.8492942 -1.2598825
13.751 -7.8507061 -1.2598234
13.846942 -7.8514118 -1.2595296
13.944763 -7.849762 -1.2604762
14.051231 -7.8470907 -1.2601819
14.147857 -7.8488574 -1.2617619
14.249961 -7.8512802 -1.2622001
14.34936 -7.8489194 -1.2637199
14.455427 -7.850286 -1.2647142
14.556137 -7.8470001 -1.2643635
14.645515 -7.8538055 -1.2659354
14.75176 -7.8442421 -1.266276
14.850467 -7.8527336 -1.2664332
14.94653 -7.8489685 -1.2680938
15.050886 -7.8533344 -1.2676111
15.151528 -7.8510518 -1.2687893
15.254449 -7.8531842 -1.2698158
15.350568 -7.8456759 -1.268757
15.451792 -7.8505101 -1.2675349
15.550416 -7.8518143 -1.2673723
15.649176 -7.8491168 -1.267923
15.750978 -7.8496804 -1.2666169
15.848639 -7.8495803 -1.26544
15.949209 -7.8511152 -1.2635577
16.046337 -7.8516245 -1.2623752
16.150354 -7.8491302 -1.2573518
16.249279 -7.8512969 -1.2542188
16.352383 -7.8493671 -1.2500443
16.451946 -7.8504725 -1.2466005
16.551529 -7.8490529 -1.2435528
16.650679 -7.8518991 -1.2402301
16.749653 -7.849381 -1.2368538
16.852289 -7.8517079 -1.2338992
16.950251 -7.8525987 -1.2312602
17.050629 -7.8513622 -1.2286206
17.149458 -7.8511229 -1.2274547
17.248926 -7.8509321 -1.2256445
17.349367 -7.8489451 -1.2238276
17.449278 -7.8515706 -1.221735
17.550034 -7.8504138 -1.2197429
17.649836 -7.8513269 -1.2189995
17.74958 -7.8499017 -1.2179328
17.850128 -7.8521457 -1.2178152
17.950397 -7.8501673 -1.2165037
18.050756 -7.8510275 -1.2159015
18.149588 -7.8502769 -1.2148073
18.249472 -7.8508296 -1.2151467
18.349369 -7.8494196 -1.2160164
18.43536 -7.8461051 -1.2155685
22.090433 -7.8188338 -1.2313665
22.151552 -7.8501401 -1.2337756
22.24868 -7.8496423 -1.2371827
22.348604 -7.851254 -1.2391491
22.449726 -7.8498449 -1.2424346
22.549824 -7.848774 -1.2465514
22.649612 -7.8510437 -1.2511549
22.748009 -7.8508382 -1.2547464
22.8477 -7.8516068 -1.26033
22.954351 -7.8512139 -1.2674118
23.048227 -7.8504028 -1.2605458
23.147598 -7.8504362 -1.2553734
23.248634 -7.8511004 -1.2499354
23.348309 -7.8507018 -1.2448666
23.448992 -7.8504748 -1.2412887
23.547848 -7.8497019 -1.2358423
23.647711 -7.850831 -1.232379
23.749029 -7.8496847 -1.2281983
23.849121 -7.8524861 -1.2244058
23.948042 -7.8493791 -1.2220118
24.048359 -7.8516254 -1.219687
24.150028 -7.8471003 -1.2181128
24.247963 -7.8498611 -1.2160416
24.353069 -7.850482 -1.2147734
24.45434 -7.8505244 -1.2132541
24.551388 -7.8522425 -1.2118708
24.653395 -7.8488536 -1.2108365
24.748985 -7.8496118 -1.2083519
24.849026 -7.8488259 -1.2062823
24.952293 -7.8460484 -1.2048781
25.050072 -7.8413091 -1.2035862
25.145958 -7.8396664 -1.2094076
25.25569 -7.8315625 -1.2029375
7.3695002 -7.7480001 -1.2970001
7.5419998 -7.7498002 -1.2966
7.7349997 -7.7532501 -1.29325
7.8864999 -7.7535 -1.2945
7.9123335 -7.7553329 -1.291
8.0635004 -7.7349997 -1.2925
8.151 -7.7519999 -1.2904999
8.2305002 -7.7690001 -1.28975
8.3700008 -7.7375002 -1.2920001
8.4534998 -7.7550001 -1.29
8.5323334 -7.7610006 -1.2893333
8.6594992 -7.7399998 -1.2922499
8.7495003 -7.7580004 -1.2885001
8.8293333 -7.7636671 -1.2873334
8.9592009 -7.7542 -1.2882
9.0900002 -7.7354994 -1.2895
9.1000004 -7.7859998 -1.2869999
9.2278004 -7.757 -1.2875999
9.3472004 -7.7478004 -1.2894
9.4701672 -7.7488337 -1.2895
9.5913343 -7.7496672 -1.2893333
9.6014996 -7.7509999 -1.288
9.7146664 -7.7513332 -1.2891667
9.8386002 -7.7529998 -1.2878001
9.9589996 -7.7546668 -1.2868333
10.079 -7.7476664 -1.2858334
10.175799 -7.7653999 -1.2872
10.274857 -7.7442861 -1.2870002
10.3885 -7.776 -1.2869999
10.446857 -7.7358575 -1.2858571
10.554286 -7.7582865 -1.2868571
10.662251 -7.74225 -1.289125
10.769667 -7.7445006 -1.2918334
10.858001 -7.7533336 -1.2928336
10.947833 -7.7456665 -1.2938334
11.039667 -7.7548332 -1.2935001
11.1305 -7.7480001 -1.2936667
11.248181 -7.7506371 -1.2940909
11.365429 -7.7527146 -1.2938572
11.464251 -7.7492499 -1.2920002
11.570715 -7.7545714 -1.2911429
11.657144 -7.7487149 -1.2904286
11.744499 -7.7506666 -1.289
11.8365 -7.757 -1.2877499
11.954599 -7.7533007 -1.2853
12.059333 -7.7505555 -1.2834444
12.157857 -7.7458572 -1.2815714
12.236715 -7.754858 -1.2798572
12.343785 -7.7535 -1.2794285
12.460572 -7.7532859 -1.2762858
12.536445 -7.7574449 -1.276
12.645501 -7.7489285 -1.2722859
12.748112 -7.7562222 -1.271889
12.843925 -7.7499232 -1.2696155
12.947249 -7.7531662 -1.2693334
13.046385 -7.7452312 -1.2667693
13.153143 -7.7501435 -1.2662144
13.250083 -7.7518339 -1.26425
13.348938 -7.747375 -1.2630624
13.4536 -7.7477341 -1.2616667
13.552934 -7.7476668 -1.2613333
13.646469 -7.7583332 -1.2594
13.7485 -7.7511506 -1.2591001
13.849423 -7.7507372 -1.2601054
13.954249 -7.7479997 -1.2596
14.051101 -7.7512012 -1.2603
14.145318 -7.7505002 -1.2617728
14.254159 -7.7473187 -1.2623199
14.356956 -7.749166 -1.2633749
14.453518 -7.7491999 -1.2641999
14.55172 -7.7531199 -1.2640799
14.647861 -7.7503462 -1.2656205
14.753289 -7.7479677 -1.2663548
14.850334 -7.7471857 -1.2672591
14.949486 -7.7522864 -1.2674571
15.051845 -7.751687 -1.2675314
15.148279 -7.7505322 -1.2675314
15.2474 -7.7511253 -1.2680249
15.348194 -7.750001 -1.2678056
15.448023 -7.7515125 -1.2669743
15.549432 -7.748786 -1.2655475
15.653168 -7.7498941 -1.2656596
15.756546 -7.750762 -1.2643045
15.8517 -7.7495408 -1.2637798
15.948824 -7.7501616 -1.2635001
16.048557 -7.7509294 -1.2606608
16.150906 -7.7511816 -1.2565271
16.253265 -7.7499218 -1.2515467
16.352125 -7.7478118 -1.2486874
16.45141 -7.751606 -1.244682
16.547276 -7.7491531 -1.24075
16.647238 -7.751801 -1.238188
16.750021 -7.7495174 -1.2344592
16.851086 -7.7519798 -1.2314676
16.949524 -7.7493572 -1.2291248
17.048742 -7.7522182 -1.2274089
17.150909 -7.7534194 -1.2248545
17.250132 -7.7492337 -1.2236208
17.350391 -7.7506814 -1.2213917
17.44906 -7.7507515 -1.2198288
17.550304 -7.7513828 -1.2177286
17.649931 -7.7509208 -1.2160512
17.750145 -7.7511845 -1.2148317
17.849674 -7.7510681 -1.2147202
17.949644 -7.7507992 -1.2147063
18.050785 -7.751451 -1.2140951
18.151354 -7.7520041 -1.2129488
18.249218 -7.7507744 -1.2134658
18.349033 -7.7509823 -1.2151546
18.44964 -7.7512431 -1.2167726
18.516563 -7.7306285 -1.2156152
22.069794 -7.7445116 -1.2332087
22.148861 -7.7514548 -1.2356797
22.250393 -7.7509518 -1.2378445
22.348467 -7.7514224 -1.2390286
22.449091 -7.752347 -1.2421181
22.54879 -7.7509103 -1.2457603
22.65024 -7.7527833 -1.2491376
22.748547 -7.7533722 -1.2529395
22.848892 -7.7534599 -1.2582817
22.953068 -7.7514849 -1.2653686
23.04764 -7.7507024 -1.2609372
23.148924 -7.7507167 -1.2570473
23.249691 -7.7512221 -1.251386
23.352867 -7.7516212 -1.2462517
23.450354 -7.7495184 -1.2416314
23.549686 -7.7519999 -1.23752
23.651918 -7.7493191 -1.2340534
23.75054 -7.74964 -1.2306193
23.850521 -7.7503748 -1.2269706
23.948755 -7.7513194 -1.2239656
24.049496 -7.7520213 -1.2224493
24.148325 -7.7499485 -1.2199343
24.249086 -7.7498298 -1.2179872
24.348047 -7.7501063 -1.2164243
24.451553 -7.7502432 -1.2154002
24.552021 -7.752017 -1.2143332
24.650902 -7.7510839 -1.2132666
24.753893 -7.7487688 -1.211125
24.849964 -7.750113 -1.2087739
24.948376 -7.7522082 -1.2063754
25.045862 -7.7504187 -1.2055118
25.144026 -7.7506151 -1.2047179
25.244776 -7.7521396 -1.2034444
-16.854 -7.6420002 -1.252
-14.701 -7.6389999 -1.216
-14.693 -7.6399999 -1.276
7.3600001 -7.6690001 -1.3
7.5450001 -7.6603332 -1.2986667
7.7212496 -7.6470003 -1.29775
7.8856668 -7.6440001 -1.2973335
7.902 -7.6455002 -1.2950001
8.0524998 -7.6470003 -1.29625
8.1934996 -7.6700001 -1.2975
8.2193336 -7.6366668 -1.2946668
8.3730001 -7.6534996 -1.2940001
8.5128012 -7.6551995 -1.2952
8.6668005 -7.6478 -1.2938
8.7910004 -7.6999998 -1.295
8.8184996 -7.6515002 -1.2920001
8.964201 -7.6545997 -1.2903999
9.0963345 -7.6406665 -1.291
9.1044998 -7.6574998 -1.2895
9.2216005 -7.6587996 -1.2916001
9.3445997 -7.6512003 -1.2926
9.4876671 -7.6516666 -1.2896667
9.5343342 -7.6503334 -1.289
9.6174994 -7.6534996 -1.2885001
9.7345991 -7.6512003 -1.2889999
9.8591671 -7.6538329 -1.2873333
9.9782 -7.6534004 -1.2866
10.067333 -7.6356668 -1.2850001
10.108001 -7.6576667 -1.2839999
10.22343 -7.6482859 -1.2857144
10.3234 -7.6524005 -1.2842001
10.440572 -7.6431432 -1.2875715
10.529601 -7.6533999 -1.288
10.6486 -7.6523004 -1.2901
10.7634 -7.6511993 -1.2926
10.853286 -7.6491432 -1.2921429
10.9636 -7.6533999 -1.2906001
11.050501 -7.6583338 -1.2921667
11.155126 -7.6396251 -1.288875
11.249166 -7.6513338 -1.2943333
11.34425 -7.6497502 -1.290125
11.453444 -7.6626673 -1.2923334
11.5555 -7.6528335 -1.29
11.64225 -7.6459999 -1.28925
11.750556 -7.649889 -1.2880001
11.851124 -7.6558752 -1.288625
11.934 -7.647625 -1.2878749
12.047335 -7.6511664 -1.2856667
12.156126 -7.6462502 -1.2841251
12.239429 -7.6547141 -1.2832857
12.3522 -7.6513338 -1.2824668
12.455857 -7.6547141 -1.2815714
12.528002 -7.6501427 -1.2805715
12.657925 -7.6454616 -1.2734616
12.755899 -7.6562004 -1.2702999
12.8595 -7.6513338 -1.2700001
12.946545 -7.6510906 -1.2684547
13.060533 -7.6531339 -1.267
13.147125 -7.6496253 -1.266875
13.242625 -7.6508121 -1.264375
13.353286 -7.6519289 -1.2635001
13.440616 -7.6548457 -1.2636923
13.539535 -7.6478667 -1.2620667
13.64 -7.6506467 -1.2612941
13.745555 -7.6523886 -1.2600557
13.841444 -7.6502781 -1.2605001
13.949435 -7.6492176 -1.2603912
14.053369 -7.649157 -1.2617896
14.144053 -7.6507897 -1.2611054
14.246262 -7.6508517 -1.2631111
14.348435 -7.6463056 -1.2647827
14.453888 -7.6509252 -1.2647036
14.54882 -7.6487284 -1.2654545
14.644967 -7.6499348 -1.2665335
14.749834 -7.6489339 -1.2685332
14.848321 -7.650002 -1.2689644
14.947699 -7.6504545 -1.2691817
15.049425 -7.6498489 -1.2684547
15.150308 -7.6511936 -1.2684445
15.248947 -7.6461535 -1.2695385
15.350181 -7.6497951 -1.2702564
15.4526 -7.6513009 -1.2686751
15.552095 -7.6499538 -1.2684046
15.646899 -7.6480751 -1.26815
15.747291 -7.6526146 -1.2666731
15.853265 -7.6468449 -1.2660223
15.950291 -7.6490383 -1.2655001
16.050749 -7.651062 -1.2621251
16.147655 -7.6489625 -1.2584615
16.248304 -7.64925 -1.2554822
16.349447 -7.6516438 -1.2516428
16.45075 -7.6540346 -1.2468333
16.548389 -7.6532536 -1.2437162
16.651112 -7.6519041 -1.2404084
16.750212 -7.6566882 -1.2364156
16.849817 -7.6544333 -1.2340002
16.952711 -7.6525898 -1.2305298
17.04973 -7.6563096 -1.22896
17.150009 -7.6516085 -1.2271518
17.250607 -7.6528773 -1.2256474
17.349842 -7.6505404 -1.223811
17.448114 -7.6497159 -1.2226183
17.550077 -7.650949 -1.2199807
17.65073 -7.650816 -1.2186584
17.749718 -7.6497278 -1.2177125
17.849329 -7.6510916 -1.2170204
17.949121 -7.6495271 -1.2168969
18.049417 -7.6507244 -1.2167159
18.15003 -7.6502538 -1.2163421
18.249348 -7.6504073 -1.2168605
18.349873 -7.6507764 -1.2184099
18.448442 -7.6492639 -1.2208701
18.53779 -7.6448669 -1.2206035
18.6 -7.612 -1.212
21.983952 -7.6251259 -1.2317967
22.050945 -7.649406 -1.2358447
22.147745 -7.6534915 -1.2384105
22.248457 -7.6489758 -1.2421149
22.348291 -7.6517787 -1.2439692
22.448439 -7.6512375 -1.2466248
22.548351 -7.6505389 -1.2508008
22.648426 -7.6522427 -1.2557322
22.748777 -7.6509185 -1.2602184
22.849945 -7.6504006 -1.264182
22.944784 -7.648222 -1.2503176
23.047523 -7.6520877 -1.2412297
23.149229 -7.6531525 -1.2377307
23.24951 -7.6527066 -1.2319354
23.348818 -7.654911 -1.2283471
23.447729 -7.6546664 -1.2234933
23.546867 -7.6524525 -1.2194272
23.648254 -7.654737 -1.216143
23.74704 -7.6586599 -1.2142302
23.843386 -7.6651964 -1.2148447
23.949549 -7.6803861 -1.2169546
24.046373 -7.6825924 -1.2162186
24.148602 -7.685534 -1.2150666
24.246071 -7.6847501 -1.2127144
24.349909 -7.6862283 -1.2114546
24.449738 -7.6910005 -1.2127999
24.555929 -7.6894283 -1.2110716
24.644094 -7.6917276 -1.211091
24.746078 -7.6895385 -1.2086153
24.856501 -7.692625 -1.20675
24.939499 -7.691 -1.2047499
25.046333 -7.6956668 -1.2041668
25.191999 -7.6950002 -1.207
-14.685249 -7.5482497 -1.24675
7.4099998 -7.5359998 -1.2970001
7.5865002 -7.5290003 -1.2970001
7.6090002 -7.5310001 -1.293
7.7614999 -7.5394998 -1.2950001
7.8959999 -7.579 -1.298
7.9363337 -7.5390005 -1.2933334
8.0799999 -7.5739999 -1.2945
8.1054993 -7.5225 -1.2925
8.2412004 -7.5464005 -1.2942001
8.3810005 -7.5699997 -1.2955
8.408 -7.527667 -1.2926667
8.5461998 -7.5548005 -1.2930001
8.6850004 -7.5546665 -1.2936667
8.7054996 -7.54 -1.291
8.8369999 -7.5526667 -1.2921667
8.9757996 -7.5566001 -1.2918
9.1108007 -7.5502 -1.2918
9.2488337 -7.5545006 -1.2906668
9.3793335 -7.5646667 -1.2896668
9.4262505 -7.5485001 -1.288
9.5302505 -7.5449996 -1.2865
9.6440001 -7.5573339 -1.2871667
9.7635002 -7.5516672 -1.2873333
9.8962002 -7.546 -1.2850001
9.97225 -7.5469999 -1.28675
10.009501 -7.5599999 -1.2850001
10.119834 -7.5539999 -1.2855
10.223834 -7.5479999 -1.2863333
10.331 -7.5428333 -1.2866668
10.420167 -7.5531669 -1.2891667
10.531668 -7.548667 -1.2880001
10.626201 -7.5512004 -1.2888
10.721168 -7.5540004 -1.2898334
10.818832 -7.5485001 -1.2898333
10.93325 -7.5583744 -1.2902499
11.043429 -7.5580001 -1.2902857
11.152555 -7.5408893 -1.2916666
11.270166 -7.5546675 -1.2913334
11.363667 -7.5505004 -1.2901666
11.444715 -7.553 -1.291
11.526572 -7.5475717 -1.2917143
11.6462 -7.5570002 -1.2903999
11.7551 -7.5469003 -1.2901
11.863001 -7.5464287 -1.2890002
11.937167 -7.5488334 -1.2895
12.052286 -7.5500002 -1.2889287
12.168429 -7.5442858 -1.2878573
12.25 -7.5503755 -1.287625
12.351819 -7.5493636 -1.2859091
12.448299 -7.5539994 -1.2864
12.539625 -7.546 -1.28125
12.6511 -7.5503998 -1.2758
12.748584 -7.548667 -1.2740834
12.858274 -7.5537276 -1.2731819
12.955848 -7.5454626 -1.2700771
13.051818 -7.5525451 -1.2695456
13.141429 -7.5500007 -1.2676429
13.254437 -7.5518756 -1.2669376
13.354818 -7.5560908 -1.2662728
13.438285 -7.5497847 -1.2645715
13.534531 -7.5516467 -1.2645293
13.647883 -7.5523529 -1.2628825
13.744413 -7.5514708 -1.2631764
13.848059 -7.5516467 -1.2624118
13.943833 -7.548667 -1.2621112
14.043865 -7.5510917 -1.2632271
14.152335 -7.5525837 -1.2629167
14.2527 -7.5441003 -1.2645
14.347086 -7.5516086 -1.2640435
14.448 -7.5491586 -1.2639198
14.547801 -7.5501184 -1.2649601
14.644295 -7.5543337 -1.2652223
14.747967 -7.5497088 -1.2669678
14.850142 -7.5537858 -1.2678217
14.950768 -7.5518003 -1.2678668
15.050587 -7.5505171 -1.2682414
15.150751 -7.5535622 -1.2678436
15.24997 -7.5526867 -1.2690287
15.351735 -7.5553832 -1.268353
15.451274 -7.5529261 -1.268275
15.5525 -7.5546508 -1.2688001
15.652905 -7.5503478 -1.2683488
15.7492 -7.5527391 -1.2677608
15.849605 -7.5525208 -1.267
15.949669 -7.5518246 -1.2668431
16.048763 -7.5501442 -1.2662907
16.147943 -7.5504718 -1.2652546
16.249338 -7.5506778 -1.2619998
16.347321 -7.5497742 -1.2599547
16.447397 -7.55129 -1.2577827
16.549505 -7.5512624 -1.2556443
16.649508 -7.5489302 -1.2523235
16.751335 -7.5504546 -1.2478256
16.849236 -7.5525055 -1.2466635
16.949089 -7.5511799 -1.2439058
17.050127 -7.5497098 -1.2411598
17.150145 -7.5502348 -1.2372644
17.251461 -7.5503731 -1.2337826
17.351286 -7.5496297 -1.230378
17.450243 -7.549037 -1.2273909
17.550684 -7.5521512 -1.2258608
17.65098 -7.5506268 -1.2243605
17.750031 -7.5505271 -1.2235821
17.849056 -7.5493817 -1.2221836
17.949263 -7.5505314 -1.2214712
18.05007 -7.5501938 -1.2204936
18.147938 -7.5492697 -1.2213416
18.250031 -7.5508232 -1.2210892
18.351221 -7.5497026 -1.2225274
18.45228 -7.5508757 -1.2236725
18.550848 -7.5510521 -1.2256439
18.62361 -7.5358076 -1.2248623
21.892401 -7.5115008 -1.2269
21.958633 -7.54424 -1.2337613
22.048994 -7.5515251 -1.2366544
22.148279 -7.5512066 -1.238102
22.249195 -7.550653 -1.2415868
22.348608 -7.5506034 -1.244565
22.449076 -7.5509353 -1.2475712
22.549866 -7.5503592 -1.2520529
22.649141 -7.5518808 -1.2558234
22.749304 -7.551518 -1.2600739
22.848856 -7.5518966 -1.2636777
22.947157 -7.5491748 -1.2635065
23.049286 -7.5433602 -1.2598311
23.150606 -7.5427761 -1.2541358
23.249592 -7.5427098 -1.2477767
23.348558 -7.5422916 -1.244118
23.446678 -7.5444183 -1.2390554
23.550505 -7.5426264 -1.2369895
23.651945 -7.5389032 -1.2344507
23.748581 -7.5467982 -1.2284886
23.847223 -7.5407624 -1.2263161
23.950369 -7.544486 -1.224
24.048429 -7.5436664 -1.2197225
24.148102 -7.5433369 -1.2174706
24.250595 -7.5438175 -1.2157834
24.348757 -7.5425 -1.2141899
24.448503 -7.5465002 -1.2117586
24.548412 -7.5464721 -1.2100784
24.64852 -7.5434012 -1.20868
24.746883 -7.5461102 -1.2078446
24.847477 -7.5455661 -1.2070436
24.944231 -7.5466151 -1.2054617
25.045258 -7.5472054 -1.205
25.149242 -7.5484843 -1.2042702
25.253069 -7.5443339 -1.2037998
-14.746 -7.4545002 -1.2515
7.2265 -7.4729996 -1.3
7.4139996 -7.4606667 -1.2986667
7.5819998 -7.461 -1.299
7.6069999 -7.4490004 -1.2963333
7.7735 -7.4472499 -1.296
7.9474001 -7.4531999 -1.2944001
8.0974998 -7.4794998 -1.2945
8.1166677 -7.427 -1.2936667
8.2550001 -7.4418001 -1.2956001
8.4145002 -7.4477501 -1.29425
8.5566015 -7.4521995 -1.2946
8.6984997 -7.4565001 -1.2950001
8.7090006 -7.4413333 -1.294
8.8459997 -7.4425998 -1.2944001
8.9802008 -7.4572001 -1.2941999
9.0935001 -7.46 -1.2969999
9.1090002 -7.4446669 -1.2953334
9.2466002 -7.4474001 -1.2944001
9.3937502 -7.4349999 -1.2915001
9.3999996 -7.4840002 -1.289
9.5240002 -7.4498329 -1.2905
9.6554003 -7.4556003 -1.2892001
9.7818012 -7.4516001 -1.2878001
9.8882504 -7.4502497 -1.28975
9.9465008 -7.4524999 -1.2895
10.0128 -7.4460001 -1.2880001
10.1265 -7.4471664 -1.2880001
10.231601 -7.4512 -1.2886001
10.3318 -7.4456 -1.29
10.431667 -7.4491673 -1.2908335
10.540167 -7.445333 -1.2903334
10.638666 -7.4580002 -1.2905
10.734168 -7.4528327 -1.2911668
10.827667 -7.4483337 -1.2920001
10.927125 -7.4571252 -1.293375
11.027334 -7.4551668 -1.2926668
11.1502 -7.4499002 -1.2931
11.2675 -7.4457502 -1.2943749
11.373287 -7.448 -1.2927145
11.459501 -7.4524994 -1.2925
11.543667 -7.4483337 -1.2928333
11.638124 -7.4579997 -1.2920001
11.73575 -7.4507504 -1.291
11.849728 -7.4440913 -1.289091
11.956573 -7.4544287 -1.2898571
12.040375 -7.45575 -1.290125
12.151001 -7.4429998 -1.2889168
