# .PCD v0.7 - Point Cloud Data file format
VERSION 0.7
FIELDS x y z
SIZE 4 4 4
TYPE F F F
COUNT 1 1 1
WIDTH 1536
HEIGHT 1
VIEWPOINT 0 0 0 1 0 0 0
POINTS 1536
DATA ascii
-1.401 -10.002 -0.026000001
-1.3332858 -10.047001 -0.062000006
30.089394 -10.056786 -0.055571422
30.106251 -10.028376 -0.045499999
38.991001 -10.019 -0.017000001
39.016502 -10.05875 -0.053500004
-6.955667 -9.9293337 -0.04066667
-2.4329998 -9.9455557 -0.050222222
30.098 -9.9910002 -0.097000003
30.121601 -9.9932003 -0.046599995
30.231201 -9.9904003 -0.0524
30.351376 -9.9837503 -0.052124999
30.426001 -9.9764004 -0.051999997
30.515251 -9.9732494 -0.044999998
30.639915 -9.9240837 -0.046999998
38.998001 -9.9870005 -0.017000001
39.089001 -9.9949999 -0.085000001
39.137001 -9.9650002 -0.076000005
39.327 -9.9602499 -0.042749997
-7.9286666 -9.8256664 -0.059999999
-6.9423332 -9.8479996 -0.025999999
-4.6700001 -9.8970003 -0.014
-2.642 -9.8380003 -0.056000002
-2.562 -9.8330002 -0.014
-2.4593334 -9.868 -0.051999997
30.632973 -9.8507795 -0.047333334
39.017223 -9.8578892 -0.052111115
30.635666 -9.7875004 -0.04816667
30.720669 -9.7786674 -0.052500006
38.996002 -9.7589998 -0.052999999
39.015144 -9.7598572 -0.053428575
-4.6774998 -9.6339998 -0.039000001
38.982002 -9.6285 -0.038000003
39.022144 -9.672286 -0.059285719
-4.704 -9.5030003 -0.041000001
-4.6844997 -9.56775 -0.039749999
38.987 -9.5970001 -0.022
39.021442 -9.5552225 -0.063444443
-5.7747498 -9.4255009 -0.063499995
-4.7080002 -9.4589996 -0.02
-4.6919999 -9.4589996 -0.063000001
38.997002 -9.4350004 -0.057
39.019497 -9.4485006 -0.054499995
-5.7685003 -9.3337498 -0.064499997
38.993999 -9.3363342 -0.079999998
39.009171 -9.3363342 -0.048000004
-6.9309998 -9.2652493 -0.040750004
38.995003 -9.2714996 -0.075499997
39.030861 -9.2304287 -0.056285717
-8.0970001 -9.1149998 -0.064000003
-6.9510002 -9.1690006 -0.0425
39.016335 -9.1416674 -0.06166666
-8.0727501 -9.0394993 -0.064750001
38.994999 -9.0100002 -0.063000001
39.013378 -9.0473747 -0.062749997
-8.0777493 -8.9412498 -0.066
38.990002 -8.9130001 -0.097000003
39.018749 -8.9493752 -0.060250007
-9.1355 -8.8477497 -0.035500001
39.0163 -8.8450003 -0.059199996
-9.2080002 -8.7189999 -0.013
-9.1389999 -8.7536678 -0.045333337
38.996498 -8.7613335 -0.050166667
39.006836 -8.7396669 -0.050666671
-13.716 -8.6669998 -0.083999999
-13.697 -8.6660004 -0.024
-10.2635 -8.6154995 -0.057
38.994499 -8.6859999 -0.083499998
39.01725 -8.6690006 -0.035500001
-10.2705 -8.5357494 -0.058250003
31.132168 -8.5233335 -0.025333334
-10.2635 -8.4554996 -0.059500001
31.099001 -8.4705 -0.003
31.116549 -8.4492426 -0.052363638
-14.8255 -8.3330002 -0.044500001
31.091335 -8.3493338 -0.073333338
31.118696 -8.353653 -0.05513043
31.241001 -8.3155003 -0.030000001
32.188999 -8.3129997 -0.0089999996
-12.602 -8.2670002 -0.014
-12.581 -8.2679996 -0.071999997
-11.359 -8.2290001 -0.052999999
31.153999 -8.2904997 -0.092500001
31.246 -8.2869997 -0.068999998
32.192715 -8.2727146 -0.051000003
32.245167 -8.2396669 -0.060666665
32.323002 -8.2259998 -0.057
33.364498 -8.2144995 -0.026999999
-11.368999 -8.1459999 -0.054499999
30.037418 -8.1190834 -0.057166673
33.371002 -8.1783333 -0.071000002
33.429001 -8.1829996 -0.035
34.393669 -8.1463337 -0.054333337
34.456501 -8.1315002 -0.048500001
34.514999 -8.1169996 -0.050999999
35.563999 -8.1009998 -0.034000002
-11.357 -8.0620003 -0.055
29.825171 -8.0646667 -0.047166672
30.018248 -8.086668 -0.056833327
30.285999 -8.0080004 -0.054499999
30.311501 -8.0054998 -0.020500001
34.487 -8.0939999 -0.1
37.6605 -8.0349998 -0.039749999
37.729 -8.0170002 -0.011
-13.679 -7.9559999 -0.063500002
30.280001 -7.9899998 -0.046
30.319431 -7.9621429 -0.022857143
37.716 -7.9879999 -0.071999997
38.665001 -7.9645 -0.036499999
38.98233 -7.9143333 -0.045333337
39.002998 -7.9184999 -0.029000001
30.333832 -7.8536673 -0.015333335
38.977558 -7.8385553 -0.046333332
-18.208 -7.724 -0.1
-18.193333 -7.7700005 -0.054000001
22.93779 -7.7096319 -0.014
30.335669 -7.7481666 -0.017166667
38.982777 -7.7401109 -0.047777779
-18.157499 -7.658 -0.066500001
-14.775 -7.6230001 -0.054000001
22.872124 -7.6339555 -0.04200381
22.925486 -7.6681933 -0.052586425
23.014999 -7.6420002 -0.097999997
26.365625 -7.6145005 -0.016875001
26.4195 -7.6175003 -0.030700002
30.319664 -7.6418338 -0.018333334
30.405001 -7.645 -0.022
38.981834 -7.6593342 -0.048833333
-18.125999 -7.5890002 -0.034000002
-14.739 -7.5325003 -0.054499999
22.862913 -7.5503592 -0.050783984
26.2945 -7.5380001 -0.02
26.329321 -7.546577 -0.05090588
26.424143 -7.5862856 -0.076571435
30.293499 -7.559 -0.001
30.330332 -7.5504446 -0.014555554
-14.75 -7.4400001 -0.056000002
22.868195 -7.4680796 -0.061676588
22.910795 -7.430655 -0.042586207
26.299 -7.494 -0.022
26.318272 -7.4507542 -0.05205882
30.293333 -7.4446669 -0.003
30.335001 -7.4516664 -0.016333334
2.3185 -7.3164997 -0.027000001
5.6813335 -7.3380003 -0.032666668
5.7230005 -7.3243332 -0.014666668
22.911503 -7.396667 -0.092666671
26.343941 -7.3825879 -0.070823528
30.286917 -7.3279161 -0.051583331
30.340601 -7.3405337 -0.034000002
30.427 -7.3559999 -0.046
38.987503 -7.3302498 -0.070249997
2.283 -7.283 -0.075999998
2.3744998 -7.2541256 -0.038749997
5.7364993 -7.2537494 -0.045000002
29.874001 -7.2084999 -0.065000005
29.93417 -7.2160006 -0.050999999
30.035168 -7.2181664 -0.056000002
30.250313 -7.2505317 -0.052093748
30.309 -7.283 -0.0060000001
38.971401 -7.2421999 -0.0744
39.005001 -7.2789998 -0.055
-21.582001 -7.1254997 -0.045500003
-15.923 -7.1399999 -0.014
-15.893 -7.1440001 -0.075999998
2.382143 -7.1724291 -0.048285715
2.405 -7.118 -0.059999999
5.7388334 -7.1615844 -0.053166669
29.872749 -7.1877503 -0.078000002
30.289 -7.1973333 -0.025000002
32.867001 -7.1020002 -0.0099999998
32.962502 -7.1125002 -0.046000004
33.578499 -7.1069999 -0.068999998
38.985836 -7.1488333 -0.072833329
-21.574501 -7.0510001 -0.046499997
-15.794 -7.05125 -0.045000002
32.878792 -7.0522146 -0.036000002
32.908001 -7.0524001 -0.073799998
33.355404 -7.0865998 -0.049399998
33.461605 -7.0968003 -0.053199995
33.645 -7.0985003 -0.024499999
36.181 -7.0185003 -0.0275
36.204002 -7.0174999 -0.083999999
36.561668 -7.0076666 -0.052999999
36.743332 -7.0176668 -0.058333334
38.983749 -7.0504999 -0.082499996
39.000999 -7.0809999 -0.057999998
-21.608 -6.9749999 -0.085000001
-21.570999 -6.9759998 -0.011
-15.884501 -6.9520001 -0.047500003
36.176224 -6.9473338 -0.036444444
36.212334 -6.9551673 -0.080500007
38.710499 -6.9458332 -0.068500005
38.866501 -6.9955001 -0.071999997
-16.943001 -6.8365002 -0.063500002
36.355 -6.803 -0.022
36.636002 -6.827333 -0.057999998
38.712669 -6.8709998 -0.075333342
30.083939 -6.7176681 -0.053600006
30.124624 -6.7523751 -0.023625001
36.4375 -6.7934999 -0.067000002
36.633499 -6.7985001 -0.044
36.882999 -6.77 -0.094999999
-19.322001 -6.6500001 -0.061999999
30.059629 -6.6459999 -0.052371431
30.107 -6.6960001 -0.0089999996
-20.327002 -6.5516663 -0.028333334
30.041931 -6.5525479 -0.050774179
30.045916 -6.4518881 -0.054583337
-21.511 -6.3930001 -0.018999999
-21.498669 -6.3463335 -0.068333343
30.057039 -6.3515363 -0.053964291
-21.504999 -6.25 -0.021
-21.482 -6.2519999 -0.093999997
30.068602 -6.2475338 -0.051100008
-22.582001 -6.1110001 -0.035
30.06419 -6.1422248 -0.048096769
-22.573 -6.0380001 -0.035999998
-7.6500001 -6.0209999 -0.029999999
30.04784 -6.051125 -0.044000003
-7.6289997 -5.9502501 -0.055
30.057928 -5.9549646 -0.052607141
30.1075 -5.9175 -0.0155
-23.739 -5.8870001 -0.050000001
30.069101 -5.8666191 -0.058666661
30.103001 -5.9000001 -0.025
26.260288 -5.6077147 -0.085571431
26.341002 -5.6140838 -0.086500004
22.784784 -5.5207191 -0.080406256
22.844944 -5.5274906 -0.070140019
22.906111 -5.5180001 -0.082999997
26.240002 -5.5464935 -0.050452065
26.336502 -5.5672274 -0.035954542
15.988 -5.402 -0.0995
16.036001 -5.4043331 -0.096000001
19.373194 -5.4396739 -0.060722683
19.449265 -5.4446101 -0.056311481
19.50556 -5.421279 -0.080839992
22.778399 -5.449553 -0.04983823
22.845627 -5.4771228 -0.02338356
22.905001 -5.4645004 -0.028125001
26.224369 -5.4525156 -0.050467752
12.471001 -5.3246665 -0.073833339
12.559667 -5.3326664 -0.07
12.647421 -5.3254738 -0.071842104
15.968056 -5.3514857 -0.050081078
16.057341 -5.3512883 -0.051533334
16.105906 -5.3315005 -0.070812508
19.350462 -5.3812318 -0.022023257
19.474127 -5.3895745 -0.01545
19.512735 -5.3475695 -0.05243117
22.769613 -5.3517852 -0.051068943
26.232689 -5.3559227 -0.047529403
-4.1389999 -5.2720003 -0.053499997
-4.0845003 -5.2364998 -0.053000003
12.468334 -5.2816668 -0.028000003
12.532667 -5.2853336 -0.025333336
12.66237 -5.2504349 -0.047804344
16.094223 -5.2632594 -0.042666666
16.108507 -5.2465405 -0.052650798
19.521507 -5.2648606 -0.040736843
22.767559 -5.2739997 -0.027488373
26.234142 -5.2891426 -0.022571431
-4.1149998 -5.1225004 -0.056000002
-4.0903335 -5.1776667 -0.06133334
9.1739998 -5.1315002 -0.068999998
9.2607279 -5.1259093 -0.072181821
9.3070002 -5.1100001 -0.094999999
12.671762 -5.1529288 -0.053999998
16.095001 -5.156445 -0.035444446
16.10997 -5.1544938 -0.04919719
19.514 -5.1490002 -0.012
22.799 -5.1700001 -0.0060000001
-4.125 -5.099 -0.035
5.724 -5.026 -0.081
5.8330002 -5.0124998 -0.078500003
9.1610003 -5.0830002 -0.018999999
9.280715 -5.0760002 -0.033000004
9.310401 -5.0394998 -0.061350007
12.675501 -5.0665712 -0.04539286
16.099001 -5.0760002 -0.001
16.111534 -5.0818667 -0.021266669
22.777239 -5.006619 -0.049047619
22.847895 -5.0062385 -0.049447373
22.915958 -5.0070839 -0.067083329
26.250956 -5.0407796 -0.052220006
26.349134 -5.0517335 -0.051066671
26.431694 -5.0490437 -0.044956524
27.672333 -5.0176668 -0.0070000007
27.745497 -5.0241661 -0.048366673
27.845997 -5.0341907 -0.053666666
27.942335 -5.0279999 -0.055083331
28.031 -5.0105 -0.071000002
28.174429 -5.0170002 -0.077571429
28.247526 -5.0214214 -0.046736836
28.349268 -5.0198007 -0.052400004
28.434999 -5.0132222 -0.03833333
5.7416663 -4.9750004 -0.029666668
5.8688579 -4.9473567 -0.043857142
9.3155241 -4.950048 -0.054047618
12.568001 -4.937273 -0.064000003
12.642558 -4.9404111 -0.047764711
12.750999 -4.9219093 -0.044227272
15.984199 -4.9045997 -0.051400006
16.0376 -4.9041715 -0.060257137
16.137667 -4.9032001 -0.068999998
19.480965 -4.9359193 -0.053977001
19.550261 -4.924829 -0.051904559
19.610464 -4.9154892 -0.048534874
20.770334 -4.9081802 -0.038474366
20.849075 -4.9120927 -0.050804138
20.937567 -4.9126835 -0.060053028
21.011665 -4.9105005 -0.088
21.632999 -4.9089999 -0.035
22.765575 -4.9610929 -0.049699999
22.84746 -4.9946771 -0.052741937
22.923723 -4.9955559 -0.07111112
24.182083 -4.9104171 -0.011583334
24.251617 -4.9195008 -0.04561111
24.349028 -4.9214306 -0.051749997
24.43469 -4.9200954 -0.062238093
24.77553 -4.9370008 -0.075794108
24.845106 -4.9525676 -0.044975303
24.948242 -4.9647379 -0.051508199
25.034369 -4.9687371 -0.037973687
26.198999 -4.9299998 -0.023
26.22986 -4.9522343 -0.053515624
27.674431 -4.9535713 -0.019238096
27.725164 -4.9530005 -0.072250001
28.176535 -4.9724674 -0.064533338
28.217876 -4.9494996 -0.024124995
29.679911 -4.9259095 -0.03427273
2.4559999 -4.8175001 -0.089000002
5.8792143 -4.8552856 -0.042000003
9.2911434 -4.836143 -0.051857147
9.3141823 -4.8600001 -0.035909094
12.764302 -4.8511634 -0.049255811
14.581 -4.8080001 -0.091666669
14.657441 -4.8108802 -0.05556
14.750002 -4.8182898 -0.052131571
14.844251 -4.8185248 -0.046850007
14.907499 -4.803 -0.0089999996
15.973399 -4.8979001 -0.0484
16.058447 -4.8964734 -0.039710522
16.169983 -4.8735299 -0.047760002
16.202999 -4.8552856 -0.056071423
17.292 -4.8369999 -0.0065000001
17.365074 -4.8479252 -0.040701486
17.45155 -4.8471141 -0.049057387
17.542751 -4.8348575 -0.059598211
17.6075 -4.8215003 -0.097000003
17.979273 -4.8465004 -0.077772729
18.053486 -4.853261 -0.054388072
18.151846 -4.8588009 -0.050605636
18.231363 -4.8448548 -0.038354173
19.5835 -4.8970003 -0.026999999
19.621046 -4.8445415 -0.051354166
20.686544 -4.8568192 -0.015590908
20.744196 -4.8835897 -0.048875019
20.843216 -4.8958755 -0.053937502
20.95256 -4.8897309 -0.045560978
21.009499 -4.8775001 -0.092999995
21.372705 -4.8540792 -0.068090931
21.447775 -4.8622732 -0.051351227
21.549124 -4.8681769 -0.050479826
21.624933 -4.8726077 -0.030594595
22.755655 -4.8568964 -0.049356323
24.174976 -4.8476415 -0.024538461
24.225567 -4.8551297 -0.073043488
24.407 -4.8959999 -0.0070000002
24.775229 -4.8606853 -0.07497143
24.822289 -4.8522 -0.025571425
26.222691 -4.8674355 -0.051794883
27.677002 -4.8891997 -0.0264
27.734802 -4.8857999 -0.073200002
28.234501 -4.8959999 -0.0095000006
29.698 -4.9000001 -0.066
2.482625 -4.7538748 -0.049999997
2.5005 -4.73 -0.090000004
5.8862662 -4.7578006 -0.04513333
5.9060001 -4.7490001 -0.030999999
9.1949997 -4.7049999 -0.050000001
9.2458 -4.7165999 -0.044100001
9.3604002 -4.7101002 -0.044700004
10.4715 -4.7078333 -0.038833335
10.551572 -4.7142859 -0.052571431
10.648134 -4.7179999 -0.046799999
10.718 -4.7130003 -0.08433333
11.255333 -4.7615004 -0.055666666
11.335286 -4.7657146 -0.034000002
11.412 -4.77 -0.0089999996
12.766953 -4.7535129 -0.051219508
13.961481 -4.7811103 -0.037
14.052919 -4.7698636 -0.050351351
14.144564 -4.7471466 -0.059833329
14.203 -4.763 -0.093999997
14.641001 -4.7989998 -0.027000001
14.872068 -4.7584314 -0.065340914
14.9182 -4.7390494 -0.024950001
16.192223 -4.7499318 -0.051568963
16.204445 -4.7796664 -0.047555555
17.553047 -4.7439899 -0.047989126
17.609169 -4.7463331 -0.094333336
18.250389 -4.7535768 -0.052690722
18.305168 -4.7230005 -0.0091666672
19.614862 -4.7703099 -0.048241377
20.686501 -4.7775002 -0.035499997
20.716 -4.7915001 -0.065666668
21.369076 -4.7583251 -0.062950008
21.413565 -4.747375 -0.012812501
22.759998 -4.7920008 -0.056636367
24.170465 -4.7827334 -0.027333334
24.219091 -4.7852731 -0.079909086
24.7845 -4.7969999 -0.082000002
24.8244 -4.7926002 -0.041999999
30.066101 -4.7211995 -0.0504
-0.85766667 -4.6370001 -0.051333338
2.4881999 -4.6517997 -0.047200002
2.5052502 -4.6415 -0.076250002
5.8840003 -4.6705008 -0.025000002
9.4148788 -4.6530399 -0.044759996
10.402 -4.6960001 -0.028999999
10.676385 -4.6653075 -0.019538462
10.7235 -4.6446505 -0.063750006
12.763783 -4.65446 -0.051567573
14.085834 -4.6494999 -0.0045000007
14.135787 -4.6581626 -0.054864857
14.8758 -4.6847 -0.083100006
14.929685 -4.681736 -0.026526313
16.180906 -4.68081 -0.048857138
17.553085 -4.6953335 -0.04975
18.249001 -4.6999998 -0.061000001
22.767918 -4.6107917 -0.016958334
22.829998 -4.6124997 -0.013777776
26.198 -4.605 -0.035999998
26.248999 -4.6161871 -0.022875
26.334 -4.6225004 -0.016900001
29.66431 -4.624125 -0.036374997
29.747801 -4.6401 -0.042800002
29.832001 -4.6199999 -0.052000001
30.039793 -4.6536202 -0.051517237
-4.1719999 -4.5229998 -0.090000004
-0.83833337 -4.5500002 -0.046333339
2.4923334 -4.5476665 -0.072999999
2.5063999 -4.5572 -0.048999999
5.8167496 -4.5885005 -0.050500005
5.9731112 -4.5559444 -0.045833334
6.0054998 -4.5205002 -0.0605
7.0699997 -4.5634999 -0.041749999
7.1763334 -4.5673332 -0.043000005
7.2568135 -4.5388751 -0.056562502
9.4233894 -4.5604997 -0.050666668
10.681 -4.5696669 -0.014833334
10.729363 -4.5731821 -0.070363641
12.74343 -4.564857 -0.050190479
16.059891 -4.518321 -0.041178573
16.121941 -4.5167651 -0.02635294
22.756569 -4.5538063 -0.054163259
22.846361 -4.5705285 -0.062728569
22.907333 -4.5393333 -0.083333336
26.195641 -4.5522146 -0.058071434
26.219828 -4.5538445 -0.04937778
26.338823 -4.5791173 -0.067294113
29.665413 -4.5498514 -0.050703704
29.711 -4.566 -0.057500001
29.870001 -4.5749998 -0.1
29.98 -4.586 -0.032000002
30.039417 -4.5665832 -0.063833334
-4.1489997 -4.4558001 -0.056199998
-0.81649995 -4.4575 -0.048
2.3955002 -4.4590001 -0.083000004
2.4849999 -4.4790001 -0.032000002
2.5583334 -4.4633336 -0.063000008
2.6201665 -4.4289999 -0.062333331
3.5880001 -4.46 -0.024
3.7053335 -4.4583335 -0.036666669
3.8235002 -4.4575 -0.0185
5.9925838 -4.4493337 -0.049416669
7.191 -4.4229999 -0.0060000001
7.2384996 -4.4707499 -0.033374999
9.1789999 -4.4089999 -0.081
9.2501678 -4.435667 -0.047000002
9.3449993 -4.4260831 -0.04225
12.689096 -4.4611616 -0.051483873
12.70375 -4.4405832 -0.055250004
15.99 -4.4749999 -0.079999998
16.058044 -4.4820418 -0.081750005
16.13125 -4.4534211 -0.05124639
22.741011 -4.4542913 -0.047222223
26.196299 -4.4578004 -0.049100004
26.206486 -4.4504151 -0.048780493
29.665501 -4.4890003 -0.0845
-17.723 -4.395 -0.012
-17.667999 -4.3365002 -0.046499997
-4.134778 -4.3523331 -0.049333334
-0.92050004 -4.3594999 -0.052000001
-0.81799996 -4.3614998 -0.049999997
-0.76800001 -4.3140001 -0.050499998
0.38499999 -4.3144999 -0.028000001
2.6398001 -4.3487005 -0.057399996
5.7950001 -4.336 -0.017999999
5.8439999 -4.322 -0.030500002
5.9413338 -4.3423333 -0.040333338
6.0054998 -4.3990002 -0.063500002
9.2419996 -4.3889999 -0.1
9.3572083 -4.3461256 -0.05833333
12.690581 -4.3506317 -0.051210523
12.706066 -4.3471999 -0.047866669
16.133162 -4.3551283 -0.050548386
22.738892 -4.365149 -0.062531911
26.193375 -4.3751245 -0.065375
26.207645 -4.3730588 -0.064294107
-17.665001 -4.2476668 -0.059
-4.2020001 -4.2519999 -0.052000001
-4.1549997 -4.2609997 -0.0515
-4.0570002 -4.2343335 -0.050333336
-0.74120003 -4.2532001 -0.046999998
0.39199999 -4.2800002 -0.011
2.5929999 -4.2420001 -0.018999999
2.6483335 -4.2786665 -0.059833333
5.7649999 -4.2989998 -0.072999999
5.8375001 -4.2795 -0.0845
5.9334998 -4.2663002 -0.055999994
9.3575001 -4.2889996 -0.058499999
12.684557 -4.2556667 -0.054444447
12.707666 -4.2679338 -0.061733335
16.128468 -4.2615743 -0.058744676
-4.0226669 -4.1528888 -0.051444441
-3.1670001 -4.1820002 -0.035999998
-1.878 -4.145 -0.094999999
-0.74540001 -4.1524005 -0.056800004
-27.971001 -4.007 -0.039000001
-4.0170002 -4.0636668 -0.053000003
-0.796 -4.0949998 -0.035999998
30.0436 -4.0155997 -0.040600002
-28.091 -3.9130001 -0.041000001
30.058834 -3.9821668 -0.030666668
-28.014 -3.835 -0.041999999
-28 -3.7490001 -0.043000001
-26.7715 -3.7494998 -0.033
30.048626 -3.5411873 -0.061812505
-28.658001 -3.425 -0.054000001
30.051636 -3.4620001 -0.039181821
-28.805 -3.323 -0.057
-28.9 -3.2249999 -0.059999999
-27.806999 -3.0079999 -0.054000001
-24.400999 -3.0109999 -0.025
-24.386999 -3.092 -0.024
-29.094999 -2.7690001 -0.068999998
-29.066999 -2.6849999 -0.07
-29.129 -2.5899999 -0.071999997
30.0135 -2.345 -0.082000002
-29.5 -2.277 -0.081
-29.528999 -2.1830001 -0.082000002
30.021999 -1.818 -0.0040000002
4.1935 -1.70875 -0.05325
4.2614999 -1.7045 -0.052000001
30.017832 -1.7477223 -0.037388891
-29.452999 -1.661 -0.003
4.2676663 -1.6513333 -0.048555557
29.995802 -1.6328 -0.057199996
30.014835 -1.6535 -0.052611116
-29.459999 -1.572 -0.092
-29.389 -1.581 -0.0040000002
29.990799 -1.5327002 -0.064099997
30.009602 -1.5548 -0.036700003
-29.742001 -1.443 -0.097000003
-29.593 -1.4630001 -0.0070000002
29.981125 -1.4564376 -0.059562497
30.002001 -1.498 -0.032000002
-29.766499 -1.3465 -0.054499999
-26.054001 -1.392 -0.067000002
-25.997 -1.3200001 -0.068000004
-29.778 -1.253 -0.012
-26.038 -1.23 -0.07
-29.792 -1.1619999 -0.014
-28.990499 -1.1064999 -0.052500002
-29.813 -1.069 -0.015
-28.9865 -1.0190001 -0.054499999
-27.295 -0.94400001 -0.001
-27.186501 -0.8775 -0.043499999
-27.224499 -0.78600001 -0.045499999
29.968 -0.71533334 -0.021333335
29.963179 -0.65200001 -0.050823528
-27.816 -0.51300001 -0.054500002
29.965115 -0.55158824 -0.058764711
-27.832001 -0.4235 -0.056499999
29.964924 -0.45876926 -0.045307692
-27.858 -0.33199999 -0.015
29.976086 -0.35216671 -0.043749999
30.014 -0.347 -0.083999999
-30.101999 -0.215 -0.032000002
-27.927999 -0.233 -0.017999999
29.979124 -0.26450002 -0.062749997
30.006248 -0.21825001 -0.03125
29.99275 -0.1485 -0.055
30.013557 -0.134 -0.059666667
29.98225 -0.051937506 -0.047499999
30.000999 -0.089000002 -0.068000004
-29.280001 0.092 -0.032000002
29.9818 0.048666667 -0.054466669
30.014999 0.075000003 -0.0049999999
-29.233999 0.176 -0.034000002
29.968548 0.15295455 -0.046636365
29.949373 0.25231251 -0.052812506
29.943668 0.34122223 -0.042111117
29.969267 0.45993334 -0.047866676
29.955908 0.55290914 -0.050363634
29.94475 0.64999998 -0.0526875
29.937859 0.73757148 -0.041428573
29.938 0.80000001 -0.018999999
-26.105 1.817 -0.044
29.926001 1.872 -0.093999997
-19.917999 1.913 -0.043499999
-19.8965 1.9825 -0.044500001
29.94817 1.9521668 -0.067833334
29.963858 2.0472858 -0.064000003
29.949335 2.1472001 -0.041666664
29.936003 2.2544999 -0.0363
29.936003 2.3478 -0.048700001
29.929899 2.4434001 -0.040499996
12.866752 2.5653749 -0.060249995
12.952819 2.5686367 -0.062272727
13.007 2.5873334 -0.061000001
16.172001 2.5926666 -0.082000002
16.258667 2.5780001 -0.081333339
16.302999 2.598 -0.082999997
19.473667 2.5866668 -0.077500008
19.553917 2.5805836 -0.073416673
19.613501 2.5785 -0.078999996
22.681499 2.5780001 -0.074000001
22.748331 2.580111 -0.07655555
22.824169 2.5860002 -0.073833339
26.150364 2.5775456 -0.06818182
26.225 2.5822001 -0.068600006
29.393501 2.582 -0.086500004
29.444572 2.5622144 -0.065857142
29.537109 2.570111 -0.049222223
29.942875 2.5466251 -0.048625
6.427 2.697 -0.085000001
9.5588579 2.6517143 -0.044857141
9.6577501 2.661375 -0.047812503
12.868999 2.6055 -0.015
12.950001 2.6117501 -0.015
13.015099 2.6523001 -0.051700003
16.1702 2.6366003 -0.033599999
16.250265 2.6331575 -0.036315791
16.318916 2.6628332 -0.048749998
19.471779 2.6228888 -0.029777778
19.551693 2.6196158 -0.027692311
19.619167 2.6575 -0.053166669
22.678001 2.6378889 -0.039555557
22.748066 2.6244001 -0.031133335
22.826286 2.6315715 -0.02914286
26.094336 2.6563334 -0.056000002
26.126165 2.6300831 -0.039250001
26.255751 2.631 -0.03875
29.39625 2.6565001 -0.056999996
29.426144 2.6364286 -0.036428571
29.562 2.6094999 -0.0155
29.971624 2.660625 -0.051750004
3.007 2.78 -0.089000002
3.1136665 2.7816668 -0.076333337
6.2652497 2.7490001 -0.049249999
6.3478003 2.73 -0.061800003
6.4250002 2.76 -0.056166671
9.6932497 2.73525 -0.059
9.7063751 2.7671249 -0.039750002
13.0161 2.7555997 -0.056100007
16.331125 2.7491248 -0.039625004
19.625 2.724 -0.0265
22.666401 2.7244003 -0.041000001
26.096334 2.7250001 -0.028666668
26.10375 2.7610002 -0.072750002
26.302999 2.7219999 -0.003
29.3944 2.7416 -0.037599999
29.403334 2.7639999 -0.045333337
29.957848 2.748769 -0.058846153
-0.205 2.8800001 -0.086999997
-0.124 2.882 -0.086000003
2.9809999 2.842 -0.018999999
3.052 2.8165002 -0.035499997
3.1407144 2.8530002 -0.054000001
6.4296665 2.8323333 -0.037666667
9.684 2.8959999 -0.093000002
9.7115002 2.8570001 -0.046499997
12.9945 2.8685 -0.085000001
13.0484 2.8781998 -0.049350005
16.340889 2.8658891 -0.059999995
19.413502 2.8404999 -0.089000002
19.662001 2.8930001 -0.064000003
22.67075 2.82775 -0.063749999
26.098 2.8110001 -0.001
26.120001 2.855 -0.025
29.410501 2.8387499 -0.02375
29.934923 2.8521538 -0.054615386
-0.233 2.9449999 -0.0060000001
-0.13228571 2.9480004 -0.046714284
3.1567497 2.947875 -0.057
3.2030001 2.9990001 -0.057999998
8.585 2.9809999 -0.018999999
8.6640015 2.9761665 -0.046666667
8.725668 2.9753332 -0.027000001
9.677 2.905 -0.066
9.7635336 2.9287331 -0.055
9.8026676 2.9573333 -0.030333333
11.753001 2.967 -0.056714289
11.843616 2.9602311 -0.040615391
11.946846 2.9558461 -0.042076923
12.015 2.974 -0.0060000001
13.09175 2.9389999 -0.046
13.103144 2.9337146 -0.044714291
13.964572 2.9621432 -0.032142859
14.048055 2.9495556 -0.046166666
14.132833 2.9463336 -0.020500001
15.160583 2.9705837 -0.066416673
15.243851 2.9782002 -0.046250001
15.319 2.993 -0.021499999
16.36475 2.9108748 -0.051125001
16.417667 2.9406667 -0.051888891
18.357334 2.988167 -0.060888886
18.451281 2.9835994 -0.05356
18.520668 2.9843335 -0.03716667
19.406334 2.941 -0.043000005
19.664999 2.9124117 -0.041470587
19.720287 2.9185717 -0.051999997
21.559889 2.9909999 -0.063333333
21.664644 2.9912863 -0.046142861
21.748701 2.9925001 -0.048000004
22.670401 2.9305999 -0.057600003
22.935286 2.9350002 -0.027714288
26.126612 2.9548891 -0.054944444
29.431694 2.9564614 -0.04907693
29.504 2.947 -0.086000003
29.920002 2.9402857 -0.051857147
-0.083888888 3.0497777 -0.049111113
3.194 3.0055001 -0.057999998
3.2468748 3.05075 -0.063625
5.3909998 3.073 -0.041999999
5.4471664 3.0795 -0.042333331
8.7356672 3.0465555 -0.048888888
9.7916002 3.0484002 -0.043000001
9.8016672 3.026 -0.078666672
11.966556 3.0537777 -0.062333334
12.016668 3.0563333 -0.009333333
13.091499 3.0534999 -0.04066667
13.1045 3.0320001 -0.056000002
15.275835 3.0338333 -0.082666665
15.321667 3.0495002 -0.034999996
16.414499 3.05375 -0.050749999
18.277 3.013 -0.094999999
18.321335 3.0103335 -0.039666668
18.551498 3.0404997 -0.044700004
19.402 3.003 -0.0040000002
21.493 3.017 -0.1
21.554636 3.025182 -0.058272727
21.636497 3.0028334 -0.060833331
21.754665 3.011889 -0.040444445
21.817167 3.0096669 -0.016333334
22.665001 3.00875 -0.050000001
23.873446 3.0594444 -0.020111114
23.949177 3.0322177 -0.048826087
24.049131 3.022609 -0.047913048
24.14529 3.031059 -0.057588227
24.209 3.039 -0.096000001
26.099001 3.0190001 -0.052000001
26.104111 3.0603335 -0.053777773
29.397249 3.0430002 -0.047500003
29.408169 3.036 -0.047333337
29.929001 3.016 -0.02
-1.274 3.1849999 -0.063000001
-1.155 3.1935 -0.041000001
-1.1 3.188 -0.018999999
-0.013250001 3.1159999 -0.050249998
0.0025000002 3.142 -0.050999999
2.054667 3.1083336 -0.046333335
2.151 3.1059999 -0.058000006
2.2376001 3.1452 -0.048400003
3.2491429 3.1567144 -0.057428576
5.4630003 3.1446002 -0.050800003
5.5110002 3.1500001 -0.011
8.7399998 3.1243334 -0.05166667
9.7730007 3.1260002 -0.046000004
11.986 3.0999999 -0.035999998
12.009 3.1099999 -0.037
15.34175 3.1072502 -0.032249998
16.395 3.1800001 -0.046
16.4065 3.145 -0.076499999
18.546001 3.1145 -0.071000002
21.502001 3.1070001 -0.082999997
22.66757 3.1598575 -0.036428571
23.864502 3.1342502 -0.037999999
23.919001 3.1289999 -0.093000002
25.965223 3.1736667 -0.081888892
26.051933 3.1762669 -0.042400002
26.103333 3.1606669 -0.045500003
27.0735 3.1905 -0.081500001
27.16025 3.195375 -0.054124996
27.233145 3.1941431 -0.037714288
29.39575 3.1155 -0.042750001
29.407001 3.1515 -0.057
-1.2309999 3.21 -0.063000001
-1.0338 3.2394001 -0.037
2.2597501 3.2297499 -0.054499999
3.25 3.2325001 -0.046499997
5.4600005 3.2176666 -0.046666667
9.7136669 3.2554998 -0.050666671
13.007999 3.2572498 -0.05325
16.365999 3.2709999 -0.027000001
22.666 3.23 -0.069333337
26.007 3.2 -0.033
27.0805 3.2262499 -0.059249997
27.134001 3.2157145 -0.039428573
27.252335 3.2025001 -0.050500002
29.393499 3.2744999 -0.026999999
29.438503 3.2763333 -0.040833335
-1.039 3.326 -0.043500002
3.17625 3.3505001 -0.050750002
9.6945 3.3404999 -0.039999999
9.7124996 3.3404999 -0.082000002
12.995251 3.3362498 -0.068500005
13.0005 3.3404999 -0.056499999
16.351002 3.3840001 -0.087499999
22.6612 3.3164003 -0.051199999
29.390249 3.3475001 -0.048125003
29.449402 3.3228002 -0.089599997
3.1823335 3.4293334 -0.047000002
3.2130001 3.4360001 -0.071000002
22.661398 3.4316003 -0.055599999
29.385275 3.444273 -0.057818186
29.383667 3.54 -0.068000004
29.405001 3.599 -0.048
-27.003 3.9549999 -0.0049999999
-26.993 3.951 -0.090000004
-26.993 4.0380001 -0.0060000001
25.858669 4.1400003 -0.082000002
25.953232 4.1245389 -0.053384621
26.040457 4.1310911 -0.047818184
26.136427 4.1848574 -0.043857146
26.227001 4.1954999 -0.042750001
27.080999 4.1638002 -0.0458
27.152939 4.153625 -0.049499996
27.254002 4.1545005 -0.051916666
27.340799 4.1535006 -0.040900003
29.8505 4.1785002 -0.0155
-9.9619999 4.2789998 -0.057999998
-9.8570004 4.2969999 -0.057
-8.8255005 4.2505002 -0.0495
25.789 4.29 -0.085000001
25.828287 4.2385716 -0.07
26.160503 4.2038336 -0.066166669
26.241127 4.2049999 -0.061875001
27.086 4.2160001 -0.012
29.848333 4.2541666 -0.045166671
-10.072 4.3270001 -0.0020000001
25.825001 4.3109999 -0.037
29.852715 4.3604293 -0.047571428
-10.869499 4.5374999 -0.0405
-10.712 4.5339999 -0.068999998
-10.667 4.5159998 -0.0089999996
-12.106 4.927 -0.026000001
-12.0495 4.9359999 -0.086999997
-16.253 5.5469999 -0.061000001
-24.490999 5.6570001 -0.028000001
-25.242001 5.987 -0.037
-25.219999 6.0700002 -0.039000001
-25.209 6.152 -0.041000001
-25.207001 6.2389998 -0.041999999
-25.1675 6.3564997 -0.044500001
-25.158001 6.4829998 -0.046999998
-25.141001 6.566 -0.048999999
29.687 7.7620001 -0.088
29.719999 7.7519999 -0.088
29.675999 7.8424997 -0.089500003
29.657 7.9089999 -0.090000004
29.674 8.0415001 -0.093500003
29.659 8.118 -0.094999999
29.651501 9.0815001 -0.079999998
29.740999 9.1379995 -0.048
29.67 9.28825 -0.057999998
29.733 9.2740002 -0.050000001
29.738668 9.3109999 -0.027333334
29.844 9.3330002 -0.017999999
29.556999 10.252501 -0.0285
29.559668 10.356334 -0.054333337
3.546 10.486 -0.085000001
29.556999 10.4635 -0.050499998
0.66299999 10.571 -0.035
5.8559999 10.589 -0.093999997
5.9430003 10.589667 -0.079999998
6.0290008 10.592 -0.038666666
6.1100001 10.599 -0.011
13.16875 10.57525 -0.062249999
13.2392 10.56 -0.083999999
29.552 10.5385 -0.0515
-3.5680001 10.667 -0.086000003
-3.4440002 10.659333 -0.067666672
-3.3699999 10.679 -0.032499999
0.67250001 10.664 -0.062000003
5.8990002 10.604 -0.052000001
5.9390001 10.62 -0.011
6.0492496 10.60975 -0.074000001
6.1310005 10.640249 -0.033500001
6.9815001 10.6165 -0.098499998
7.0183997 10.6442 -0.0504
7.5900002 10.625 -0.02
7.6325002 10.634001 -0.041000001
9.0600004 10.634333 -0.056333333
9.1434994 10.633751 -0.050500002
9.2379999 10.648601 -0.047400001
10.070667 10.641666 -0.050666668
10.152888 10.676667 -0.039555557
12.406 10.69 -0.059
13.13 10.631 -0.028000001
13.249334 10.618334 -0.028333334
19.543144 10.668859 -0.050857145
19.627201 10.6526 -0.048599999
29.541668 10.635 -0.059333336
-3.4089999 10.744 -0.088
0.671 10.768 -0.064999998
6.0760002 10.713 -0.097999997
6.1485 10.723 -0.035999998
7.0139999 10.752 -0.041499998
9.2585001 10.746 -0.054499999
10.185333 10.779334 -0.042666666
12.391 10.726 -0.096000001
12.438666 10.738334 -0.035666667
14.08 10.726 -0.0049999999
14.157999 10.726375 -0.036499999
14.244166 10.731001 -0.042000003
14.324572 10.732429 -0.048285719
19.519501 10.726 -0.0085000005
19.647667 10.756667 -0.045000002
29.53767 10.745334 -0.048666667
7.0220003 10.8145 -0.0425
10.205 10.825 -0.025
14.3635 10.821501 -0.064000003
18.499001 10.839 -0.098999999
18.5562 10.823001 -0.071400002
18.63575 10.816751 -0.061375
18.742336 10.829 -0.050500005
19.667999 10.838 -0.013
19.735113 10.85489 -0.049000002
21.789 10.868 -0.013
21.85743 10.875858 -0.039142858
21.927 10.878 -0.016000001
22.576 10.807 -0.025
29.526501 10.8395 -0.056000002
23.673 10.973 -0.024000002
23.750444 10.946777 -0.047888894
23.851999 10.946751 -0.054000001
23.923 10.931 -0.085000001
24.875668 10.971667 -0.056000005
24.944799 10.976401 -0.048000004
25.046165 10.975 -0.041499998
25.121 10.977 -0.0020000001
29.5245 10.946 -0.049000002
22.5695 11.051001 -0.047499999
24.84 11.0305 -0.051000003
25.914501 11.061 -0.07
26.964666 11.066001 -0.046666674
27.041502 11.0305 -0.053500004
27.151501 11.032333 -0.0495
29.521332 11.039 -0.041000001
-26.681999 11.138 -0.063000001
25.912334 11.182333 -0.055
29.519501 11.1405 -0.061499998
-26.691999 11.239 -0.064999998
25.886002 11.222 -0.055333339
25.892668 11.381667 -0.058666669
-8.2770004 11.418 -0.048999999
-8.151 11.443001 -0.0495
29.135666 11.454 -0.041000001
-8.1140003 11.529 -0.052000001
29.136999 11.554 -0.082000002
-11.62 11.979 -0.063000001
-11.445 11.944 -0.061999999
-12.297 12.093 -0.066
-12.158 12.087 -0.066
-13.092 12.187 -0.068999998
-12.952 12.181 -0.068000004
-12.139 12.154 -0.067000002
-12.8595 12.246 -0.07
-12.798 12.249 -0.0020000001
-12.142 12.237 -0.035499997
29.462 12.3 -0.061000001
-9.4899998 12.583 -0.046
-9.4820004 12.655 -0.079000004
-17.75 12.931 -0.090000004
-17.7665 13.029 -0.0535
-19.411499 13.2345 -0.058499999
-19.275999 13.251 -0.018999999
0.78600001 13.328 -0.059999999
0.85566676 13.353334 -0.027333334
0.912 13.34 -0.061000001
0.91900003 13.409 -0.063000001
7.0714998 13.490999 -0.076499999
7.1294999 13.4805 -0.098999999
7.2150002 13.47 -0.098999999
22.65 13.497 -0.086000003
7.0760002 13.53 -0.0099999998
7.1567502 13.52575 -0.032749999
7.2060003 13.5735 -0.034499999
13.497999 13.5805 -0.055
16.5516 13.5696 -0.057599999
16.622 13.573 -0.074000001
18.282669 13.571667 -0.059
18.321999 13.567 -0.039499998
19.73 13.544668 -0.041000001
22.64843 13.532001 -0.048285712
22.725502 13.5545 -0.039999999
-14.889 13.658 -0.032000002
7.2154999 13.646 -0.036499999
16.496 13.615 -0.034000002
16.615999 13.614 -0.035999998
16.636999 13.732 -0.039000001
22.593 13.708 -0.012
25.965399 13.734 -0.043400001
26.047001 13.7535 -0.048999999
25.933001 13.806 -0.068000004
17.7915 14.092 -0.044
-21.791 14.451 -0.045000002
19.156 14.522 -0.0135
-19.201 15.807 -0.077
-19.086 15.834 -0.078000002
-19.077999 15.924 -0.079999998
0.92649996 16.061001 -0.052499998
1.034 16.05525 -0.053750001
1.0845001 16.123501 -0.055500001
1.1665001 16.150499 -0.05675
-3.1240001 16.291 -0.0040000002
1.1835001 16.2605 -0.059500001
5.1546669 16.250668 -0.037666671
-3.1340001 16.299999 -0.064000003
-3.072 16.321499 -0.035
-2.0120001 16.391001 -0.014
-1.934 16.301001 -0.07
1.1735001 16.365501 -0.061999999
7.3730001 16.384001 -0.086000003
7.4029999 16.327 -0.035999998
10.335667 16.328335 -0.050999999
-3.125 16.466999 -0.0080000004
-2.0225 16.491001 -0.045500003
1.14 16.499001 -0.093000002
2.0539999 16.461 -0.097999997
2.151 16.464251 -0.071499996
3.223 16.471001 -0.052999999
5.1719999 16.418999 -0.042000003
7.3979998 16.441999 -0.088
7.4050002 16.431 -0.037999999
10.378 16.434334 -0.054333337
10.453251 16.45775 -0.048
10.506 16.454 -0.025
-5.1209998 16.584 -0.061999999
1.1423334 16.557333 -0.058000006
3.224 16.5625 -0.0285
5.1669998 16.526501 -0.045000002
5.2165003 16.544001 -0.045500003
7.4060001 16.538 -0.041000001
10.5185 16.550499 -0.050999999
17.562 16.559999 -0.053999998
17.652168 16.552834 -0.054666668
-5.1030002 16.653 -0.064000003
0.373 16.676001 -0.037
1.1666667 16.678001 -0.061000001
1.268 16.698 -0.044
1.346 16.687 -0.044
1.41 16.691 -0.045000002
3.2195001 16.664001 -0.030999999
3.329 16.690001 -0.0060000001
17.734501 16.621 -0.057999998
19.691999 16.616501 -0.042999998
19.737499 16.605 -0.042999998
-5.1094999 16.7505 -0.034499999
-4.0830002 16.769001 -0.0405
1.145 16.766001 -0.1
1.228 16.75 -0.1
3.2440002 16.754667 -0.042333335
3.367667 16.762001 -0.043666668
5.4920001 16.782 -0.028000001
5.552 16.782 -0.028999999
10.504 16.719 -0.079000004
22.566 16.786999 -0.069499999
22.634001 16.785999 -0.07
-4.0774999 16.851999 -0.043000001
5.3979998 16.837 -0.079999998
5.4530001 16.848 -0.081
10.464 16.823 -0.033
12.562499 16.865 -0.036499999
19.775499 16.8785 -0.0495
22.682999 16.8255 -0.049500003
-4.0615001 16.924999 -0.044500001
10.459499 16.966999 -0.0605
10.520334 16.984001 -0.069333337
10.653 16.947334 -0.070000008
10.731001 16.968 -0.071666673
19.818501 16.952499 -0.0515
22.511 16.952999 -0.071999997
22.743 16.983999 -0.030999999
24.879999 16.907001 -0.041000001
24.927502 16.91 -0.041999999
-4.0529995 17.050499 -0.047499999
-3.948 17.076 -0.048999999
10.5715 17.005501 -0.0385
10.75 17.01 -0.041000001
11.861667 17.092335 -0.04066667
11.929 17.084 -0.057
12.5885 17.0205 -0.0405
15.674999 17.038 -0.036499999
19.862 17.027 -0.053499997
22.745001 17.016001 -0.075999998
26.9634 17.089201 -0.045200001
12.599 17.148001 -0.067000002
12.647249 17.151751 -0.044
12.7544 17.153202 -0.040800001
12.855 17.162666 -0.039333336
12.9645 17.150002 -0.024500001
13.036 17.162001 -0.026000001
17.7255 17.157 -0.068999998
26.899 17.1 -0.0070000002
27.053001 17.133499 -0.033
12.869 17.219999 -0.071999997
12.943501 17.2185 -0.072999999
13.0425 17.2215 -0.074500002
15.681 17.2635 -0.041499998
15.752501 17.25 -0.019499999
15.822 17.261999 -0.02
16.096001 17.292 -0.025
16.1675 17.281 -0.026000001
17.761665 17.253002 -0.048666667
15.738501 17.324501 -0.066500001
15.806 17.351 -0.068000004
16.080999 17.381001 -0.072999999
16.153 17.369499 -0.0735
16.219 17.393999 -0.075000003
16.947668 17.390001 -0.070333332
17.033501 17.384251 -0.063499995
17.1588 17.3834 -0.07
17.262501 17.389999 -0.090000004
17.346334 17.391003 -0.076000005
17.798 17.354 -0.0060000001
17.866001 17.358 -0.0070000002
19.125 17.399 -0.027000001
17.101999 17.402 -0.041999999
17.261501 17.408001 -0.044500001
17.372999 17.43 -0.046999998
17.790001 17.4265 -0.075999998
17.858 17.429501 -0.076499999
19.075001 17.4585 -0.050000001
19.151669 17.469334 -0.059
19.945 17.476751 -0.052500002
20.058498 17.483501 -0.065499999
20.172001 17.487 -0.090000004
20.216999 17.486 -0.090999998
28.924999 17.459 -0.092
19.898001 17.5 -0.086000003
19.99 17.521 -0.088
20.057999 17.507 -0.066
20.141335 17.502335 -0.059666671
24.181999 17.582001 -0.048666667
24.276669 17.581669 -0.049999997
24.341 17.593 -0.044
28.917 17.584 -0.045000002
24.253 17.634001 -0.02
24.3915 17.616001 -0.045000002
24.465248 17.63475 -0.046500001
24.557999 17.630751 -0.047499999
24.627001 17.625999 -0.071999997
25.131001 17.65325 -0.057
25.242599 17.662001 -0.054400004
25.347668 17.662666 -0.052999999
25.441999 17.653999 -0.039000001
26.848 17.68 -0.061999999
28.927999 17.620001 -0.093999997
25.358 17.719 -0.085000001
25.435501 17.745998 -0.086999997
26.278 17.7395 -0.030000001
26.352249 17.748749 -0.030999999
26.453001 17.758751 -0.033
26.525 17.754 -0.0099999998
27.268999 17.780001 -0.022
27.344 17.780499 -0.023499999
27.4415 17.7775 -0.024500001
27.514 17.771999 -0.026000001
28.911999 17.7285 -0.071500003
27.290001 17.860001 -0.071000002
27.366001 17.862999 -0.072499998
27.4685 17.878 -0.074500002
27.571335 17.863668 -0.059999999
27.653667 17.858 -0.061000001
28.482 17.823999 -0.041999999
28.568001 17.85 -0.043499999
28.667999 17.845501 -0.044500001
28.75 17.864 -0.046
28.832001 17.877501 -0.047499999
28.908501 17.875999 -0.0735
29.481001 17.893 -0.0089999996
29.534 17.895 -0.0099999998
29.780001 17.85 -0.013
28.568001 17.933001 -0.093000002
28.641001 17.9235 -0.093999997
28.742001 17.92 -0.0955
28.862 17.973499 -0.098499998
29.431999 17.9 -0.0080000004
29.553665 17.953001 -0.044
29.6605 17.95775 -0.036999997
29.737999 17.9555 -0.038000003
29.784 18.011999 -0.064000003
22.940001 18.3325 -0.057499997
23.015499 18.3675 -0.035500001
23.325249 18.3645 -0.039999999
-20.959 19.048 -0.064000003
23.968 -12.603 0.0080000004
12.483 -12.525 0
13.894 -12.532 0.001
13.952333 -12.531001 0.011333333
14.018 -12.533 0.0080000004
14.676455 -12.532455 0.022
14.738637 -12.527093 0.030818181
15.88325 -12.511001 0.061999999
15.947792 -12.51928 0.036837209
16.051327 -12.514152 0.035869561
16.123835 -12.514555 0.022500001
16.271912 -12.516 0.043136362
16.345251 -12.51123 0.03384091
16.450848 -12.513655 0.034211539
16.549627 -12.513299 0.031750001
16.620001 -12.51243 0.015214287
17.09 -12.50425 0.040750001
17.138733 -12.507534 0.038333334
17.258335 -12.507335 0.028666666
17.319668 -12.506332 0.035999998
17.445 -12.505 0.037
17.509001 -12.501 0.032000002
23.977373 -12.541547 0.040516123
24.0445 -12.502501 0.035
24.108999 -12.503 0.077
5.3220005 -12.434001 0.017333334
10.062716 -12.436285 0.040928569
12.3786 -12.4662 0.0482
12.457001 -12.451077 0.051615383
12.548941 -12.450824 0.056117646
12.635 -12.452857 0.034571432
13.972 -12.493 0.031999998
14.059308 -12.453616 0.059230775
14.1 -12.438 0.064999998
14.693 -12.482 0.044
14.739679 -12.438595 0.050212756
14.83175 -12.446375 0.066874996
15.893 -12.482 0.071000002
15.945912 -12.447767 0.048053578
16.055286 -12.458571 0.084357157
16.153 -12.45225 0.075250007
16.275078 -12.444014 0.046507686
16.343681 -12.451727 0.074545443
16.438799 -12.4666 0.072040007
16.556936 -12.469719 0.070562504
16.622999 -12.448999 0.071888894
17.086622 -12.478188 0.060624998
17.149525 -12.463992 0.044494506
17.250345 -12.474225 0.046011239
17.351938 -12.469238 0.045630954
17.44548 -12.472857 0.042433325
17.549812 -12.466898 0.041367348
17.650137 -12.465605 0.039843746
17.750652 -12.462947 0.040570002
17.844618 -12.46254 0.036573038
17.909 -12.4585 0.0095000006
18.288315 -12.439738 0.043973681
18.349009 -12.440876 0.041111108
18.448406 -12.44017 0.038555548
18.543367 -12.431525 0.04035186
19.040476 -12.427474 0.019571429
19.565321 -12.412041 0.032973334
19.649763 -12.414419 0.033213679
19.750566 -12.414285 0.029221246
19.848593 -12.413754 0.032068629
19.948784 -12.415118 0.030478267
20.051579 -12.416594 0.031754717
20.139977 -12.414946 0.034746468
20.248697 -12.417508 0.036176994
20.350151 -12.418504 0.039975423
20.450502 -12.428862 0.037042379
20.892 -12.412443 0.040555555
20.945435 -12.418162 0.027249997
21.049488 -12.421569 0.021216216
21.148594 -12.42926 0.012962962
21.251499 -12.43235 0.0090499995
21.341351 -12.437564 0.0099130431
21.453321 -12.440929 0.0067142863
21.548216 -12.436644 0.012785715
21.646856 -12.439108 0.0084285717
21.707716 -12.440858 0.0067142863
22.062252 -12.435335 0.010083333
22.145668 -12.430879 0.010515152
22.243376 -12.428437 0.010125
22.321268 -12.430267 0.0090666665
22.783901 -12.4257 0.015400002
22.820501 -12.424999 0.017083334
23.982964 -12.490618 0.051923074
24.04837 -12.468638 0.048999988
24.109249 -12.486501 0.089750007
24.754091 -12.422757 0.038272727
24.850246 -12.428543 0.03556522
24.948286 -12.42569 0.037499998
25.044165 -12.425667 0.039380953
25.145323 -12.426227 0.039909095
25.240696 -12.421139 0.049305562
28.749001 -12.421 0.041000001
5.3551431 -12.345788 0.049500007
10.062582 -12.355543 0.052958339
14.740123 -12.348704 0.050843753
15.949714 -12.351676 0.051064942
16.275715 -12.390286 0.089571431
17.135447 -12.348297 0.046202116
17.288 -12.394 0.094999999
17.3594 -12.394801 0.096799999
17.4545 -12.391624 0.094374999
17.550461 -12.391924 0.094153851
17.657417 -12.389418 0.093250006
17.738535 -12.385467 0.093333341
17.853945 -12.3825 0.09255556
17.907667 -12.381332 0.092666671
18.295952 -12.356502 0.047600001
18.313353 -12.345544 0.05370589
18.453199 -12.367552 0.092900001
18.551775 -12.365165 0.090944447
18.606998 -12.3575 0.093999997
19.066 -12.4 0.012
19.549009 -12.366862 0.055915378
19.650469 -12.387698 0.07071875
19.748266 -12.386561 0.07372386
19.851206 -12.388483 0.068690322
19.947632 -12.389576 0.070247725
20.051708 -12.388124 0.067884304
20.141171 -12.388269 0.070705861
20.250046 -12.388399 0.069830157
20.350946 -12.38974 0.073390819
20.453835 -12.381944 0.071039632
20.512691 -12.334799 0.040733334
20.888891 -12.385322 0.062178575
20.950312 -12.38569 0.059950322
21.047638 -12.383455 0.058115859
21.149509 -12.381183 0.059702873
21.249714 -12.379873 0.057476733
21.351137 -12.3748 0.059689272
21.452072 -12.37403 0.059714299
21.548656 -12.37219 0.060253322
21.656326 -12.368752 0.057550527
21.706617 -12.361525 0.070619054
21.992001 -12.35 0.045000002
22.051239 -12.359238 0.062130086
22.150425 -12.358453 0.064016126
22.246853 -12.35477 0.062230092
22.758549 -12.34316 0.05983505
22.838877 -12.337473 0.0737639
24.030113 -12.363167 0.039999999
24.665777 -12.348557 0.091222219
24.7554 -12.3562 0.088899992
24.839602 -12.357401 0.089600004
24.953667 -12.364554 0.090111114
25.039801 -12.370999 0.088600002
25.175341 -12.336282 0.048218749
25.2323 -12.3761 0.056499999
28.678371 -12.347535 0.043166667
28.726698 -12.328401 0.080299996
5.3625383 -12.250309 0.046384618
10.057463 -12.254693 0.050961539
10.988 -12.211 0
11.133 -12.202 0.0060000001
13.582858 -12.205715 0.04542857
14.55525 -12.230667 0.039416671
14.6474 -12.228801 0.029850001
14.740969 -12.250051 0.049766656
15.95132 -12.2836 0.047360003
16.892 -12.254333 0.044
16.958666 -12.227061 0.033030305
17.047201 -12.222468 0.027530611
17.124025 -12.250513 0.050706424
18.084251 -12.20825 0.024999999
18.101999 -12.211 0
18.296669 -12.238592 0.044629626
18.303379 -12.254027 0.050402608
19.517374 -12.248677 0.050118279
20.51807 -12.258073 0.067464292
21.6924 -12.251135 0.048447769
21.702 -12.2795 0.087499999
22.785856 -12.267525 0.024761908
22.853312 -12.24228 0.0456875
25.173113 -12.249149 0.047708329
26.351067 -12.24113 0.050826088
28.68825 -12.295 0.02375
28.73457 -12.249523 0.048404764
6.3940001 -12.156 0.090000004
6.4495001 -12.168 0.078999996
8.9342012 -12.132102 0.052600004
10.058374 -12.185751 0.059999999
10.97875 -12.16825 0.043250002
11.055455 -12.157 0.056545459
11.147287 -12.156001 0.056428567
13.367667 -12.138834 0.042999998
13.454279 -12.133611 0.03833333
13.56679 -12.155497 0.052634623
13.6 -12.122 0.074000001
14.56425 -12.1925 0.084000006
14.651924 -12.183001 0.080384612
14.725801 -12.1851 0.079800002
16.971714 -12.184999 0.077904761
17.049845 -12.179719 0.079025649
17.117599 -12.182799 0.076349996
18.081144 -12.165429 0.074857146
18.159477 -12.142391 0.046257142
18.258886 -12.144144 0.046281245
18.302725 -12.161612 0.062888898
19.498001 -12.137668 0.085666671
19.508276 -12.164323 0.061175
20.548735 -12.134832 0.035287037
21.686913 -12.150014 0.044448715
21.744921 -12.112736 0.014061226
21.832043 -12.111916 0.012875001
22.874027 -12.147673 0.050105765
25.16844 -12.149974 0.048845079
25.249001 -12.101 0.0020000001
26.345108 -12.150038 0.045472715
28.740473 -12.151639 0.054444443
28.840168 -12.139 0.023000002
8.9458008 -12.073733 0.053133335
13.4585 -12.088167 0.090833336
13.535749 -12.09325 0.088500001
18.165602 -12.094601 0.094399996
18.247581 -12.092263 0.090263151
18.30225 -12.094501 0.094249994
19.520939 -12.038671 0.041285712
20.55188 -12.087364 0.081365839
21.687344 -12.077097 0.069097571
21.749239 -12.069903 0.06168833
21.825293 -12.065722 0.060043477
22.878611 -12.061291 0.057541177
25.172152 -12.067756 0.061311115
25.248047 -12.061441 0.0455814
25.3195 -12.08425 0.023
26.34609 -12.054018 0.047214292
28.747 -12.093666 0.09133333
29.883686 -12.043475 0.046105258
29.905001 -12.0105 0.072500005
15.664 -11.971 0.028999999
15.746273 -11.91891 0.043636367
15.804 -11.908 0.039999999
19.26 -11.919833 0.019166667
19.514963 -11.947706 0.048282821
22.827072 -11.937721 0.039972227
26.335331 -11.950701 0.049350869
29.883905 -11.960856 0.04595238
29.900999 -11.961 0.098999999
12.190001 -11.820333 0.056999996
12.243 -11.808001 0.066500001
15.769142 -11.881215 0.08157143
15.824 -11.878501 0.079499997
19.277533 -11.850754 0.049877539
19.349501 -11.821549 0.025803931
19.4562 -11.817601 0.021288659
19.504765 -11.857885 0.055370368
22.821817 -11.849548 0.049786311
26.336092 -11.848377 0.048328124
26.43725 -11.814999 0.0098749995
12.176 -11.793 0.086999997
12.2565 -11.785999 0.090499997
12.3245 -11.783501 0.085500002
19.288801 -11.773601 0.094999991
19.356039 -11.776875 0.07281357
19.453573 -11.771358 0.06565465
19.5016 -11.785399 0.079000004
22.828259 -11.74249 0.043246903
22.948322 -11.71754 0.018699998
23.034937 -11.718167 0.019527778
23.103001 -11.736 0.041000001
26.350418 -11.776293 0.070124999
26.430231 -11.784616 0.041769236
1.9591999 -11.658101 0.055399995
2.0300002 -11.6075 0.0175
22.847195 -11.674909 0.07044898
22.950033 -11.674532 0.068247199
23.03236 -11.673799 0.070040002
1.96 -11.586 0.097000003
2.0444546 -11.538273 0.045363639
13.596001 -11.524 0.071000002
13.609778 -11.512111 0.05055555
29.857 -11.524294 0.057000004
10.081667 -11.405334 0.046333335
13.593637 -11.447547 0.060090918
13.611775 -11.454062 0.050979584
29.864845 -11.469842 0.048
29.936169 -11.444834 0.050499998
30.018002 -11.452499 0.064999998
30.144598 -11.472201 0.057599999
0.82666671 -11.332 0.03716667
5.3931999 -11.3428 0.053800005
5.4058576 -11.331143 0.040142857
6.5910001 -11.348819 0.058181819
6.6079998 -11.346 0.018999999
7.7423081 -11.327385 0.048153847
8.892334 -11.360334 0.064666674
8.9154167 -11.328585 0.048083335
9.9636993 -11.313001 0.050900001
10.071606 -11.353929 0.049107146
11.196 -11.336 0.081249997
11.209476 -11.336287 0.049380954
12.485499 -11.328951 0.049499996
12.50325 -11.3275 0.031750001
13.3885 -11.384501 0.061999999
13.4523 -11.3763 0.047499996
13.546462 -11.379656 0.05157692
13.609217 -11.387643 0.053357147
14.753783 -11.317348 0.043130439
15.911201 -11.3124 0.048000004
17.12775 -11.307 0.075749993
0.76749998 -11.2885 0.017999999
0.833 -11.279 0.071000002
5.385273 -11.238274 0.046
5.4050002 -11.254801 0.042800006
6.4130001 -11.2055 0.048749998
6.5701585 -11.251842 0.054368421
6.5999999 -11.246 0.041999999
7.5854998 -11.2015 0.0495
7.7350006 -11.24805 0.053333335
8.920001 -11.247721 0.051600002
11.198 -11.245 0.015
11.215731 -11.247838 0.055513505
12.487838 -11.247136 0.047054049
12.5069 -11.267301 0.039500002
14.762413 -11.248816 0.048421066
15.963191 -11.241386 0.048386369
17.182467 -11.237453 0.051492959
17.202072 -11.217287 0.045857143
19.450274 -11.21991 0.033545453
21.694187 -11.212938 0.0555625
