ply
format ascii 1.0
element vertex 2321
property float x
property float y
property float z
end_header
-7.28 -3.337 1.185 
-7.259 -3.328 1.167 
-7.254 -3.325 1.152 
-7.246 -3.322 1.137 
-7.239 -3.318 1.121 
-7.259 -3.327 1.11 
-7.252 -3.324 1.095 
-7.249 -3.323 1.081 
-7.246 -3.322 1.066 
-7.243 -3.32 1.051 
-7.241 -3.319 1.037 
-7.238 -3.318 1.022 
-7.244 -3.32 1.009 
-7.333 -3.378 1.498 
-7.317 -3.37 1.48 
-7.328 -3.376 1.468 
-7.331 -3.377 1.454 
-7.324 -3.373 1.438 
-7.331 -3.377 1.425 
-7.32 -3.371 1.408 
-7.317 -3.37 1.393 
-7.333 -3.378 1.382 
-7.322 -3.372 1.365 
-7.306 -3.365 1.348 
-7.326 -3.374 1.337 
-7.324 -3.373 1.322 
-7.326 -3.374 1.308 
-7.332 -3.377 1.295 
-7.321 -3.372 1.279 
-7.332 -3.377 1.266 
-7.325 -3.374 1.25 
-7.309 -3.366 1.233 
-7.32 -3.371 1.221 
-7.298 -3.361 1.203 
-7.281 -3.353 1.186 
-7.261 -3.344 1.168 
-7.257 -3.342 1.153 
-7.248 -3.338 1.138 
-7.223 -3.326 1.12 
-7.217 -3.324 1.105 
-7.214 -3.322 1.09 
-7.221 -3.325 1.077 
-7.227 -3.328 1.064 
-7.229 -3.329 1.05 
-7.22 -3.325 1.035 
-7.213 -3.321 1.02 
-7.224 -3.326 1.007 
-7.327 -3.39 1.498 
-7.339 -3.396 1.486 
-7.341 -3.397 1.472 
-7.334 -3.394 1.455 
-7.327 -3.39 1.44 
-7.329 -3.391 1.426 
-7.323 -3.388 1.41 
-7.316 -3.385 1.394 
-7.327 -3.39 1.382 
-7.325 -3.389 1.367 
-7.323 -3.388 1.352 
-7.334 -3.393 1.34 
-7.331 -3.392 1.325 
-7.347 -3.399 1.313 
-7.331 -3.392 1.296 
-7.338 -3.395 1.282 
-7.317 -3.385 1.265 
-7.319 -3.386 1.25 
-7.33 -3.391 1.238 
-7.328 -3.39 1.223 
-7.31 -3.382 1.206 
-7.292 -3.374 1.189 
-7.281 -3.369 1.173 
-7.249 -3.354 1.153 
-7.226 -3.343 1.135 
-7.235 -3.347 1.123 
-7.202 -3.332 1.103 
-7.203 -3.332 1.09 
-7.205 -3.333 1.076 
-7.207 -3.334 1.062 
-7.199 -3.33 1.047 
-7.201 -3.331 1.033 
-7.207 -3.334 1.02 
-7.204 -3.333 1.005 
-7.333 -3.409 1.486 
-7.335 -3.41 1.472 
-7.338 -3.411 1.457 
-7.335 -3.409 1.442 
-7.328 -3.406 1.426 
-7.335 -3.409 1.413 
-7.319 -3.402 1.396 
-7.339 -3.411 1.385 
-7.341 -3.412 1.371 
-7.33 -3.407 1.354 
-7.323 -3.404 1.339 
-7.334 -3.409 1.326 
-7.332 -3.408 1.311 
-7.325 -3.405 1.296 
-7.323 -3.404 1.281 
-7.334 -3.409 1.268 
-7.327 -3.405 1.253 
-7.338 -3.41 1.24 
-7.344 -3.413 1.227 
-7.311 -3.398 1.207 
-7.301 -3.393 1.191 
-7.274 -3.381 1.172 
-7.255 -3.372 1.155 
-7.255 -3.372 1.141 
-7.222 -3.356 1.121 
-7.21 -3.351 1.106 
-7.197 -3.345 1.09 
-7.179 -3.336 1.073 
-7.187 -3.34 1.06 
-7.189 -3.341 1.046 
-7.186 -3.34 1.032 
-7.183 -3.338 1.017 
-7.185 -3.339 1.003 
-7.344 -3.429 1.489 
-7.346 -3.431 1.475 
-7.322 -3.419 1.455 
-7.329 -3.422 1.442 
-7.336 -3.426 1.429 
-7.339 -3.427 1.415 
-7.35 -3.432 1.403 
-7.324 -3.42 1.383 
-7.345 -3.43 1.373 
-7.342 -3.428 1.358 
-7.326 -3.421 1.34 
-7.342 -3.428 1.329 
-7.339 -3.427 1.314 
-7.333 -3.424 1.298 
-7.339 -3.427 1.285 
-7.346 -3.43 1.271 
-7.321 -3.418 1.253 
-7.336 -3.425 1.241 
-7.32 -3.418 1.224 
-7.325 -3.42 1.21 
-7.306 -3.411 1.193 
-7.29 -3.404 1.176 
-7.268 -3.393 1.158 
-7.249 -3.384 1.141 
-7.235 -3.378 1.124 
-7.215 -3.368 1.107 
-7.19 -3.357 1.089 
-7.18 -3.352 1.074 
-7.155 -3.34 1.056 
-7.161 -3.343 1.043 
-7.171 -3.348 1.03 
-7.168 -3.347 1.016 
-7.166 -3.345 1.002 
-7.342 -3.444 1.49 
-7.343 -3.445 1.475 
-7.339 -3.443 1.46 
-7.354 -3.45 1.448 
-7.352 -3.449 1.433 
-7.349 -3.448 1.418 
-7.335 -3.441 1.401 
-7.354 -3.45 1.39 
-7.334 -3.44 1.372 
-7.341 -3.444 1.359 
-7.343 -3.445 1.345 
-7.346 -3.446 1.33 
-7.333 -3.44 1.314 
-7.34 -3.443 1.3 
-7.337 -3.442 1.286 
-7.339 -3.443 1.271 
-7.333 -3.44 1.256 
-7.339 -3.443 1.242 
-7.341 -3.444 1.228 
-7.334 -3.44 1.213 
-7.322 -3.435 1.196 
-7.295 -3.422 1.178 
-7.276 -3.413 1.16 
-7.261 -3.406 1.144 
-7.235 -3.394 1.125 
-7.225 -3.389 1.11 
-7.209 -3.381 1.093 
-7.181 -3.368 1.075 
-7.177 -3.366 1.06 
-7.159 -3.358 1.043 
-7.13 -3.344 1.025 
-7.14 -3.349 1.013 
-7.345 -3.461 1.492 
-7.348 -3.462 1.478 
-7.341 -3.459 1.462 
-7.343 -3.46 1.448 
-7.346 -3.461 1.433 
-7.343 -3.46 1.418 
-7.342 -3.46 1.404 
-7.34 -3.459 1.389 
-7.355 -3.466 1.377 
-7.366 -3.471 1.364 
-7.351 -3.464 1.347 
-7.344 -3.461 1.331 
-7.342 -3.459 1.316 
-7.338 -3.458 1.301 
-7.341 -3.459 1.287 
-7.338 -3.458 1.272 
-7.322 -3.45 1.255 
-7.338 -3.457 1.243 
-7.344 -3.46 1.23 
-7.342 -3.459 1.215 
-7.339 -3.458 1.2 
-7.323 -3.451 1.183 
-7.284 -3.432 1.163 
-7.264 -3.423 1.145 
-7.243 -3.413 1.128 
-7.237 -3.41 1.112 
-7.216 -3.4 1.095 
-7.181 -3.384 1.076 
-7.183 -3.384 1.062 
-7.152 -3.37 1.043 
-7.142 -3.365 1.028 
-7.134 -3.361 1.013 
-7.365 -3.487 1.497 
-7.358 -3.484 1.481 
-7.374 -3.491 1.47 
-7.359 -3.484 1.452 
-7.369 -3.489 1.439 
-7.351 -3.48 1.421 
-7.355 -3.482 1.407 
-7.364 -3.486 1.394 
-7.35 -3.48 1.377 
-7.355 -3.482 1.364 
-7.345 -3.477 1.347 
-7.355 -3.482 1.334 
-7.344 -3.477 1.318 
-7.355 -3.481 1.305 
-7.344 -3.477 1.289 
-7.342 -3.475 1.274 
-7.353 -3.48 1.261 
-7.34 -3.475 1.245 
-7.338 -3.473 1.23 
-7.34 -3.474 1.216 
-7.342 -3.475 1.202 
-7.335 -3.472 1.186 
-7.323 -3.466 1.17 
-7.298 -3.454 1.151 
-7.26 -3.436 1.131 
-7.229 -3.422 1.112 
-7.215 -3.415 1.096 
-7.195 -3.406 1.079 
-7.177 -3.397 1.062 
-7.166 -3.392 1.046 
-7.14 -3.379 1.028 
-7.115 -3.367 1.011 
-7.343 -3.492 1.246 
-7.352 -3.496 1.233 
-7.356 -3.498 1.219 
-7.355 -3.497 1.205 
-7.348 -3.494 1.189 
-7.352 -3.496 1.175 
-7.356 -3.497 1.161 
-7.264 -3.454 1.133 
-7.251 -3.448 1.116 
-7.227 -3.436 1.098 
-7.196 -3.421 1.08 
-7.203 -3.425 1.067 
-7.166 -3.407 1.047 
-7.143 -3.396 1.03 
-7.123 -3.386 1.013 
-7.251 -3.462 1.117 
-7.253 -3.464 1.103 
-7.205 -3.441 1.082 
-7.198 -3.437 1.067 
-7.177 -3.427 1.049 
-7.154 -3.416 1.032 
-7.127 -3.403 1.014 
-7.123 -3.401 1 
-7.21 -3.459 1.084 
-7.193 -3.45 1.067 
-7.189 -3.448 1.052 
-7.15 -3.43 1.032 
-7.144 -3.427 1.017 
-7.119 -3.414 1 
-7.178 -3.459 1.051 
-7.173 -3.456 1.037 
-7.15 -3.445 1.019 
-7.129 -3.435 1.002 
-7.165 -3.467 1.036 
-7.144 -3.457 1.019 
-7.136 -3.453 1.004 
-7.141 -3.471 1.006 
-4.402 -3.89 1.016 
-4.409 -3.897 1.007 
-4.392 -3.896 1.026 
-4.389 -3.892 1.014 
-4.404 -3.906 1.007 
-4.381 -3.899 1.046 
-4.379 -3.897 1.035 
-4.385 -3.902 1.026 
-4.383 -3.9 1.015 
-4.391 -3.908 1.006 
-4.362 -3.896 1.053 
-4.359 -3.893 1.042 
-4.386 -3.917 1.038 
-4.375 -3.907 1.025 
-4.372 -3.905 1.014 
-4.37 -3.902 1.003 
-4.349 -3.898 1.073 
-4.337 -3.887 1.059 
-4.367 -3.913 1.056 
-4.365 -3.912 1.045 
-4.355 -3.903 1.032 
-4.364 -3.911 1.024 
-4.365 -3.912 1.014 
-4.363 -3.91 1.003 
-4.343 -3.906 1.073 
-4.352 -3.914 1.065 
-4.357 -3.919 1.055 
-4.347 -3.91 1.042 
-4.345 -3.908 1.031 
-4.357 -3.919 1.024 
-4.347 -3.91 1.011 
-4.356 -3.918 1.003 
-4.33 -3.908 1.103 
-4.324 -3.903 1.091 
-4.338 -3.915 1.084 
-4.336 -3.914 1.073 
-4.334 -3.912 1.062 
-4.335 -3.913 1.052 
-4.329 -3.908 1.04 
-4.334 -3.912 1.031 
-4.339 -3.917 1.021 
-4.337 -3.914 1.01 
-4.297 -3.892 1.107 
-4.31 -3.904 1.1 
-4.337 -3.928 1.096 
-4.313 -3.907 1.079 
-4.326 -3.918 1.072 
-4.316 -3.909 1.059 
-4.328 -3.92 1.052 
-4.319 -3.912 1.039 
-4.327 -3.92 1.031 
-4.325 -3.917 1.02 
-4.323 -3.915 1.009 
-4.287 -3.896 1.116 
-4.313 -3.92 1.113 
-4.311 -3.918 1.102 
-4.316 -3.923 1.092 
-4.303 -3.911 1.079 
-4.312 -3.919 1.07 
-4.313 -3.92 1.06 
-4.314 -3.921 1.05 
-4.308 -3.916 1.038 
-4.299 -3.907 1.025 
-4.315 -3.922 1.019 
-4.316 -3.923 1.009 
-4.295 -3.917 1.141 
-4.3 -3.922 1.132 
-4.301 -3.922 1.122 
-4.281 -3.904 1.106 
-4.308 -3.929 1.102 
-4.291 -3.914 1.088 
-4.304 -3.925 1.08 
-4.294 -3.916 1.068 
-4.292 -3.914 1.057 
-4.297 -3.919 1.047 
-4.287 -3.91 1.035 
-4.307 -3.928 1.029 
-4.286 -3.909 1.014 
-4.306 -3.927 1.008 
-4.27 -3.908 1.157 
-4.288 -3.925 1.152 
-4.281 -3.919 1.139 
-4.289 -3.926 1.131 
-4.295 -3.93 1.122 
-4.271 -3.909 1.105 
-4.283 -3.92 1.098 
-4.281 -3.918 1.087 
-4.286 -3.922 1.078 
-4.287 -3.924 1.068 
-4.27 -3.908 1.053 
-4.268 -3.906 1.042 
-4.291 -3.927 1.037 
-4.274 -3.912 1.023 
-4.287 -3.923 1.015 
-4.281 -3.918 1.003 
-4.269 -3.921 1.169 
-4.279 -3.93 1.161 
-4.284 -3.935 1.152 
-4.27 -3.922 1.138 
-4.283 -3.933 1.131 
-4.266 -3.918 1.116 
-4.275 -3.926 1.108 
-4.265 -3.917 1.095 
-4.274 -3.925 1.087 
-4.264 -3.917 1.074 
-4.273 -3.924 1.066 
-4.264 -3.916 1.053 
-4.257 -3.91 1.041 
-4.274 -3.925 1.035 
-4.282 -3.933 1.026 
-4.265 -3.917 1.012 
-4.274 -3.925 1.003 
-4.255 -3.922 1.188 
-4.252 -3.919 1.177 
-4.26 -3.927 1.169 
-4.253 -3.92 1.156 
-4.266 -3.931 1.149 
-4.263 -3.929 1.138 
-4.258 -3.924 1.126 
-4.245 -3.912 1.112 
-4.257 -3.923 1.105 
-4.255 -3.921 1.094 
-4.256 -3.923 1.084 
-4.261 -3.927 1.075 
-4.255 -3.922 1.063 
-4.264 -3.93 1.055 
-4.255 -3.921 1.042 
-4.252 -3.919 1.031 
-4.261 -3.927 1.023 
-4.262 -3.928 1.013 
-4.256 -3.922 1.001 
-4.222 -3.905 1.192 
-4.234 -3.916 1.184 
-4.256 -3.936 1.18 
-4.245 -3.926 1.166 
-4.254 -3.934 1.158 
-4.244 -3.926 1.145 
-4.239 -3.92 1.133 
-4.247 -3.928 1.125 
-4.241 -3.923 1.113 
-4.243 -3.924 1.103 
-4.241 -3.922 1.092 
-4.242 -3.923 1.082 
-4.24 -3.921 1.071 
-4.238 -3.92 1.06 
-4.25 -3.931 1.053 
-4.247 -3.929 1.042 
-4.249 -3.93 1.032 
-4.25 -3.931 1.022 
-4.259 -3.939 1.014 
-4.237 -3.934 1.484 
-4.255 -3.95 1.479 
-4.231 -3.927 1.46 
-4.253 -3.949 1.447 
-4.248 -3.944 1.434 
-4.231 -3.928 1.418 
-4.254 -3.949 1.404 
-4.23 -3.926 1.343 
-4.234 -3.93 1.218 
-4.228 -3.924 1.205 
-4.247 -3.942 1.2 
-4.228 -3.924 1.185 
-4.233 -3.929 1.176 
-4.227 -3.924 1.163 
-4.236 -3.932 1.155 
-4.227 -3.923 1.142 
-4.232 -3.928 1.133 
-4.216 -3.913 1.119 
-4.231 -3.927 1.112 
-4.229 -3.925 1.101 
-4.224 -3.92 1.09 
-4.239 -3.934 1.083 
-4.237 -3.932 1.072 
-4.232 -3.927 1.06 
-4.233 -3.929 1.05 
-4.255 -3.949 1.046 
-4.242 -3.937 1.032 
-4.233 -3.929 1.019 
-4.238 -3.933 1.01 
-4.23 -3.941 1.495 
-4.231 -3.942 1.484 
-4.242 -3.951 1.477 
-4.236 -3.946 1.464 
-4.224 -3.935 1.45 
-4.219 -3.93 1.437 
-4.221 -3.932 1.427 
-4.233 -3.943 1.421 
-4.234 -3.944 1.41 
-4.226 -3.936 1.397 
-4.227 -3.937 1.387 
-4.229 -3.94 1.377 
-4.234 -3.944 1.368 
-4.221 -3.932 1.353 
-4.234 -3.944 1.346 
-4.238 -3.948 1.337 
-4.229 -3.94 1.324 
-4.217 -3.928 1.309 
-4.222 -3.933 1.3 
-4.219 -3.93 1.289 
-4.22 -3.931 1.279 
-4.244 -3.953 1.275 
-4.211 -3.922 1.244 
-4.205 -3.917 1.232 
-4.208 -3.92 1.223 
-4.226 -3.936 1.217 
-4.229 -3.939 1.208 
-4.223 -3.933 1.196 
-4.221 -3.932 1.185 
-4.233 -3.943 1.178 
-4.22 -3.931 1.163 
-4.229 -3.939 1.155 
-4.195 -3.908 1.136 
-4.184 -3.897 1.122 
-4.184 -3.897 1.112 
-4.214 -3.925 1.11 
-4.219 -3.93 1.101 
-4.217 -3.928 1.09 
-4.228 -3.938 1.082 
-4.223 -3.933 1.071 
-4.228 -3.937 1.061 
-4.233 -3.942 1.052 
-4.223 -3.933 1.039 
-4.222 -3.932 1.029 
-4.219 -3.93 1.018 
-4.228 -3.937 1.009 
-4.233 -3.942 1 
-4.232 -3.956 1.498 
-4.23 -3.954 1.486 
-4.221 -3.946 1.472 
-4.227 -3.951 1.464 
-4.225 -3.95 1.452 
-4.223 -3.948 1.441 
-4.229 -3.953 1.432 
-4.227 -3.952 1.421 
-4.218 -3.943 1.407 
-4.216 -3.942 1.396 
-4.229 -3.953 1.39 
-4.227 -3.952 1.378 
-4.236 -3.96 1.371 
-4.233 -3.957 1.359 
-4.227 -3.952 1.347 
-4.228 -3.952 1.336 
-4.24 -3.964 1.329 
-4.226 -3.95 1.314 
-4.234 -3.957 1.306 
-4.235 -3.958 1.296 
-4.247 -3.97 1.289 
-4.235 -3.959 1.275 
-4.224 -3.948 1.261 
-4.227 -3.951 1.251 
-4.223 -3.948 1.24 
-4.215 -3.94 1.227 
-4.213 -3.938 1.216 
-4.215 -3.939 1.206 
-4.205 -3.931 1.193 
-4.203 -3.929 1.182 
-4.205 -3.93 1.172 
-4.21 -3.935 1.162 
-4.211 -3.936 1.152 
-4.185 -3.912 1.135 
-4.179 -3.906 1.123 
-4.173 -3.901 1.111 
-4.189 -3.916 1.105 
-4.205 -3.93 1.099 
-4.224 -3.948 1.093 
-4.201 -3.926 1.077 
-4.23 -3.954 1.074 
-4.199 -3.925 1.056 
-4.212 -3.937 1.049 
-4.22 -3.945 1.04 
-4.215 -3.939 1.029 
-4.212 -3.937 1.018 
-4.221 -3.945 1.009 
-4.201 -3.941 1.5 
-4.2 -3.94 1.489 
-4.208 -3.948 1.481 
-4.21 -3.95 1.471 
-4.206 -3.945 1.459 
-4.208 -3.947 1.449 
-4.209 -3.949 1.439 
-4.21 -3.949 1.428 
-4.213 -3.952 1.419 
-4.208 -3.947 1.406 
-4.22 -3.959 1.4 
-4.204 -3.943 1.384 
-4.209 -3.948 1.375 
-4.211 -3.951 1.365 
-4.21 -3.949 1.354 
-4.211 -3.95 1.344 
-4.202 -3.942 1.33 
-4.208 -3.947 1.321 
-4.223 -3.961 1.315 
-4.214 -3.954 1.302 
-4.223 -3.962 1.294 
-4.214 -3.953 1.281 
-4.216 -3.955 1.271 
-4.214 -3.953 1.26 
-4.223 -3.961 1.252 
-4.206 -3.946 1.237 
-4.201 -3.941 1.225 
-4.189 -3.929 1.211 
-4.19 -3.931 1.201 
-4.195 -3.935 1.192 
-4.19 -3.93 1.18 
-4.198 -3.938 1.172 
-4.203 -3.942 1.162 
-4.208 -3.947 1.153 
-4.189 -3.929 1.138 
-4.183 -3.924 1.126 
-4.174 -3.915 1.113 
-4.182 -3.923 1.105 
-4.202 -3.941 1.1 
-4.203 -3.942 1.09 
-4.201 -3.94 1.079 
-4.199 -3.938 1.068 
-4.196 -3.936 1.057 
-4.194 -3.934 1.046 
-4.196 -3.935 1.036 
-4.208 -3.947 1.029 
-4.191 -3.931 1.014 
-4.196 -3.936 1.005 
-4.195 -3.949 1.5 
-4.207 -3.961 1.494 
-4.198 -3.953 1.48 
-4.197 -3.951 1.469 
-4.187 -3.942 1.455 
-4.183 -3.938 1.443 
-4.199 -3.953 1.437 
-4.197 -3.951 1.426 
-4.195 -3.95 1.415 
-4.197 -3.952 1.405 
-4.195 -3.95 1.394 
-4.194 -3.948 1.383 
-4.199 -3.953 1.374 
-4.204 -3.958 1.365 
-4.192 -3.946 1.35 
-4.194 -3.948 1.34 
-4.199 -3.953 1.331 
-4.211 -3.965 1.325 
-4.199 -3.953 1.31 
-4.207 -3.961 1.302 
-4.206 -3.959 1.291 
-4.211 -3.964 1.282 
-4.205 -3.959 1.27 
-4.2 -3.954 1.258 
-4.187 -3.942 1.244 
-4.185 -3.94 1.233 
-4.18 -3.935 1.221 
-4.185 -3.939 1.212 
-4.186 -3.941 1.202 
-4.174 -3.929 1.188 
-4.183 -3.938 1.18 
-4.181 -3.936 1.169 
-4.186 -3.94 1.16 
-4.184 -3.938 1.149 
-4.193 -3.946 1.141 
-4.187 -3.941 1.129 
-4.178 -3.932 1.116 
-4.192 -3.946 1.109 
-4.19 -3.944 1.098 
-4.203 -3.956 1.091 
-4.183 -3.938 1.076 
-4.185 -3.939 1.066 
-4.19 -3.943 1.057 
-4.187 -3.941 1.046 
-4.192 -3.946 1.037 
-4.19 -3.944 1.026 
-4.195 -3.948 1.017 
-4.185 -3.939 1.004 
-4.181 -3.95 1.498 
-4.19 -3.958 1.49 
-4.181 -3.95 1.476 
-4.186 -3.955 1.468 
-4.181 -3.95 1.455 
-4.169 -3.939 1.44 
-4.185 -3.954 1.435 
-4.176 -3.945 1.421 
-4.178 -3.947 1.411 
-4.173 -3.942 1.399 
-4.185 -3.954 1.393 
-4.187 -3.955 1.383 
-4.184 -3.953 1.371 
-4.179 -3.948 1.359 
-4.195 -3.963 1.353 
-4.176 -3.945 1.337 
-4.178 -3.947 1.327 
-4.183 -3.952 1.318 
-4.188 -3.957 1.309 
-4.183 -3.952 1.297 
-4.188 -3.956 1.288 
-4.186 -3.955 1.277 
-4.174 -3.943 1.263 
-4.165 -3.935 1.25 
-4.17 -3.94 1.241 
-4.161 -3.931 1.228 
-4.169 -3.939 1.219 
-4.172 -3.941 1.21 
-4.17 -3.939 1.199 
-4.16 -3.93 1.186 
-4.165 -3.935 1.177 
-4.174 -3.943 1.169 
-4.168 -3.938 1.157 
-4.166 -3.936 1.146 
-4.171 -3.94 1.137 
-4.176 -3.945 1.128 
-4.174 -3.943 1.117 
-4.184 -3.952 1.109 
-4.181 -3.949 1.098 
-4.182 -3.951 1.088 
-4.169 -3.938 1.074 
-4.17 -3.94 1.064 
-4.179 -3.948 1.056 
-4.195 -3.962 1.05 
-4.182 -3.95 1.036 
-4.183 -3.951 1.026 
-4.181 -3.949 1.015 
-4.175 -3.944 1.003 
-4.167 -3.951 1.495 
-4.165 -3.949 1.484 
-4.171 -3.954 1.475 
-4.176 -3.959 1.466 
-4.174 -3.958 1.455 
-4.176 -3.959 1.445 
-4.164 -3.948 1.43 
-4.162 -3.946 1.419 
-4.168 -3.951 1.41 
-4.166 -3.949 1.399 
-4.171 -3.954 1.39 
-4.169 -3.953 1.379 
-4.171 -3.954 1.369 
-4.169 -3.953 1.358 
-4.171 -3.954 1.348 
-4.169 -3.953 1.337 
-4.174 -3.957 1.328 
-4.169 -3.952 1.316 
-4.164 -3.947 1.304 
-4.165 -3.949 1.294 
-4.174 -3.957 1.286 
-4.155 -3.939 1.269 
-4.163 -3.947 1.261 
-4.155 -3.939 1.248 
-4.156 -3.94 1.239 
-4.151 -3.935 1.226 
-4.167 -3.95 1.221 
-4.161 -3.945 1.209 
-4.163 -3.946 1.199 
-4.157 -3.941 1.187 
-4.159 -3.942 1.177 
-4.164 -3.947 1.168 
-4.162 -3.945 1.157 
-4.167 -3.95 1.148 
-4.161 -3.944 1.136 
-4.177 -3.959 1.13 
-4.18 -3.962 1.12 
-4.18 -3.962 1.11 
-4.163 -3.946 1.095 
-4.154 -3.937 1.082 
-4.162 -3.945 1.074 
-4.16 -3.943 1.063 
-4.165 -3.948 1.054 
-4.176 -3.959 1.047 
-4.168 -3.95 1.034 
-4.169 -3.952 1.024 
-4.178 -3.96 1.016 
-4.168 -3.951 1.003 
-4.201 -3.982 1.001 
-4.149 -3.948 1.491 
-4.158 -3.956 1.484 
-4.15 -3.948 1.47 
-4.151 -3.95 1.46 
-4.153 -3.951 1.45 
-4.152 -3.95 1.439 
-4.15 -3.948 1.428 
-4.152 -3.95 1.418 
-4.161 -3.958 1.41 
-4.155 -3.953 1.398 
-4.157 -3.955 1.388 
-4.155 -3.953 1.377 
-4.161 -3.958 1.368 
-4.162 -3.96 1.358 
-4.157 -3.955 1.346 
-4.152 -3.95 1.333 
-4.157 -3.955 1.325 
-4.159 -3.956 1.315 
-4.16 -3.958 1.305 
-4.149 -3.947 1.29 
-4.143 -3.941 1.278 
-4.152 -3.95 1.271 
-4.15 -3.948 1.26 
-4.144 -3.943 1.247 
-4.15 -3.947 1.239 
-4.144 -3.942 1.226 
-4.146 -3.944 1.217 
-4.151 -3.948 1.208 
-4.145 -3.943 1.196 
-4.14 -3.938 1.184 
-4.145 -3.943 1.175 
-4.146 -3.944 1.165 
-4.151 -3.949 1.156 
-4.153 -3.95 1.146 
-4.158 -3.955 1.137 
-4.152 -3.949 1.125 
-4.153 -3.951 1.115 
-4.141 -3.939 1.101 
-4.153 -3.95 1.094 
-4.158 -3.955 1.085 
-4.145 -3.942 1.071 
-4.156 -3.953 1.064 
-4.157 -3.954 1.054 
-4.149 -3.946 1.041 
-4.16 -3.957 1.034 
-4.152 -3.949 1.022 
-4.167 -3.964 1.015 
-4.168 -3.965 1.005 
-4.142 -3.955 1.491 
-4.144 -3.957 1.481 
-4.146 -3.959 1.471 
-4.141 -3.954 1.459 
-4.143 -3.955 1.449 
-4.152 -3.964 1.441 
-4.154 -3.966 1.431 
-4.14 -3.952 1.416 
-4.14 -3.952 1.405 
-4.145 -3.957 1.397 
-4.136 -3.949 1.383 
-4.145 -3.957 1.376 
-4.136 -3.949 1.362 
-4.145 -3.957 1.354 
-4.147 -3.959 1.345 
-4.138 -3.95 1.331 
-4.154 -3.965 1.326 
-4.141 -3.953 1.311 
-4.136 -3.949 1.299 
-4.128 -3.94 1.286 
-4.133 -3.945 1.277 
-4.127 -3.94 1.265 
-4.139 -3.952 1.258 
-4.13 -3.943 1.245 
-4.136 -3.948 1.236 
-4.134 -3.946 1.225 
-4.139 -3.951 1.217 
-4.133 -3.946 1.204 
-4.131 -3.944 1.194 
-4.129 -3.942 1.183 
-4.131 -3.943 1.173 
-4.136 -3.948 1.164 
-4.144 -3.956 1.156 
-4.128 -3.94 1.141 
-4.137 -3.949 1.133 
-4.131 -3.943 1.121 
-4.136 -3.948 1.112 
-4.144 -3.956 1.104 
-4.142 -3.953 1.093 
-4.146 -3.958 1.084 
-4.138 -3.95 1.071 
-4.135 -3.947 1.06 
-4.14 -3.952 1.051 
-4.148 -3.96 1.043 
-4.15 -3.962 1.033 
-4.148 -3.96 1.022 
-4.142 -3.954 1.011 
-4.143 -3.955 1.001 
-4.127 -3.954 1.499 
-4.122 -3.949 1.486 
-4.134 -3.961 1.48 
-4.118 -3.946 1.464 
-4.127 -3.954 1.456 
-4.136 -3.963 1.449 
-4.134 -3.961 1.438 
-4.122 -3.949 1.423 
-4.134 -3.961 1.417 
-4.14 -3.966 1.408 
-4.128 -3.954 1.393 
-4.136 -3.963 1.386 
-4.127 -3.954 1.372 
-4.147 -3.973 1.368 
-4.131 -3.958 1.352 
-4.133 -3.959 1.342 
-4.128 -3.955 1.33 
-4.126 -3.953 1.319 
-4.131 -3.958 1.31 
-4.122 -3.95 1.297 
-4.117 -3.944 1.285 
-4.119 -3.946 1.275 
-4.11 -3.937 1.262 
-4.122 -3.949 1.255 
-4.116 -3.944 1.243 
-4.114 -3.942 1.232 
-4.12 -3.947 1.223 
-4.128 -3.955 1.215 
-4.112 -3.939 1.2 
-4.124 -3.951 1.194 
-4.119 -3.946 1.182 
-4.134 -3.961 1.176 
-4.129 -3.955 1.164 
-4.123 -3.95 1.152 
-4.117 -3.944 1.14 
-4.126 -3.953 1.132 
-4.124 -3.951 1.121 
-4.132 -3.958 1.113 
-4.123 -3.95 1.1 
-4.137 -3.963 1.094 
-4.129 -3.956 1.081 
-4.127 -3.954 1.07 
-4.125 -3.952 1.06 
-4.13 -3.956 1.051 
-4.131 -3.957 1.041 
-4.133 -3.959 1.031 
-4.145 -3.97 1.023 
-4.132 -3.958 1.01 
-4.137 -3.962 1.001 
-4.109 -3.951 1.495 
-4.104 -3.946 1.482 
-4.124 -3.965 1.479 
-4.125 -3.966 1.469 
-4.106 -3.948 1.451 
-4.112 -3.953 1.443 
-4.113 -3.955 1.433 
-4.108 -3.95 1.421 
-4.11 -3.951 1.411 
-4.122 -3.963 1.404 
-4.114 -3.955 1.391 
-4.115 -3.956 1.381 
-4.114 -3.955 1.37 
-4.113 -3.954 1.359 
-4.118 -3.959 1.35 
-4.116 -3.957 1.339 
-4.107 -3.949 1.326 
-4.098 -3.94 1.312 
-4.114 -3.955 1.307 
-4.105 -3.947 1.294 
-4.114 -3.955 1.286 
-4.115 -3.956 1.276 
-4.103 -3.944 1.262 
-4.104 -3.946 1.252 
-4.113 -3.954 1.244 
-4.111 -3.952 1.233 
-4.095 -3.937 1.218 
-4.107 -3.948 1.211 
-4.105 -3.947 1.2 
-4.103 -3.945 1.189 
-4.112 -3.953 1.182 
-4.106 -3.947 1.17 
-4.108 -3.949 1.16 
-4.109 -3.95 1.15 
-4.107 -3.948 1.139 
-4.112 -3.953 1.13 
-4.106 -3.947 1.118 
-4.117 -3.958 1.111 
-4.122 -3.962 1.102 
-4.109 -3.95 1.088 
-4.111 -3.952 1.078 
-4.11 -3.951 1.068 
-4.122 -3.962 1.06 
-4.12 -3.96 1.05 
-4.124 -3.965 1.041 
-4.119 -3.959 1.029 
-4.12 -3.96 1.019 
-4.128 -3.968 1.011 
-4.099 -3.955 1.494 
-4.101 -3.956 1.484 
-4.099 -3.955 1.473 
-4.105 -3.96 1.464 
-4.099 -3.955 1.451 
-4.101 -3.957 1.442 
-4.09 -3.946 1.427 
-4.101 -3.957 1.421 
-4.097 -3.953 1.408 
-4.102 -3.958 1.4 
-4.093 -3.949 1.386 
-4.102 -3.958 1.379 
-4.104 -3.959 1.369 
-4.109 -3.964 1.36 
-4.099 -3.955 1.346 
-4.098 -3.954 1.336 
-4.09 -3.946 1.322 
-4.091 -3.947 1.312 
-4.093 -3.949 1.303 
-4.095 -3.95 1.293 
-4.089 -3.945 1.281 
-4.091 -3.947 1.271 
-4.085 -3.941 1.259 
-4.094 -3.95 1.251 
-4.096 -3.952 1.241 
-4.101 -3.956 1.232 
-4.095 -3.951 1.22 
-4.083 -3.939 1.206 
-4.088 -3.943 1.197 
-4.089 -3.945 1.187 
-4.101 -3.957 1.181 
-4.092 -3.948 1.168 
-4.092 -3.947 1.157 
-4.102 -3.957 1.15 
-4.1 -3.955 1.139 
-4.105 -3.96 1.13 
-4.096 -3.951 1.117 
-4.101 -3.956 1.108 
-4.109 -3.964 1.1 
-4.125 -3.979 1.094 
-4.116 -3.97 1.081 
-4.117 -3.971 1.071 
-4.111 -3.966 1.06 
-4.109 -3.964 1.049 
-4.114 -3.968 1.04 
-4.105 -3.959 1.027 
-4.11 -3.964 1.018 
-4.104 -3.958 1.006 
-4.092 -3.962 1.494 
-4.094 -3.964 1.484 
-4.089 -3.959 1.471 
-4.094 -3.964 1.463 
-4.092 -3.962 1.451 
-4.091 -3.961 1.44 
-4.086 -3.956 1.428 
-4.101 -3.971 1.423 
-4.083 -3.953 1.406 
-4.085 -3.955 1.396 
-4.093 -3.963 1.389 
-4.095 -3.965 1.379 
-4.086 -3.956 1.365 
-4.103 -3.972 1.36 
-4.1 -3.97 1.349 
-4.091 -3.961 1.336 
-4.083 -3.953 1.322 
-4.084 -3.954 1.312 
-4.079 -3.949 1.3 
-4.081 -3.951 1.29 
-4.075 -3.945 1.278 
-4.08 -3.95 1.27 
-4.082 -3.952 1.26 
-4.08 -3.95 1.249 
-4.082 -3.952 1.239 
-4.08 -3.95 1.228 
-4.078 -3.948 1.217 
-4.079 -3.949 1.207 
-4.077 -3.947 1.196 
-4.072 -3.942 1.184 
-4.084 -3.953 1.178 
-4.089 -3.958 1.169 
-4.076 -3.946 1.155 
-4.078 -3.947 1.145 
-4.079 -3.949 1.135 
-4.084 -3.954 1.126 
-4.078 -3.948 1.114 
-4.087 -3.956 1.106 
-4.088 -3.958 1.096 
-4.097 -3.966 1.088 
-4.102 -3.971 1.079 
-4.121 -3.989 1.074 
-4.109 -3.977 1.061 
-4.106 -3.974 1.05 
-4.089 -3.959 1.035 
-4.087 -3.956 1.024 
-4.088 -3.958 1.015 
-4.097 -3.966 1.006 
-4.08 -3.964 1.492 
-4.09 -3.974 1.485 
-4.077 -3.961 1.47 
-4.071 -3.955 1.457 
-4.079 -3.963 1.449 
-4.081 -3.965 1.439 
-4.086 -3.969 1.43 
-4.081 -3.965 1.418 
-4.089 -3.973 1.411 
-4.071 -3.955 1.394 
-4.083 -3.967 1.387 
-4.085 -3.968 1.378 
-4.076 -3.96 1.364 
-4.081 -3.965 1.355 
-4.087 -3.97 1.347 
-4.085 -3.968 1.336 
-4.086 -3.97 1.326 
-4.069 -3.953 1.31 
-4.079 -3.963 1.303 
-4.063 -3.947 1.287 
-4.055 -3.939 1.274 
-4.056 -3.94 1.264 
-4.068 -3.952 1.258 
-4.07 -3.954 1.248 
-4.075 -3.959 1.239 
-4.069 -3.953 1.227 
-4.078 -3.962 1.219 
-4.086 -3.97 1.211 
-4.063 -3.947 1.194 
-4.072 -3.956 1.186 
-4.07 -3.954 1.175 
-4.047 -3.931 1.159 
-4.04 -3.924 1.146 
-4.036 -3.92 1.135 
-4.065 -3.949 1.133 
-4.07 -3.954 1.124 
-4.086 -3.969 1.118 
-4.073 -3.957 1.104 
-4.071 -3.954 1.094 
-4.076 -3.959 1.085 
-4.077 -3.961 1.075 
-4.098 -3.981 1.07 
-4.109 -3.991 1.062 
-4.107 -3.989 1.052 
-4.09 -3.973 1.037 
-4.087 -3.97 1.026 
-4.085 -3.968 1.015 
-4.093 -3.976 1.007 
-4.059 -3.958 1.497 
-4.058 -3.957 1.486 
-4.069 -3.968 1.48 
-4.065 -3.964 1.468 
-4.063 -3.962 1.457 
-4.065 -3.964 1.447 
-4.067 -3.966 1.437 
-4.072 -3.971 1.428 
-4.074 -3.972 1.418 
-4.069 -3.967 1.406 
-4.066 -3.964 1.394 
-4.073 -3.971 1.386 
-4.067 -3.966 1.374 
-4.062 -3.96 1.362 
-4.071 -3.969 1.354 
-4.065 -3.964 1.342 
-4.062 -3.961 1.331 
-4.076 -3.974 1.325 
-4.081 -3.979 1.316 
-4.058 -3.957 1.298 
-4.039 -3.938 1.282 
-4.054 -3.953 1.276 
-4.056 -3.954 1.266 
-4.04 -3.939 1.251 
-4.049 -3.947 1.243 
-4.054 -3.952 1.235 
-4.054 -3.952 1.224 
-4.056 -3.954 1.215 
-4.06 -3.958 1.205 
-4.054 -3.952 1.193 
-4.058 -3.956 1.184 
-4.056 -3.954 1.173 
-4.036 -3.935 1.158 
-4.031 -3.929 1.146 
-4.029 -3.927 1.135 
-4.051 -3.949 1.131 
-4.063 -3.961 1.124 
-4.058 -3.955 1.112 
-4.056 -3.953 1.102 
-4.06 -3.958 1.093 
-4.069 -3.966 1.085 
-4.06 -3.957 1.072 
-4.06 -3.957 1.062 
-4.068 -3.965 1.054 
-4.097 -3.993 1.051 
-4.079 -3.976 1.036 
-4.07 -3.967 1.024 
-4.068 -3.965 1.013 
-4.065 -3.963 1.002 
-4.059 -3.971 1.5 
-4.058 -3.971 1.489 
-4.063 -3.975 1.48 
-4.055 -3.967 1.466 
-4.05 -3.962 1.454 
-4.055 -3.967 1.446 
-4.057 -3.969 1.436 
-4.052 -3.964 1.423 
-4.053 -3.966 1.413 
-4.059 -3.971 1.405 
-4.053 -3.966 1.393 
-4.055 -3.968 1.383 
-4.06 -3.973 1.374 
-4.052 -3.964 1.361 
-4.057 -3.969 1.352 
-4.062 -3.974 1.343 
-4.05 -3.962 1.329 
-4.055 -3.967 1.32 
-4.071 -3.982 1.315 
-4.062 -3.974 1.301 
-4.06 -3.972 1.29 
-4.034 -3.946 1.272 
-4.035 -3.948 1.262 
-4.03 -3.942 1.25 
-4.038 -3.951 1.242 
-4.036 -3.949 1.231 
-4.028 -3.94 1.218 
-4.051 -3.964 1.215 
-4.045 -3.957 1.203 
-4.036 -3.948 1.19 
-4.048 -3.96 1.183 
-4.042 -3.954 1.171 
-4.024 -3.936 1.156 
-4.031 -3.943 1.148 
-4.018 -3.931 1.134 
-4.048 -3.96 1.132 
-4.049 -3.961 1.122 
-4.051 -3.963 1.112 
-4.045 -3.957 1.101 
-4.043 -3.955 1.09 
-4.048 -3.96 1.081 
-4.042 -3.954 1.069 
-4.051 -3.962 1.061 
-4.055 -3.967 1.052 
-4.053 -3.965 1.042 
-4.087 -3.998 1.04 
-4.077 -3.988 1.027 
-4.064 -3.975 1.014 
-4.055 -3.966 1.001 
-4.039 -3.966 1.495 
-4.044 -3.971 1.486 
-4.046 -3.973 1.476 
-4.037 -3.964 1.463 
-4.032 -3.959 1.45 
-4.045 -3.971 1.444 
-4.036 -3.963 1.431 
-4.041 -3.968 1.422 
-4.046 -3.973 1.413 
-4.041 -3.968 1.401 
-4.04 -3.966 1.39 
-4.041 -3.968 1.38 
-4.043 -3.97 1.37 
-4.045 -3.971 1.361 
-4.046 -3.973 1.351 
-4.045 -3.971 1.34 
-4.039 -3.966 1.328 
-4.041 -3.967 1.318 
-4.046 -3.973 1.309 
-4.044 -3.971 1.298 
-4.052 -3.978 1.29 
-4.048 -3.974 1.278 
-4.028 -3.955 1.262 
-4.016 -3.943 1.248 
-4.032 -3.958 1.242 
-4.023 -3.949 1.229 
-4.031 -3.957 1.222 
-4.029 -3.956 1.211 
-4.024 -3.95 1.199 
-4.022 -3.948 1.188 
-4.029 -3.955 1.18 
-4.025 -3.951 1.168 
-4.029 -3.956 1.16 
-4.031 -3.957 1.15 
-4.029 -3.955 1.139 
-4.023 -3.95 1.127 
-4.027 -3.953 1.118 
-4.033 -3.959 1.109 
-4.038 -3.964 1.101 
-4.029 -3.955 1.088 
-4.034 -3.96 1.079 
-4.037 -3.963 1.07 
-4.04 -3.966 1.06 
-4.034 -3.96 1.049 
-4.029 -3.955 1.037 
-4.079 -4.004 1.04 
-4.067 -3.993 1.026 
-4.054 -3.979 1.013 
-4.037 -3.978 1.497 
-4.04 -3.981 1.487 
-4.028 -3.969 1.472 
-4.02 -3.961 1.459 
-4.035 -3.976 1.454 
-4.033 -3.973 1.443 
-4.041 -3.982 1.435 
-4.03 -3.971 1.421 
-4.029 -3.97 1.41 
-4.027 -3.968 1.399 
-4.033 -3.973 1.39 
-4.031 -3.972 1.379 
-4.026 -3.966 1.367 
-4.031 -3.971 1.358 
-4.029 -3.97 1.347 
-4.024 -3.964 1.335 
-4.036 -3.976 1.329 
-4.031 -3.971 1.317 
-4.032 -3.973 1.307 
-4.024 -3.964 1.294 
-4.03 -3.97 1.285 
-4.041 -3.981 1.278 
-4.028 -3.969 1.264 
-4.03 -3.97 1.254 
-4.014 -3.955 1.239 
-4.009 -3.949 1.227 
-4.014 -3.954 1.218 
-4.015 -3.956 1.209 
-4.013 -3.954 1.198 
-4.004 -3.945 1.185 
-4.009 -3.95 1.176 
-4.014 -3.955 1.167 
-4.021 -3.961 1.159 
-4.009 -3.949 1.145 
-4.015 -3.955 1.137 
-4.019 -3.959 1.128 
-4.011 -3.951 1.115 
-4.016 -3.956 1.107 
-4.021 -3.961 1.098 
-4.019 -3.959 1.087 
-4.013 -3.953 1.075 
-4.025 -3.965 1.068 
-4.016 -3.956 1.056 
-4.021 -3.96 1.047 
-4.023 -3.962 1.037 
-4.023 -3.963 1.027 
-4.024 -3.964 1.017 
-4.043 -3.983 1.012 
-4.052 -3.991 1.004 
-4.018 -3.973 1.492 
-4.013 -3.968 1.48 
-4.018 -3.973 1.471 
-4.013 -3.968 1.459 
-4.022 -3.976 1.452 
-4.02 -3.975 1.441 
-4.019 -3.973 1.43 
-4.014 -3.968 1.417 
-4.019 -3.973 1.409 
-4.017 -3.972 1.398 
-4.022 -3.977 1.389 
-4.014 -3.968 1.376 
-4.019 -3.973 1.367 
-4.021 -3.975 1.357 
-4.012 -3.966 1.344 
-4.006 -3.96 1.331 
-4.015 -3.97 1.324 
-4.014 -3.968 1.313 
-4.01 -3.964 1.302 
-4.024 -3.978 1.296 
-4.015 -3.969 1.283 
-4.02 -3.974 1.274 
-4.025 -3.979 1.265 
-4.023 -3.977 1.254 
-4.011 -3.965 1.24 
-4.002 -3.956 1.227 
-3.996 -3.951 1.215 
-4.005 -3.959 1.208 
-3.996 -3.95 1.195 
-4.004 -3.959 1.187 
-3.999 -3.953 1.175 
-3.993 -3.948 1.163 
-4.002 -3.956 1.156 
-3.996 -3.951 1.144 
-3.991 -3.945 1.132 
-3.996 -3.95 1.123 
-4.001 -3.955 1.114 
-4.002 -3.956 1.105 
-4.01 -3.964 1.097 
-4.009 -3.963 1.086 
-4.008 -3.961 1.076 
-4.004 -3.958 1.065 
-4.007 -3.961 1.055 
-4.007 -3.961 1.045 
-4.01 -3.964 1.036 
-4.008 -3.962 1.025 
-4.007 -3.961 1.015 
-4.015 -3.969 1.007 
-4.003 -3.971 1.499 
-4.011 -3.98 1.492 
-4.006 -3.975 1.48 
-4.001 -3.97 1.468 
-4.006 -3.975 1.459 
-4.008 -3.977 1.449 
-4.01 -3.978 1.439 
-4.005 -3.973 1.427 
-4.01 -3.979 1.418 
-4.015 -3.984 1.41 
-4.014 -3.982 1.399 
-4.005 -3.973 1.385 
-4.007 -3.975 1.376 
-4.009 -3.977 1.366 
-4.007 -3.975 1.355 
-4.022 -3.99 1.35 
-4.01 -3.978 1.335 
-3.998 -3.966 1.321 
-4.003 -3.971 1.312 
-4.005 -3.973 1.302 
-4.009 -3.977 1.293 
-4.012 -3.979 1.284 
-4.003 -3.971 1.271 
-4.004 -3.972 1.261 
-4.009 -3.977 1.252 
-4.014 -3.982 1.243 
-3.995 -3.963 1.227 
-3.993 -3.961 1.216 
-3.984 -3.952 1.203 
-3.982 -3.95 1.193 
-3.984 -3.952 1.183 
-3.975 -3.943 1.17 
-3.983 -3.951 1.162 
-3.988 -3.956 1.154 
-3.983 -3.951 1.142 
-3.981 -3.948 1.131 
-3.992 -3.96 1.124 
-3.99 -3.958 1.113 
-3.979 -3.946 1.1 
-3.99 -3.957 1.093 
-3.981 -3.949 1.081 
-4.006 -3.974 1.077 
-3.994 -3.961 1.064 
-3.988 -3.956 1.052 
-3.996 -3.964 1.044 
-4.001 -3.969 1.035 
-3.996 -3.963 1.024 
-4.007 -3.975 1.016 
-3.994 -3.962 1.003 
-3.989 -3.971 1.497 
-3.994 -3.976 1.488 
-3.999 -3.982 1.48 
-3.991 -3.973 1.466 
-3.989 -3.972 1.455 
-3.994 -3.977 1.447 
-4 -3.982 1.438 
-3.988 -3.97 1.423 
-3.993 -3.975 1.415 
-4.005 -3.987 1.409 
-4 -3.982 1.396 
-3.991 -3.974 1.383 
-3.993 -3.975 1.373 
-3.995 -3.977 1.363 
-4 -3.982 1.355 
-3.995 -3.977 1.343 
-3.989 -3.972 1.331 
-3.984 -3.966 1.318 
-3.986 -3.968 1.309 
-4.001 -3.983 1.303 
-3.986 -3.968 1.288 
-3.998 -3.98 1.282 
-4.003 -3.985 1.273 
-4.001 -3.983 1.262 
-3.992 -3.974 1.249 
-4 -3.982 1.241 
-3.997 -3.978 1.23 
-4.004 -3.985 1.222 
-3.981 -3.963 1.204 
-3.975 -3.957 1.193 
-3.977 -3.959 1.183 
-3.969 -3.951 1.17 
-3.966 -3.948 1.159 
-3.974 -3.956 1.152 
-3.979 -3.961 1.143 
-3.97 -3.952 1.13 
-3.975 -3.957 1.121 
-3.98 -3.962 1.112 
-3.978 -3.96 1.102 
-3.966 -3.948 1.088 
-3.967 -3.949 1.079 
-3.972 -3.954 1.07 
-3.969 -3.95 1.059 
-3.973 -3.955 1.05 
-3.986 -3.968 1.043 
-3.991 -3.972 1.034 
-3.982 -3.964 1.022 
-3.983 -3.965 1.012 
-4.008 -4.004 1.496 
-3.996 -3.992 1.481 
-4.001 -3.997 1.473 
-3.993 -3.989 1.459 
-3.995 -3.99 1.449 
-4 -3.996 1.441 
-4.005 -4.001 1.432 
-3.996 -3.992 1.418 
-3.991 -3.987 1.406 
-3.99 -3.985 1.395 
-4.002 -3.998 1.389 
-3.997 -3.992 1.377 
-3.998 -3.994 1.367 
-3.993 -3.989 1.355 
-3.988 -3.984 1.343 
-3.989 -3.985 1.333 
-3.984 -3.98 1.321 
-3.993 -3.989 1.313 
-3.994 -3.99 1.303 
-3.986 -3.982 1.29 
-3.991 -3.987 1.282 
-3.996 -3.992 1.273 
-3.989 -3.985 1.26 
-3.999 -3.995 1.253 
-4 -3.996 1.243 
-4.001 -3.996 1.233 
-3.997 -3.992 1.222 
-3.977 -3.973 1.205 
-3.969 -3.964 1.193 
-3.967 -3.962 1.182 
-3.958 -3.953 1.169 
-3.953 -3.948 1.157 
-3.966 -3.962 1.151 
-3.956 -3.951 1.138 
-3.957 -3.953 1.128 
-3.959 -3.954 1.119 
-3.956 -3.952 1.108 
-3.965 -3.96 1.1 
-3.963 -3.958 1.089 
-3.968 -3.963 1.081 
-3.965 -3.961 1.07 
-3.949 -3.945 1.055 
-3.972 -3.967 1.051 
-3.967 -3.962 1.04 
-3.967 -3.962 1.03 
-3.968 -3.964 1.02 
-3.97 -3.965 1.01 
-3.967 -3.963 1 
-4.004 -4.014 1.497 
-4.003 -4.013 1.486 
-4.004 -4.014 1.476 
-4.01 -4.02 1.468 
-4.002 -4.012 1.454 
-4.006 -4.016 1.446 
-4.001 -4.011 1.433 
-3.996 -4.006 1.421 
-3.995 -4.004 1.41 
-3.984 -3.994 1.396 
-3.995 -4.004 1.389 
-4.003 -4.013 1.382 
-3.995 -4.005 1.368 
-3.993 -4.003 1.357 
-4.005 -4.015 1.351 
-4.003 -4.013 1.34 
-3.996 -4.006 1.327 
-4.004 -4.014 1.319 
-4.001 -4.011 1.308 
-3.994 -4.004 1.295 
-3.994 -4.004 1.285 
-3.992 -4.002 1.274 
-4.001 -4.01 1.266 
-3.995 -4.005 1.254 
-3.993 -4.003 1.243 
-3.998 -4.008 1.235 
-4.007 -4.017 1.227 
-3.989 -3.999 1.211 
-3.975 -3.985 1.197 
-3.956 -3.966 1.181 
-3.954 -3.964 1.17 
-3.946 -3.955 1.157 
-3.951 -3.96 1.149 
-3.949 -3.958 1.138 
-3.943 -3.953 1.126 
-3.948 -3.957 1.118 
-3.946 -3.955 1.107 
-3.947 -3.957 1.097 
-3.952 -3.961 1.088 
-3.943 -3.952 1.076 
-3.941 -3.95 1.065 
-3.949 -3.958 1.057 
-3.958 -3.967 1.049 
-3.952 -3.961 1.038 
-3.946 -3.955 1.026 
-3.951 -3.96 1.018 
-3.956 -3.965 1.009 
-3.961 -3.97 1 
-4.001 -4.025 1.499 
-3.999 -4.023 1.487 
-3.994 -4.018 1.475 
-4.003 -4.027 1.468 
-4.001 -4.025 1.457 
-4.003 -4.027 1.447 
-4.005 -4.029 1.437 
-4.013 -4.037 1.429 
-3.998 -4.022 1.413 
-3.996 -4.02 1.402 
-3.991 -4.015 1.39 
-4.003 -4.027 1.384 
-4.001 -4.025 1.373 
-3.996 -4.02 1.361 
-4.001 -4.025 1.352 
-4.003 -4.027 1.342 
-4.003 -4.027 1.332 
-3.989 -4.013 1.317 
-4.005 -4.028 1.311 
-4.003 -4.026 1.3 
-4.001 -4.024 1.289 
-3.999 -4.023 1.278 
-3.994 -4.017 1.266 
-4.002 -4.026 1.259 
-4 -4.024 1.248 
-4.009 -4.032 1.24 
-4 -4.024 1.227 
-3.984 -4.008 1.212 
-3.972 -3.995 1.198 
-3.963 -3.986 1.185 
-3.951 -3.974 1.171 
-3.943 -3.966 1.158 
-3.937 -3.96 1.147 
-3.928 -3.951 1.134 
-3.926 -3.949 1.123 
-3.934 -3.957 1.116 
-3.932 -3.955 1.105 
-3.947 -3.971 1.099 
-3.925 -3.947 1.083 
-3.936 -3.959 1.076 
-3.938 -3.961 1.066 
-3.932 -3.955 1.055 
-3.933 -3.956 1.045 
-3.935 -3.957 1.035 
-3.939 -3.962 1.026 
-3.936 -3.959 1.015 
-3.939 -3.961 1.006 
-4.005 -4.043 1.492 
-3.997 -4.035 1.479 
-3.999 -4.037 1.469 
-4.001 -4.039 1.459 
-4.009 -4.047 1.451 
-4.004 -4.042 1.439 
-4.003 -4.041 1.428 
-3.998 -4.036 1.416 
-4.006 -4.044 1.408 
-3.994 -4.032 1.394 
-4 -4.037 1.385 
-3.998 -4.036 1.374 
-3.989 -4.027 1.361 
-3.991 -4.029 1.351 
-3.989 -4.027 1.34 
-4.001 -4.039 1.333 
-3.996 -4.034 1.321 
-3.994 -4.032 1.31 
-3.996 -4.034 1.3 
-3.99 -4.028 1.288 
-3.995 -4.033 1.279 
-4 -4.038 1.271 
-3.999 -4.036 1.26 
-3.99 -4.027 1.247 
-4.005 -4.043 1.241 
-3.993 -4.031 1.227 
-3.974 -4.011 1.211 
-3.97 -4.008 1.199 
-3.96 -3.997 1.186 
-3.954 -3.991 1.174 
-3.938 -3.975 1.159 
-3.934 -3.97 1.148 
-3.928 -3.965 1.136 
-3.923 -3.959 1.124 
-3.921 -3.957 1.114 
-3.922 -3.959 1.104 
-3.913 -3.949 1.091 
-3.921 -3.958 1.084 
-3.929 -3.966 1.076 
-3.924 -3.96 1.064 
-3.918 -3.955 1.053 
-3.92 -3.956 1.043 
-3.914 -3.95 1.031 
-3.933 -3.969 1.026 
-3.927 -3.963 1.015 
-3.928 -3.965 1.005 
-3.998 -4.05 1.492 
-3.996 -4.048 1.481 
-4.002 -4.054 1.473 
-4.003 -4.056 1.463 
-4.002 -4.054 1.451 
-4.007 -4.059 1.443 
-4.005 -4.057 1.432 
-3.998 -4.05 1.418 
-4.009 -4.061 1.412 
-3.994 -4.046 1.396 
-3.996 -4.048 1.386 
-3.994 -4.046 1.375 
-3.996 -4.048 1.365 
-4.008 -4.06 1.359 
-3.996 -4.048 1.344 
-4.004 -4.056 1.337 
-4.003 -4.054 1.326 
-3.997 -4.049 1.314 
-3.992 -4.044 1.301 
-4.001 -4.052 1.294 
-4.002 -4.054 1.284 
-3.997 -4.049 1.272 
-4.002 -4.054 1.263 
-4 -4.052 1.252 
-3.995 -4.046 1.24 
-4.004 -4.056 1.233 
-3.987 -4.039 1.217 
-3.975 -4.026 1.203 
-3.97 -4.021 1.191 
-3.958 -4.008 1.177 
-3.938 -3.989 1.161 
-3.947 -3.997 1.154 
-3.925 -3.975 1.137 
-3.916 -3.966 1.124 
-3.914 -3.964 1.114 
-3.912 -3.962 1.103 
-3.899 -3.949 1.089 
-3.911 -3.961 1.083 
-3.911 -3.962 1.073 
-3.91 -3.96 1.062 
-3.911 -3.962 1.053 
-3.906 -3.956 1.041 
-3.904 -3.954 1.031 
-3.915 -3.965 1.024 
-3.917 -3.967 1.014 
-3.911 -3.961 1.002 
-3.998 -4.064 1.495 
-4.006 -4.073 1.487 
-4.008 -4.074 1.478 
-3.996 -4.062 1.463 
-3.998 -4.064 1.453 
-4.003 -4.07 1.444 
-4.008 -4.075 1.435 
-4 -4.066 1.422 
-3.996 -4.062 1.41 
-3.99 -4.057 1.397 
-3.996 -4.062 1.389 
-4.001 -4.067 1.38 
-3.995 -4.062 1.368 
-4.001 -4.067 1.359 
-3.992 -4.058 1.346 
-4.004 -4.07 1.339 
-4.006 -4.072 1.329 
-4 -4.067 1.317 
-4.005 -4.072 1.308 
-4 -4.066 1.296 
-4.009 -4.075 1.288 
-4.003 -4.07 1.276 
-4.001 -4.068 1.265 
-3.996 -4.062 1.253 
-4.005 -4.071 1.245 
-3.996 -4.062 1.232 
-3.982 -4.047 1.217 
-3.975 -4.04 1.205 
-3.974 -4.04 1.195 
-3.961 -4.026 1.18 
-3.942 -4.006 1.164 
-3.936 -4.001 1.153 
-3.927 -3.992 1.14 
-3.916 -3.98 1.126 
-3.91 -3.974 1.115 
-3.901 -3.965 1.102 
-3.892 -3.956 1.089 
-3.897 -3.961 1.081 
-3.895 -3.959 1.07 
-3.889 -3.953 1.059 
-3.891 -3.954 1.049 
-3.895 -3.959 1.04 
-3.897 -3.96 1.031 
-3.901 -3.965 1.022 
-3.906 -3.97 1.013 
-3.894 -3.957 1 
-3.999 -4.08 1.487 
-4.001 -4.081 1.478 
-4.006 -4.087 1.469 
-4.004 -4.085 1.458 
-4.003 -4.083 1.446 
-4.015 -4.096 1.44 
-3.996 -4.077 1.423 
-3.998 -4.078 1.413 
-4 -4.08 1.403 
-3.992 -4.072 1.39 
-4 -4.08 1.382 
-4.012 -4.092 1.376 
-4 -4.08 1.361 
-4.008 -4.089 1.353 
-3.997 -4.077 1.339 
-4.002 -4.082 1.33 
-3.997 -4.077 1.318 
-4.005 -4.086 1.31 
-4 -4.08 1.298 
-4.001 -4.082 1.288 
-3.996 -4.077 1.276 
-3.994 -4.075 1.265 
-3.999 -4.08 1.256 
-4.001 -4.081 1.246 
-4.009 -4.09 1.239 
-3.997 -4.077 1.224 
-3.978 -4.058 1.208 
-3.969 -4.049 1.195 
-3.954 -4.033 1.18 
-3.952 -4.031 1.169 
-3.933 -4.011 1.154 
-3.927 -4.006 1.142 
-3.922 -4 1.13 
-3.903 -3.981 1.115 
-3.891 -3.969 1.101 
-3.889 -3.966 1.09 
-3.883 -3.961 1.079 
-3.874 -3.952 1.066 
-3.879 -3.956 1.058 
-3.887 -3.965 1.05 
-3.885 -3.962 1.039 
-3.879 -3.957 1.028 
-3.884 -3.962 1.019 
-3.885 -3.963 1.009 
-4.005 -4.101 1.493 
-4.004 -4.099 1.481 
-4.009 -4.104 1.473 
-4.011 -4.106 1.463 
-4.002 -4.098 1.449 
-4.008 -4.103 1.44 
-4.002 -4.098 1.428 
-4.004 -4.099 1.418 
-3.999 -4.094 1.405 
-4.001 -4.096 1.396 
-4.006 -4.101 1.387 
-4.004 -4.099 1.376 
-3.999 -4.094 1.363 
-4.001 -4.096 1.353 
-4.009 -4.104 1.346 
-4.001 -4.096 1.332 
-3.996 -4.091 1.32 
-4.014 -4.109 1.316 
-3.996 -4.091 1.299 
-3.998 -4.092 1.289 
-4.019 -4.114 1.286 
-4.014 -4.109 1.274 
-4.006 -4.101 1.261 
-4.001 -4.095 1.248 
-4.006 -4.1 1.24 
-4.007 -4.102 1.23 
-3.991 -4.086 1.214 
-3.972 -4.066 1.198 
-3.957 -4.05 1.183 
-3.941 -4.034 1.168 
-3.936 -4.029 1.157 
-3.927 -4.02 1.144 
-3.915 -4.007 1.13 
-3.902 -3.994 1.116 
-3.897 -3.99 1.105 
-3.892 -3.984 1.093 
-3.876 -3.968 1.079 
-3.871 -3.962 1.067 
-3.869 -3.96 1.057 
-3.86 -3.951 1.044 
-3.87 -3.961 1.037 
-3.862 -3.953 1.025 
-3.874 -3.965 1.018 
-3.865 -3.956 1.006 
-4.012 -4.122 1.498 
-4.003 -4.113 1.484 
-4.015 -4.125 1.478 
-4.004 -4.113 1.463 
-4.005 -4.115 1.453 
-4.01 -4.12 1.444 
-4.009 -4.119 1.433 
-4.011 -4.12 1.423 
-4.019 -4.129 1.415 
-3.994 -4.103 1.396 
-3.999 -4.108 1.387 
-4.007 -4.117 1.379 
-4.002 -4.112 1.367 
-4.004 -4.113 1.357 
-4.006 -4.115 1.347 
-4.004 -4.113 1.336 
-4.005 -4.115 1.326 
-4.004 -4.113 1.315 
-4.002 -4.111 1.304 
-4.007 -4.116 1.295 
-4.012 -4.121 1.286 
-3.997 -4.106 1.271 
-4.008 -4.117 1.264 
-3.997 -4.106 1.25 
-4.011 -4.121 1.244 
-4.003 -4.112 1.231 
-4.005 -4.114 1.221 
-3.993 -4.101 1.207 
-3.957 -4.064 1.185 
-3.944 -4.052 1.171 
-3.946 -4.053 1.162 
-3.923 -4.03 1.145 
-3.921 -4.028 1.134 
-3.913 -4.019 1.121 
-3.894 -4 1.106 
-3.892 -3.998 1.095 
-3.875 -3.98 1.08 
-3.86 -3.965 1.066 
-3.869 -3.973 1.059 
-3.86 -3.964 1.046 
-3.861 -3.965 1.037 
-3.845 -3.949 1.022 
-3.853 -3.957 1.015 
-3.858 -3.962 1.006 
-4.008 -4.132 1.499 
-4 -4.123 1.485 
-4.012 -4.136 1.479 
-4.01 -4.134 1.468 
-4.005 -4.129 1.455 
-4.01 -4.134 1.446 
-4.012 -4.136 1.436 
-4.007 -4.131 1.424 
-4.012 -4.136 1.415 
-4.004 -4.127 1.401 
-4.012 -4.136 1.394 
-4.007 -4.131 1.381 
-4.002 -4.125 1.369 
-4.01 -4.134 1.361 
-4.005 -4.129 1.349 
-3.997 -4.12 1.336 
-3.998 -4.122 1.326 
-4.003 -4.127 1.317 
-4.008 -4.132 1.308 
-4.003 -4.127 1.296 
-4.005 -4.128 1.286 
-4.013 -4.137 1.278 
-4.001 -4.124 1.264 
-3.996 -4.119 1.251 
-4.008 -4.131 1.245 
-4.016 -4.14 1.237 
-4.007 -4.131 1.224 
-4.005 -4.129 1.213 
-3.98 -4.103 1.195 
-3.965 -4.087 1.18 
-3.949 -4.071 1.165 
-3.923 -4.044 1.147 
-3.925 -4.045 1.137 
-3.906 -4.026 1.121 
-3.897 -4.017 1.109 
-3.892 -4.011 1.097 
-3.88 -3.999 1.084 
-3.867 -3.986 1.07 
-3.862 -3.98 1.059 
-3.853 -3.971 1.046 
-3.847 -3.965 1.035 
-3.838 -3.956 1.022 
-3.839 -3.957 1.013 
-3.848 -3.965 1.005 
-4.013 -4.151 1.493 
-4.004 -4.143 1.479 
-4.006 -4.144 1.469 
-4.018 -4.157 1.462 
-4.01 -4.148 1.449 
-4.011 -4.15 1.439 
-4.01 -4.148 1.427 
-4.008 -4.146 1.416 
-4.01 -4.148 1.406 
-4.012 -4.15 1.396 
-4.01 -4.148 1.385 
-4.002 -4.139 1.371 
-3.996 -4.134 1.359 
-4.002 -4.139 1.35 
-4.01 -4.148 1.343 
-4.008 -4.146 1.331 
-4.006 -4.144 1.32 
-4.011 -4.15 1.311 
-4.006 -4.144 1.299 
-4.011 -4.149 1.29 
-4.006 -4.144 1.278 
-4.011 -4.149 1.269 
-4.006 -4.144 1.257 
-4 -4.138 1.245 
-4.009 -4.147 1.237 
-4.007 -4.145 1.226 
-4.005 -4.143 1.215 
-4.006 -4.144 1.205 
-4.004 -4.142 1.194 
-3.969 -4.106 1.173 
-3.923 -4.058 1.149 
-3.918 -4.052 1.137 
-3.905 -4.039 1.123 
-3.894 -4.027 1.11 
-3.895 -4.029 1.1 
-3.886 -4.02 1.087 
-3.874 -4.007 1.074 
-3.862 -3.994 1.06 
-3.853 -3.985 1.048 
-3.833 -3.965 1.033 
-3.831 -3.962 1.022 
-3.833 -3.964 1.013 
-3.834 -3.965 1.003 
-4.021 -4.175 1.499 
-4.024 -4.177 1.489 
-4.015 -4.168 1.475 
-4.013 -4.166 1.463 
-4.012 -4.165 1.452 
-4.01 -4.163 1.441 
-4.008 -4.161 1.429 
-4.013 -4.166 1.421 
-4.018 -4.171 1.412 
-4.014 -4.167 1.399 
-4.015 -4.169 1.389 
-4.011 -4.164 1.377 
-4.019 -4.172 1.369 
-4.018 -4.171 1.358 
-4.013 -4.166 1.346 
-4.001 -4.153 1.331 
-4.009 -4.162 1.324 
-4.016 -4.169 1.315 
-4.016 -4.169 1.305 
-4.011 -4.163 1.292 
-4.016 -4.169 1.283 
-4.007 -4.16 1.27 
-4.008 -4.161 1.26 
-4.003 -4.156 1.248 
-4.008 -4.161 1.239 
-4.01 -4.162 1.229 
-3.998 -4.15 1.215 
-4.009 -4.162 1.208 
-4.014 -4.167 1.199 
-4.012 -4.165 1.188 
-3.974 -4.125 1.166 
-3.917 -4.066 1.139 
-3.908 -4.057 1.126 
-3.888 -4.036 1.11 
-3.891 -4.038 1.101 
-3.879 -4.026 1.087 
-3.874 -4.021 1.076 
-3.868 -4.015 1.064 
-3.863 -4.009 1.053 
-3.844 -3.989 1.037 
-3.841 -3.987 1.027 
-3.832 -3.978 1.015 
-3.827 -3.972 1.003 
-4.074 -4.244 1.499 
-4.063 -4.232 1.484 
-4.045 -4.214 1.467 
-4.033 -4.202 1.452 
-4.016 -4.183 1.435 
-4.017 -4.185 1.425 
-4.016 -4.183 1.413 
-4.024 -4.192 1.406 
-4.009 -4.176 1.39 
-4.017 -4.185 1.382 
-4.012 -4.18 1.369 
-4.017 -4.185 1.361 
-4.012 -4.18 1.348 
-4.013 -4.18 1.338 
-4.005 -4.172 1.325 
-4.013 -4.18 1.317 
-4.002 -4.169 1.302 
-4.017 -4.184 1.297 
-4.005 -4.172 1.282 
-4.017 -4.184 1.275 
-4.015 -4.182 1.264 
-4.016 -4.184 1.254 
-4.004 -4.171 1.24 
-4.013 -4.18 1.232 
-4.011 -4.178 1.221 
-4.002 -4.169 1.208 
-4 -4.167 1.197 
-4.012 -4.179 1.19 
-4.017 -4.184 1.18 
-3.968 -4.133 1.156 
-3.918 -4.081 1.131 
-3.903 -4.065 1.116 
-3.887 -4.049 1.102 
-3.869 -4.03 1.086 
-3.873 -4.034 1.078 
-3.871 -4.032 1.067 
-3.852 -4.012 1.052 
-3.847 -4.006 1.04 
-3.838 -3.997 1.028 
-3.825 -3.984 1.015 
-3.821 -3.98 1.004 
-4.008 -4.19 1.339 
-4.008 -4.19 1.328 
-4.012 -4.194 1.319 
-4.002 -4.183 1.305 
-4.012 -4.194 1.298 
-4.007 -4.189 1.285 
-4.023 -4.206 1.28 
-4.006 -4.188 1.264 
-4.009 -4.191 1.254 
-4.007 -4.189 1.243 
-4.009 -4.19 1.233 
-4.015 -4.197 1.224 
-4.026 -4.209 1.217 
-4.018 -4.201 1.204 
-4.02 -4.202 1.194 
-4.015 -4.197 1.182 
-4.017 -4.199 1.172 
-3.963 -4.143 1.146 
-3.913 -4.09 1.121 
-3.89 -4.066 1.105 
-3.887 -4.063 1.094 
-3.865 -4.04 1.077 
-3.868 -4.043 1.068 
-3.854 -4.028 1.054 
-3.84 -4.013 1.04 
-3.831 -4.004 1.028 
-3.819 -3.991 1.015 
-3.82 -3.992 1.005 
-3.906 -4.097 1.111 
-3.878 -4.067 1.093 
-3.872 -4.061 1.081 
-3.864 -4.053 1.069 
-3.855 -4.043 1.056 
-3.846 -4.034 1.044 
-3.837 -4.025 1.031 
-3.822 -4.008 1.017 
-3.811 -3.997 1.005 
-3.9 -4.105 1.101 
-3.872 -4.075 1.083 
-3.857 -4.06 1.069 
-3.855 -4.057 1.058 
-3.846 -4.048 1.046 
-3.832 -4.034 1.032 
-3.825 -4.026 1.02 
-3.819 -4.02 1.009 
-3.901 -4.121 1.093 
-3.879 -4.097 1.077 
-3.857 -4.073 1.061 
-3.849 -4.065 1.049 
-3.83 -4.045 1.033 
-3.829 -4.044 1.023 
-3.812 -4.026 1.009 
-3.845 -4.075 1.059 
-3.857 -4.088 1.053 
-3.837 -4.066 1.037 
-3.818 -4.046 1.022 
-3.815 -4.044 1.011 
-3.813 -4.041 1.001 
-3.837 -4.082 1.049 
-3.846 -4.091 1.042 
-3.827 -4.071 1.026 
-3.815 -4.058 1.013 
-3.809 -4.052 1.002 
-3.833 -4.091 1.03 
-3.822 -4.08 1.017 
-3.809 -4.066 1.003 
-3.823 -4.096 1.019 
-3.816 -4.088 1.007 
-4.262 -5.713 1.042 
-4.266 -5.717 1.03 
-4.28 -5.736 1.021 
-4.27 -5.723 1.006 
-4.265 -5.738 1.07 
-4.261 -5.732 1.031 
-4.257 -5.727 1.018 
-4.25 -5.716 1.003 
-4.251 -5.739 1.044 
-4.246 -5.733 1.03 
-4.242 -5.726 1.016 
-4.231 -5.712 1.001 
-4.237 -5.741 1.056 
-4.234 -5.737 1.042 
-4.217 -5.714 1.025 
-4.226 -5.726 1.015 
-4.214 -5.73 1.052 
-4.211 -5.726 1.039 
-4.21 -5.726 1.026 
-4.2 -5.711 1.011 
-4.2 -5.733 1.064 
-4.202 -5.735 1.052 
-4.195 -5.726 1.037 
-4.189 -5.717 1.023 
-4.185 -5.712 1.01 
-4.19 -5.74 1.064 
-4.178 -5.723 1.048 
-4.179 -5.725 1.036 
-4.174 -5.718 1.022 
-4.172 -5.716 1.009 
-4.174 -5.74 1.075 
-4.175 -5.741 1.063 
-4.176 -5.743 1.05 
-4.175 -5.74 1.037 
-4.167 -5.73 1.023 
-4.162 -5.723 1.009 
-4.163 -5.746 1.05 
-4.164 -5.748 1.037 
-4.163 -5.745 1.024 
-4.158 -5.738 1.011 
-4.147 -5.744 1.023 
-4.145 -5.742 1.01 
-1.159 -4.07 1.008 
-1.151 -4.07 1.007 
-1.137 -4.048 1.016 
-1.14 -4.057 1.011 
-1.14 -4.057 1.003 
-1.13 -4.049 1.024 
-1.13 -4.049 1.016 
-1.134 -4.063 1.012 
-1.139 -4.08 1.009 
-1.121 -4.044 1.03 
-1.118 -4.035 1.02 
-1.125 -4.058 1.018 
-1.127 -4.065 1.012 
-1.124 -4.056 1.002 
-1.13 -4.079 1 
-1.113 -4.043 1.045 
-1.116 -4.055 1.04 
-1.12 -4.069 1.036 
-1.119 -4.067 1.028 
-1.12 -4.069 1.02 
-1.114 -4.046 1.007 
-1.122 -4.076 1.007 
-1.109 -4.057 1.056 
-1.114 -4.075 1.052 
-1.106 -4.046 1.037 
-1.11 -4.061 1.033 
-1.106 -4.045 1.022 
-1.114 -4.075 1.021 
-1.117 -4.085 1.016 
-1.11 -4.059 1.002 
-1.108 -4.08 1.069 
-1.107 -4.075 1.06 
-1.101 -4.056 1.047 
-1.108 -4.08 1.046 
-1.104 -4.064 1.034 
-1.104 -4.065 1.026 
-1.102 -4.058 1.017 
-1.107 -4.078 1.014 
-1.106 -4.073 1.005 
-1.098 -4.07 1.074 
-1.094 -4.056 1.062 
-1.095 -4.06 1.055 
-1.095 -4.058 1.047 
-1.094 -4.055 1.039 
-1.097 -4.068 1.034 
-1.099 -4.074 1.028 
-1.099 -4.072 1.02 
-1.097 -4.067 1.011 
-1.098 -4.072 1.004 
-1.086 -4.053 1.076 
-1.087 -4.057 1.07 
-1.088 -4.061 1.063 
-1.086 -4.055 1.054 
-1.085 -4.052 1.045 
-1.088 -4.063 1.04 
-1.087 -4.058 1.031 
-1.096 -4.091 1.032 
-1.091 -4.073 1.02 
-1.09 -4.07 1.011 
-1.094 -4.084 1.007 
-1.073 -4.034 1.086 
-1.076 -4.043 1.081 
-1.078 -4.054 1.076 
-1.077 -4.051 1.068 
-1.083 -4.072 1.065 
-1.084 -4.074 1.058 
-1.079 -4.057 1.046 
-1.083 -4.072 1.042 
-1.083 -4.072 1.034 
-1.081 -4.065 1.025 
-1.083 -4.071 1.019 
-1.084 -4.073 1.011 
-1.085 -4.08 1.005 
-1.067 -4.04 1.095 
-1.071 -4.054 1.091 
-1.071 -4.054 1.083 
-1.072 -4.058 1.077 
-1.066 -4.035 1.063 
-1.072 -4.058 1.061 
-1.08 -4.09 1.062 
-1.075 -4.068 1.048 
-1.078 -4.082 1.044 
-1.075 -4.069 1.033 
-1.073 -4.062 1.024 
-1.077 -4.077 1.02 
-1.077 -4.075 1.011 
-1.076 -4.074 1.003 
-1.064 -4.054 1.099 
-1.066 -4.064 1.093 
-1.064 -4.055 1.083 
-1.066 -4.063 1.078 
-1.067 -4.066 1.071 
-1.067 -4.068 1.063 
-1.064 -4.055 1.052 
-1.066 -4.063 1.047 
-1.069 -4.075 1.042 
-1.069 -4.075 1.034 
-1.071 -4.083 1.028 
-1.074 -4.094 1.023 
-1.068 -4.072 1.01 
-1.069 -4.075 1.003 
-1.058 -4.064 1.116 
-1.057 -4.059 1.107 
-1.057 -4.059 1.099 
-1.06 -4.07 1.095 
-1.057 -4.058 1.084 
-1.056 -4.054 1.075 
-1.06 -4.07 1.071 
-1.063 -4.08 1.066 
-1.06 -4.07 1.056 
-1.058 -4.061 1.045 
-1.062 -4.076 1.042 
-1.067 -4.095 1.039 
-1.062 -4.075 1.026 
-1.061 -4.072 1.017 
-1.064 -4.085 1.013 
-1.064 -4.084 1.005 
-1.051 -4.065 1.124 
-1.051 -4.066 1.116 
-1.055 -4.079 1.112 
-1.05 -4.062 1.1 
-1.054 -4.076 1.096 
-1.052 -4.067 1.085 
-1.051 -4.066 1.077 
-1.051 -4.065 1.069 
-1.051 -4.064 1.061 
-1.054 -4.075 1.056 
-1.051 -4.062 1.045 
-1.051 -4.064 1.038 
-1.057 -4.086 1.036 
-1.056 -4.084 1.028 
-1.053 -4.071 1.017 
-1.062 -4.105 1.017 
-1.059 -4.096 1.007 
-1.041 -4.055 1.128 
-1.042 -4.06 1.122 
-1.044 -4.066 1.116 
-1.042 -4.061 1.107 
-1.046 -4.075 1.103 
-1.041 -4.056 1.09 
-1.046 -4.075 1.087 
-1.046 -4.073 1.079 
-1.043 -4.063 1.068 
-1.044 -4.067 1.062 
-1.046 -4.075 1.056 
-1.046 -4.075 1.048 
-1.045 -4.072 1.04 
-1.04 -4.053 1.027 
-1.048 -4.085 1.027 
-1.046 -4.075 1.017 
-1.049 -4.087 1.012 
-1.048 -4.084 1.004 
-1.037 -4.069 1.148 
-1.037 -4.069 1.14 
-1.037 -4.07 1.132 
-1.037 -4.068 1.124 
-1.036 -4.066 1.115 
-1.034 -4.06 1.106 
-1.038 -4.075 1.102 
-1.031 -4.048 1.087 
-1.036 -4.067 1.085 
-1.039 -4.08 1.08 
-1.037 -4.069 1.069 
-1.037 -4.071 1.062 
-1.036 -4.064 1.053 
-1.04 -4.082 1.05 
-1.041 -4.085 1.042 
-1.04 -4.082 1.034 
-1.041 -4.086 1.027 
-1.039 -4.079 1.018 
-1.037 -4.07 1.008 
-1.041 -4.083 1.003 
-1.028 -4.062 1.153 
-1.026 -4.056 1.143 
-1.024 -4.049 1.133 
-1.03 -4.071 1.132 
-1.027 -4.061 1.121 
-1.027 -4.061 1.113 
-1.028 -4.063 1.106 
-1.027 -4.059 1.097 
-1.027 -4.062 1.09 
-1.034 -4.088 1.09 
-1.028 -4.065 1.076 
-1.033 -4.085 1.073 
-1.03 -4.074 1.062 
-1.034 -4.089 1.059 
-1.034 -4.088 1.051 
-1.029 -4.068 1.038 
-1.03 -4.071 1.031 
-1.03 -4.073 1.024 
-1.028 -4.064 1.013 
-1.027 -4.059 1.005 
-1.031 -4.076 1.001 
-1.023 -4.075 1.164 
-1.015 -4.042 1.147 
-1.022 -4.068 1.146 
-1.019 -4.057 1.135 
-1.02 -4.063 1.129 
-1.022 -4.069 1.123 
-1.019 -4.057 1.112 
-1.024 -4.078 1.11 
-1.025 -4.08 1.103 
-1.021 -4.065 1.091 
-1.02 -4.063 1.082 
