# .PCD v0.7 - Point Cloud Data file format
VERSION 0.7
FIELDS x y z
SIZE 4 4 4
TYPE F F F
COUNT 1 1 1
WIDTH 531
HEIGHT 1
VIEWPOINT 0 0 0 1 0 0 0
POINTS 531
DATA ascii
38.732601 -7.1016002 -1.2142005
38.714748 -6.9459991 -1.2157507
38.790001 -11.000999 -1.04
38.785 -10.983498 -1.0229998
38.801998 -10.968998 -1.0080004
38.792336 -10.609331 -1.0423336
38.788528 -10.500421 -1.0414743
38.783123 -10.340373 -1.0316253
38.799999 -10.383999 -1.0770006
38.787498 -10.089998 -1.0285001
38.773335 -9.9226646 -1.0320005
38.758003 -9.7544975 -1.0355005
38.743862 -9.068284 -1.0674288
38.737003 -8.9119625 -1.0695183
38.93 -8.8159981 -1.0014994
38.737213 -8.6990891 -1.0778484
38.954285 -8.709856 -1.0087147
39.008003 -8.668499 -1.0100005
38.736061 -8.4964523 -1.0906363
38.946251 -8.5069981 -1.0092502
39.006001 -8.4399977 -1.0180004
38.738033 -8.3042793 -1.0945003
38.962334 -8.2939987 -1.0168335
39.000999 -8.3349981 -1.0130002
38.741501 -8.1070309 -1.0994332
38.94825 -8.1232491 -1.0182498
39.019001 -8.0809984 -1.0249999
38.730431 -7.9769998 -1.1329997
38.708 -7.4039993 -1.027
38.785999 -7.3399992 -1.0255003
38.918732 -7.2669086 -1.0307269
38.722126 -7.0848742 -1.1446247
38.924 -7.1138811 -1.0322945
38.714752 -6.9440832 -1.0860834
39.113998 -12.101999 -0.84500074
38.796001 -10.982498 -0.90174961
38.820999 -10.946123 -0.91449928
39.068001 -10.918999 -0.88399982
38.788002 -10.607998 -0.96049976
39.05975 -10.624373 -0.86775064
38.788799 -10.511899 -0.96530056
38.860001 -10.458497 -0.91825008
39.039467 -10.498999 -0.87742853
38.782833 -10.298498 -0.97900057
38.890503 -10.294874 -0.94662523
39.029537 -10.282423 -0.86799955
38.895 -10.127499 -0.96099901
39.041965 -10.083807 -0.85976982
38.903503 -9.9284992 -0.94350004
39.025303 -9.893198 -0.86433363
38.965691 -9.6840611 -0.86281252
39.011307 -9.7363071 -0.86638451
38.995003 -9.4954987 -0.8234992
39.025879 -9.5141144 -0.84876442
38.93367 -9.3138323 -0.91533375
39.013573 -9.3458567 -0.86042929
38.962002 -9.1229982 -0.94357157
39.031002 -9.1109982 -0.88266659
38.944336 -8.9546661 -0.9726665
39.008198 -8.907198 -0.90499973
38.99057 -8.7322845 -0.89414334
39.011169 -8.6773319 -0.9155004
38.985901 -8.4943981 -0.91569996
39.017406 -8.5117989 -0.93790007
38.984501 -8.3080463 -0.93463635
39.013 -8.2939987 -0.91966629
38.982502 -8.1317148 -0.94842863
39.0205 -8.0949993 -0.92650008
38.714249 -7.4222493 -0.9297502
38.702 -7.3799996 -0.97999978
38.973 -7.301405 -0.90470362
39.015003 -7.2948332 -0.8300004
38.724998 -7.0203323 -0.90716672
38.97406 -7.1084714 -0.88779473
39.001999 -7.1764989 -0.94049978
38.70821 -6.9419575 -0.90733361
38.870499 -11.005499 -0.73500013
38.810001 -10.997999 -0.77999973
39.055714 -10.979569 -0.72157192
39.041004 -10.621553 -0.68566608
39.037476 -10.508329 -0.69778633
38.986752 -10.311499 -0.7159996
39.028854 -10.30895 -0.69504881
38.992001 -10.194998 -0.63599968
39.031822 -10.104706 -0.68824387
38.990456 -9.8814526 -0.64490938
39.020111 -9.8946285 -0.70244408
38.9935 -9.6891651 -0.728333
39.019642 -9.6888046 -0.68738699
38.993202 -9.4829979 -0.65679979
39.016327 -9.4991169 -0.70717621
38.984394 -9.2913189 -0.70296431
39.008537 -9.3182297 -0.70269203
38.986366 -9.1091805 -0.67763662
39.010204 -9.1089649 -0.70844889
38.985119 -8.897234 -0.68552947
39.013672 -8.9331093 -0.69116688
38.988911 -8.7123623 -0.67263651
39.01894 -8.7291241 -0.65193796
38.98555 -8.5203629 -0.67609096
39.013748 -8.5283737 -0.62650061
38.973667 -8.3663311 -0.66433358
38.701 -7.5599995 -0.72450042
38.935997 -7.5249996 -0.68149996
38.743 -7.0154991 -0.67374992
38.97747 -7.1075287 -0.64517665
39.005001 -7.1229992 -0.64700007
38.708832 -6.9173326 -0.68172288
38.958 -6.79 -0.65199995
39.000999 -6.7929993 -0.78599977
38.873001 -11.264999 -0.4820013
39.096001 -11.321999 -0.5800004
39.052197 -11.023398 -0.49959946
39.057335 -10.991165 -0.51666641
39.047287 -10.622856 -0.49657154
39.04047 -10.514397 -0.48568439
38.992001 -10.223999 -0.40600014
39.033245 -10.311338 -0.49214602
38.993999 -10.078599 -0.47899961
39.022953 -10.118323 -0.49417496
38.993706 -9.9102993 -0.49369955
39.015282 -9.9120007 -0.49537182
38.989899 -9.6946831 -0.49642086
39.012287 -9.7070713 -0.48642826
38.991924 -9.5138445 -0.49515438
39.011467 -9.4876785 -0.4942503
38.991207 -9.2912903 -0.50462532
39.02047 -9.3053989 -0.48193407
38.987598 -9.1476994 -0.48750067
39.024536 -9.0810394 -0.50842285
38.986 -8.9252701 -0.48118162
39.015396 -8.8939991 -0.51519966
38.990376 -8.7186871 -0.47593737
39.022648 -8.7010002 -0.53304935
38.98172 -8.4949446 -0.48938894
39.015049 -8.5244713 -0.53357911
38.982498 -8.3613987 -0.53730035
39.000999 -8.3839979 -0.56100011
38.713001 -7.7139988 -0.44875026
38.982143 -7.6677141 -0.43242884
39.015999 -7.6469998 -0.47500062
38.976669 -7.2213326 -0.50133348
39.000999 -7.2189994 -0.48099971
38.774601 -7.0099993 -0.50600028
38.979324 -7.1072388 -0.51699996
39.011402 -7.0999994 -0.50279999
38.706963 -6.9241848 -0.51103735
38.962997 -6.7869992 -0.55150008
38.823002 -11.193998 -0.34000015
39.064571 -11.046 -0.31171417
39.051144 -10.986572 -0.30185699
39.128143 -10.625856 -0.28071451
39.20525 -10.605997 -0.25974941
38.993 -10.535498 -0.3210001
39.070778 -10.501741 -0.29683924
39.202 -10.537998 -0.27999973
38.993999 -10.222998 -0.37400007
39.025921 -10.306828 -0.29048777
38.993252 -10.131001 -0.37199974
39.023708 -10.108047 -0.28778076
38.993885 -9.8794422 -0.27444458
39.019169 -9.9204445 -0.30383348
38.988434 -9.7196865 -0.28393745
39.012886 -9.6960869 -0.31064749
38.987503 -9.4907494 -0.29581213
39.010296 -9.4976311 -0.3051672
38.986816 -9.2841854 -0.32162523
39.016964 -9.3033085 -0.29879284
38.985233 -9.0823822 -0.30484629
39.016899 -9.1245251 -0.31642103
38.987545 -8.8988171 -0.32057619
39.009277 -8.9226351 -0.28136349
38.98592 -8.7166901 -0.33799982
39.016762 -8.7053432 -0.29558659
38.983208 -8.523262 -0.33831573
39.017288 -8.5582838 -0.29785633
38.708 -7.8429995 -0.23166633
38.984497 -7.8084998 -0.22600007
38.716499 -7.7744994 -0.34550023
38.979172 -7.7128749 -0.28095865
39.006248 -7.6777496 -0.29400039
38.996002 -7.4149995 -0.24866605
39.013 -7.415 -0.31499934
38.986073 -7.2834997 -0.26207161
39.007603 -7.321599 -0.27359962
38.964046 -7.0878677 -0.27813029
39.007336 -7.1489992 -0.22066712
38.70874 -6.9167986 -0.26215005
38.849998 -6.9990001 -0.23400044
38.977501 -6.7810001 -0.35150003
39.068501 -11.061247 -0.078999996
39.073666 -10.985498 -0.088666439
39.10257 -10.620428 -0.10600042
39.210503 -10.603998 -0.1515007
38.990997 -10.459665 -0.065666199
39.079929 -10.504204 -0.085552216
39.223999 -10.560331 -0.17033386
38.991665 -10.302887 -0.089333534
39.021969 -10.299635 -0.096756935
38.995003 -10.103498 -0.097499847
39.026348 -10.107021 -0.098256111
38.998001 -9.9869995 -0.017000675
39.037926 -9.9030743 -0.11212778
39.329403 -9.9673996 -0.041799545
38.991116 -9.6928864 -0.11066628
39.016949 -9.7161083 -0.1023612
38.991001 -9.5249987 -0.09649992
39.016685 -9.5007849 -0.10810661
38.989101 -9.2785997 -0.12409973
39.019886 -9.2971697 -0.10657072
38.989166 -9.0781651 -0.16983318
39.015358 -9.0997152 -0.10494852
38.98764 -8.8842716 -0.17427301
39.014832 -8.9028263 -0.095314026
38.991283 -8.7207136 -0.12871456
39.009895 -8.705945 -0.089947224
38.978001 -8.5807495 -0.17425013
38.693001 -7.9348321 -0.085166693
38.981781 -7.8508415 -0.07284236
39.011333 -7.8756671 -0.10083365
38.983795 -7.7166224 -0.091413975
39.008999 -7.6794996 -0.16900039
39.005001 -7.4129992 -0.18400002
38.981716 -7.2876658 -0.11423826
39.012146 -7.2937136 -0.13914299
38.982944 -7.1038322 -0.10788918
39.017914 -7.0993629 -0.15345454
38.704834 -6.9179583 -0.11975026
38.870205 -6.9957995 -0.12059999
38.963501 -6.7754998 -0.15150023
39.066498 -11.014499 0.093000412
39.053833 -10.979498 0.10949945
39.042 -10.615332 0.10466719
38.994003 -10.446999 0.054499626
39.033054 -10.501936 0.1061759
38.995998 -10.309999 0.041000366
39.022949 -10.296997 0.10319519
38.995338 -10.098833 0.047333241
39.022102 -10.103178 0.1069746
38.998501 -9.8214979 0.094499588
39.034744 -9.9085464 0.097523689
39.363998 -9.9779978 0.006000042
38.994251 -9.7054996 0.09924984
39.019974 -9.7084856 0.091297626
38.989365 -9.5386353 0.096636295
39.016335 -9.4976387 0.083861351
38.993336 -9.3016644 0.082333088
39.022301 -9.2984562 0.089129925
38.991753 -9.0714989 0.16825008
39.020695 -9.0928907 0.087760925
38.994335 -8.9072218 0.058555126
39.013783 -8.9002438 0.10500002
38.988602 -8.7419987 0.07019949
39.012001 -8.7732487 0.06374979
38.702332 -8.0458317 0.095499754
38.982006 -8.0388002 0.15099978
38.98138 -7.8961754 0.10565042
39.004601 -7.9270005 0.049800158
38.974617 -7.7090702 0.085679054
39.006752 -7.7304993 0.13750005
38.977001 -7.4106669 0.12166739
39.019501 -7.407999 0.093500137
38.97123 -7.3128643 0.10800028
39.019417 -7.2747502 0.094833612
38.970879 -7.0936384 0.1034801
39.010403 -7.1178002 0.1190002
38.71032 -6.911479 0.10816002
38.877399 -6.9917994 0.10640025
39.027122 -10.644999 0.29837465
38.991001 -10.538998 0.3829999
39.036228 -10.494511 0.29740047
39.031452 -10.294333 0.29850054
38.985001 -10.109999 0.37599945
39.031799 -10.099455 0.29404497
38.9935 -9.9159985 0.30799961
39.026833 -9.9008808 0.2919302
38.998337 -9.6356649 0.22800016
39.029552 -9.7098808 0.29366684
38.99144 -9.5021229 0.30156279
39.028198 -9.5076103 0.28535509
38.992332 -9.3264418 0.31050014
39.011364 -9.2900505 0.28555202
38.99192 -9.088665 0.29216671
39.015007 -9.0992575 0.31005669
38.987225 -8.9001093 0.27566671
39.013252 -8.9472494 0.31050014
39.006001 -8.230998 0.39299965
38.691666 -8.1669979 0.29666686
38.977245 -8.0881062 0.32167864
39.007999 -8.093998 0.24950027
38.965244 -7.905643 0.29676223
39.004005 -7.8533335 0.32633376
38.969757 -7.7207575 0.28936005
39.011002 -7.6762218 0.32500005
38.970863 -7.4965715 0.30142856
39.013 -7.4279995 0.3659997
38.978317 -7.2860003 0.26852632
39.030888 -7.2957783 0.25411057
38.732498 -7.0189991 0.26999998
38.966122 -7.0942793 0.26403975
39.001999 -7.0749989 0.39900017
38.568501 -6.9287491 0.37450051
38.67104 -6.9202728 0.25486374
38.959 -6.9799995 0.39800024
38.998001 -10.537998 0.48100042
39.030087 -10.490541 0.49671412
39.034214 -10.290833 0.49542904
39.048862 -10.097178 0.49300003
38.997002 -9.8149986 0.50200033
39.036083 -9.9019108 0.49002218
38.992836 -9.6634979 0.53133297
39.026436 -9.7043171 0.4925909
38.996166 -9.5284986 0.49783325
39.014233 -9.5043697 0.50020933
38.988777 -9.2967262 0.50231791
39.017006 -9.3173027 0.50830412
38.994862 -9.1180706 0.49664307
39.023579 -9.108345 0.50084686
38.987 -8.9509993 0.48433304
39.017502 -8.8844986 0.53599977
38.68 -8.3000002 0.49699926
38.991234 -8.2543831 0.53346157
39.009666 -8.2609987 0.52100062
38.977032 -8.1064425 0.50449991
39.007 -8.0994978 0.4372499
38.968082 -7.9128141 0.4979744
39.004501 -7.8954992 0.44249988
38.962749 -7.7120438 0.49684072
38.97311 -7.4617772 0.52355552
39.008499 -7.4039993 0.41999984
38.961983 -7.2870479 0.49976182
39.03175 -7.3212495 0.50699997
38.962597 -7.1001873 0.51490641
39.007004 -7.0781422 0.46014261
38.498039 -6.933147 0.50785184
38.623001 -6.8519993 0.42900014
38.969498 -6.9773321 0.51249981
39.048691 -10.290449 0.6911912
39.040314 -10.09259 0.68893147
39.041527 -9.8953323 0.69541693
38.995377 -9.6697483 0.67937517
39.026134 -9.706398 0.70819998
38.993404 -9.566 0.66139984
39.031925 -9.4937553 0.70740557
38.9935 -9.3234978 0.73899984
39.025444 -9.3236198 0.67955112
39.030182 -9.1512709 0.65263605
38.6745 -8.4397488 0.73075008
38.97567 -8.4153309 0.7476666
39.000999 -8.4169979 0.79299974
38.646999 -8.355998 0.6079998
38.977894 -8.2849998 0.7073667
39.0145 -8.3388309 0.66800046
38.970486 -8.1091976 0.68768525
39.009003 -8.038332 0.75600052
38.974674 -7.9132118 0.69912148
39.007431 -7.8637142 0.67814326
38.969109 -7.7118092 0.70751119
38.9646 -7.4507999 0.77220011
38.95295 -7.2920012 0.71866679
39.003502 -7.2349997 0.71149993
38.962738 -7.0924788 0.70582604
39.004002 -7.0359988 0.79100037
38.962002 -6.975666 0.72433329
39.040997 -10.093149 0.90490007
39.039471 -9.8837023 0.92729425
39.044052 -9.6913643 0.91668177
38.999001 -9.5819988 0.88999987
39.024101 -9.4981041 0.92000008
39.0228 -9.3469982 0.92580032
38.672001 -8.480999 0.80199957
38.984547 -8.437726 0.86981797
39.004501 -8.4604988 0.89500022
38.986614 -8.3050413 0.86830449
39.009373 -8.2766237 0.87750006
38.9832 -8.0917978 0.87315011
39.01342 -8.1144161 0.85841703
38.973652 -7.8988953 0.85906863
39.014248 -7.9522486 0.91224957
38.969963 -7.7039609 0.8759625
39.002998 -7.7684989 0.83699965
38.956001 -7.4492002 0.85099983
38.968868 -7.2973175 0.87063718
39.010002 -7.2759991 0.89233303
38.964333 -7.0878744 0.8724165
39.027 -7.197999 0.82599926
38.919804 -6.9707985 0.87999988
39.030998 -9.7359982 1.3650002
39.073002 -9.4979992 1.3520007
38.695 -8.8579979 1.3980005
38.709 -8.7939987 1.3299999
39.038002 -8.7284994 1.3254998
39.023998 -8.586998 1.3230002
39.023003 -8.232748 1.3369999
38.996002 -8.0019989 1.3504994
39.021999 -8.0319977 1.3150001
38.987999 -7.9369993 1.3135002
39.016502 -7.87925 1.3470006
39.015671 -7.7403326 1.3323338
39.066498 -9.4889984 1.4955001
38.712669 -8.8749981 1.4700003
39.029335 -8.843998 1.4866667
39.025497 -8.7259979 1.4635
39.036003 -8.5246658 1.445667
39.040573 -8.3010693 1.5298572
39.014374 -8.1044979 1.5272501
39.026836 -7.9229155 1.5199168
39.023499 -7.7554989 1.5415001
39.005001 -7.5726662 1.4919996
38.666 -9.0429974 1.7525003
38.994999 -9.0139999 1.7620001
39.039001 -9.0149975 1.7980003
38.692501 -8.9804983 1.6709998
39.034431 -8.8981771 1.7380724
38.995998 -8.6239986 1.7889998
39.03207 -8.7128248 1.731828
39.025375 -8.5304146 1.738708
38.987503 -8.2464981 1.7539999
39.035656 -8.2852745 1.7326553
38.989624 -8.1092491 1.7585003
39.02552 -8.0871725 1.724565
38.987427 -7.8822861 1.695143
39.013256 -7.9018149 1.7227411
38.9874 -7.7206984 1.6929002
39.0098 -7.7151341 1.7350674
38.973251 -7.4207492 1.7007501
39.023666 -7.5193329 1.7306664
38.977947 -7.3231659 1.7190554
39.009289 -7.3149996 1.6819997
38.686001 -9.2099991 1.9689999
39.064999 -9.3239985 1.8240004
38.687286 -9.1241436 1.9084294
39.064442 -9.0613327 1.916333
39.042107 -8.8961821 1.9120002
38.999001 -8.7859993 1.8240004
39.035896 -8.7034092 1.9117184
39.02832 -8.5303698 1.9057148
39.038841 -8.2828426 1.9109061
38.996002 -8.0529976 1.9210002
39.020683 -8.1145115 1.892432
38.985352 -7.8569403 1.9118237
39.023857 -7.9166193 1.8794765
38.990612 -7.7080002 1.9163849
39.013721 -7.714221 1.8754454
38.997002 -7.5659995 1.8609998
39.025429 -7.4358563 1.9015715
38.971588 -7.3474164 1.8580005
39.006668 -7.3829994 1.9073334
38.7015 -9.1839981 2.0349998
38.991001 -9.0079994 2.122
39.043526 -9.0903492 2.1015508
38.997002 -8.8999987 2.1423337
39.022461 -8.8923702 2.1033425
38.987 -8.7242489 2.1580002
39.030968 -8.6998873 2.0984726
38.999001 -8.4909983 2.017
39.0322 -8.5373116 2.0993712
39.033691 -8.2775831 2.1046209
39.032024 -8.1033993 2.0944254
38.990204 -7.8782005 2.0513003
39.030605 -7.899837 2.1154523
38.987335 -7.722333 2.0537496
39.020527 -7.6996298 2.1170528
38.973999 -7.4159994 2.0360005
39.016335 -7.5133333 2.064666
39.038361 -8.8907013 2.3062162
39.040245 -8.6975269 2.3024445
39.040684 -8.527113 2.2896571
38.987 -8.2279978 2.2090003
39.040154 -8.2632608 2.3014205
38.993999 -8.0784988 2.3719997
39.030354 -8.1131763 2.2893238
39.035488 -7.8978605 2.2912092
39.031303 -7.6984229 2.2887273
39.019001 -7.5609989 2.2319999
38.647003 -6.8986006 2.3678
39.059082 -8.69625 2.5003247
39.061878 -8.5252037 2.5029118
39.06432 -8.2536802 2.4933181
39.056286 -8.1028938 2.4935527
39.060104 -7.9088478 2.4909494
39.057655 -7.7512164 2.4759567
39.040001 -7.5579991 2.4639995
38.654335 -6.9316664 2.4435
39.05452 -8.5249586 2.6971602
39.065998 -8.2516098 2.695945
39.055672 -8.104641 2.6931667
39.046543 -7.9207077 2.6813548
39.031502 -7.7964993 2.6215003
38.678001 -7.230999 2.7479999
38.647388 -7.079999 2.6955554
38.988998 -7.0089993 2.7780001
38.966091 -6.9411807 2.7134552
39.055889 -8.2495527 2.8440003
39.046726 -8.102664 2.8411114
39.038429 -7.9657135 2.8341434
38.653 -7.1350002 2.8180006
38.992668 -7.0189991 2.8393335
39.009499 -7.0559988 2.8635001
38.995998 -6.9759989 2.829
38.651497 -7.687499 3.5715005
38.9683 -7.059299 3.5548
38.965099 -6.9517994 3.5647001
38.643669 -7.6943331 3.6016674
38.999001 -7.2599993 3.6300006
39.000999 -7.2589993 3.647501
38.996002 -7.0843325 3.6413336
39.034336 -7.0366659 3.6590002
38.958599 -6.947999 3.6305995
39.014 -6.9949989 3.6670003
38.735001 -7.6159992 3.881
38.727001 -7.5240002 3.9710007
39.046501 -7.4889994 3.9469998
38.734001 -7.4289994 4.0620003
39.032997 -7.3008738 4.0244999
38.653999 -7.1139984 4.3689995
38.25367 -6.8143334 4.2643342
38.740997 -6.8164988 4.3730001
38.986 -7.0364995 4.4070005
39.023666 -7.0493331 4.4376669
38.975113 -6.9045544 4.4166675
39.009003 -6.9083328 4.4463344
32.787998 -2.3440003 7.9380007
33.772003 1.0835006 11.983999
33.762001 1.0936658 12.025667
34.793999 1.9580004 12.549001
34.81311 1.9207771 12.479223
34.813 2.0114994 12.557501
34.806999 1.9679997 12.606001
34.798 2.000999 12.614
34.814499 2.0499997 12.665501
