# .PCD v0.7 - Point Cloud Data file format
VERSION 0.7
FIELDS x y z
SIZE 4 4 4
TYPE F F F
COUNT 1 1 1
WIDTH 1471
HEIGHT 1
VIEWPOINT 0 0 0 1 0 0 0
POINTS 1471
DATA ascii
-8.2988338 -10.295835 -1.0862498
-8.0755816 -10.291329 -1.1077614
-12.240808 -10.010384 -1.1848569
-12.094185 -10.027639 -1.1737795
-11.925064 -10.053731 -1.1668191
-11.683 -10.0355 -1.0334997
-11.556499 -10.021625 -1.11375
-11.368 -10.143667 -1.0886669
-11.041714 -10.177428 -1.0712852
-10.882289 -10.187526 -1.0517893
-10.786334 -10.196001 -1.0226669
-10.516771 -10.086021 -1.1103263
-10.380429 -10.059573 -1.1288576
-9.3181248 -10.043999 -1.0894375
-9.1990004 -10.058001 -1.0020003
-8.2539997 -10.113617 -1.097846
-13.26172 -9.813344 -1.1788831
-13.098273 -9.8367777 -1.1720228
-12.893592 -9.857007 -1.1510906
-12.674998 -9.8605175 -1.113276
-12.455517 -9.9077015 -1.109725
-12.309794 -9.9195671 -1.0976615
-12.105721 -9.9392128 -1.0705714
-11.949802 -9.9661236 -1.0635948
-11.52311 -9.9008579 -1.099165
-10.482574 -9.9604626 -1.053205
-10.387583 -9.9576664 -1.0495834
-9.4090004 -9.9910011 -1.0079999
-14.436159 -9.6094732 -1.190053
-14.288029 -9.6207085 -1.1794467
-14.092869 -9.6474762 -1.1686735
-13.971799 -9.6526012 -1.1496873
-13.462251 -9.710104 -1.0981917
-13.305112 -9.7284508 -1.0924439
-13.104795 -9.7485657 -1.0698504
-12.884192 -9.7411652 -1.078218
-12.671072 -9.7540722 -1.1279998
-12.502301 -9.6592007 -1.0604
-11.641183 -9.6052732 -1.1866369
-11.485026 -9.7140942 -1.1129317
-15.4526 -9.4089499 -1.1800995
-15.294051 -9.4309273 -1.1652751
-15.149931 -9.4608212 -1.1650715
-14.866999 -9.4559851 -1.1181426
-14.69211 -9.475256 -1.1053572
-14.500043 -9.5060749 -1.0991983
-14.303137 -9.5254822 -1.0790267
-14.1016 -9.5548306 -1.0697074
-13.953544 -9.5237141 -1.0907841
-13.767355 -9.4959679 -1.1385484
-12.816721 -9.5212841 -1.0851831
-12.727835 -9.4910908 -1.095367
-12.56775 -9.5710001 -1.0252504
-11.647008 -9.515645 -1.0739765
-15.930723 -9.237772 -1.1181092
-15.685268 -9.3049793 -1.1238594
-15.496684 -9.3161278 -1.0976491
-15.330676 -9.3239174 -1.0703964
-15.137186 -9.3553038 -1.0701265
-14.893812 -9.3144608 -1.0865974
-14.71156 -9.3772058 -1.0060005
-14.6 -9.3890009 -1.0019999
-13.894258 -9.3366776 -1.0942507
-17.5082 -9.0247993 -1.1705999
-18.237751 -8.8452511 -1.1417503
-18.080574 -8.8570004 -1.1280305
-17.879009 -8.8798866 -1.1240001
-17.728056 -8.8859348 -1.1022842
-17.531 -8.9411011 -1.0839
-18.0772 -8.7793999 -1.0347998
-17.908146 -8.7778578 -1.0244288
-17.72275 -8.7923126 -1.0142503
5.3605003 -13.4105 -0.98999977
5.4829998 -13.412001 -0.98350048
5.9296665 -13.408333 -0.96400023
6.1691666 -13.411501 -0.96400023
6.2773337 -13.417778 -0.96888971
6.7077336 -13.4182 -0.95773315
6.9208183 -13.410818 -0.95872641
7.1086545 -13.415347 -0.96185732
7.3000784 -13.417364 -0.95913982
7.477973 -13.419379 -0.95300007
8.9879999 -13.438999 -0.93199968
9.0992155 -13.427359 -0.95478582
9.2883539 -13.422707 -0.94605875
9.5340624 -13.420563 -0.94168711
9.6343336 -13.429 -0.95866728
9.9235001 -13.408501 -0.93949986
10.114624 -13.44925 -0.95712423
10.2495 -13.423251 -0.94637537
10.781 -13.427001 -0.97799969
10.892 -13.431223 -0.96377802
11.047001 -13.417001 -0.95050049
11.558 -13.402002 -0.97999954
11.613 -13.407 -0.98000002
12.194 -13.404999 -0.99199963
13.5345 -13.406 -0.99500036
13.658 -13.407 -0.99200058
14.1695 -13.415001 -0.97999954
14.3292 -13.426601 -0.98160076
14.498001 -13.439667 -0.98100042
14.717275 -13.425547 -0.98272705
15.133 -13.436272 -0.96845484
15.276201 -13.428066 -0.97533369
15.440666 -13.446667 -0.97433376
15.928288 -13.415247 -0.9703784
16.108469 -13.41659 -0.97313595
16.298798 -13.413187 -0.97309351
16.491699 -13.412793 -0.96983004
16.683149 -13.412149 -0.96310043
17.181501 -13.408375 -0.96999931
17.286793 -13.40621 -0.96829128
17.491573 -13.404751 -0.97185707
17.704418 -13.406668 -0.96416664
17.863428 -13.40543 -0.96199942
18.000999 -13.42 -0.97799969
18.336334 -13.411335 -0.96199989
18.485001 -13.406001 -0.98057175
18.607 -13.406 -0.98199987
27.288336 -13.409 -0.99266624
27.432667 -13.413669 -0.99033308
27.981001 -13.408001 -0.96899986
28.004 -13.401001 -0.96999979
28.247999 -13.408001 -0.96099997
34.282001 -13.403 -0.99600029
36.326 -13.404502 -0.98699999
36.439499 -13.413 -0.99650049
36.643501 -13.406501 -0.98099995
4.5659518 -13.266716 -0.96966743
4.7188387 -13.25658 -0.92545128
4.8811235 -13.275957 -0.91320419
5.1407146 -13.269117 -0.91777992
5.2843995 -13.291601 -0.89866686
5.4990001 -13.311314 -0.88506269
5.6817775 -13.301891 -0.87255573
5.9250002 -13.358999 -0.91849995
6.1161432 -13.326643 -0.8925004
6.291923 -13.338925 -0.89615393
6.5960002 -13.329 -0.86399984
6.6930523 -13.336792 -0.86752653
6.901948 -13.337053 -0.87189388
7.1033621 -13.330013 -0.86166668
7.3021336 -13.332118 -0.85483837
7.4760289 -13.331257 -0.90131378
9.1541109 -13.346111 -0.86044502
9.2936115 -13.335001 -0.85238886
9.4945459 -13.322638 -0.85100031
9.6791668 -13.331669 -0.84333229
9.8954821 -13.299343 -0.87775946
10.125334 -13.339334 -0.86416674
10.285126 -13.311375 -0.83799982
10.739667 -13.341001 -0.8793335
10.909462 -13.319615 -0.86653852
11.043257 -13.311857 -0.92031431
11.531584 -13.335583 -0.88216686
11.703422 -13.331842 -0.89363194
11.890499 -13.305751 -0.89249992
12.146976 -13.295427 -0.91542816
12.209858 -13.274359 -0.90614319
12.521 -13.375 -0.97899961
12.895 -13.36 -0.96700001
13.159834 -13.281166 -0.86899948
13.303133 -13.330868 -0.91019964
13.556346 -13.279087 -0.91603088
13.702579 -13.301262 -0.88485146
13.874657 -13.268803 -0.852561
14.125119 -13.305023 -0.86890507
14.275761 -13.308716 -0.87343502
14.452999 -13.34643 -0.89142895
14.740806 -13.33485 -0.92370796
14.848688 -13.295062 -0.85475016
15.165 -13.341888 -0.89144516
15.278447 -13.320185 -0.87307453
15.4785 -13.360334 -0.90600109
15.760753 -13.264 -0.93745852
15.9201 -13.288074 -0.9044385
16.101044 -13.316436 -0.87725973
16.298231 -13.324703 -0.88100529
16.498838 -13.32621 -0.89028072
16.661606 -13.315424 -0.87881804
17.163561 -13.285077 -0.91783857
17.301712 -13.328947 -0.89425564
17.501316 -13.331926 -0.89642382
17.700293 -13.334671 -0.9020648
17.840965 -13.333019 -0.89992142
18.120085 -13.278584 -0.88941669
18.346287 -13.328747 -0.90606785
18.498772 -13.334137 -0.89688635
18.727654 -13.305727 -0.88078594
18.860292 -13.293118 -0.87500048
19.101557 -13.305111 -0.89889002
19.222 -13.326 -0.9010005
19.532766 -13.268005 -0.89843559
19.698561 -13.267181 -0.89924622
19.900236 -13.265681 -0.90349674
20.087929 -13.269169 -0.91039276
20.296247 -13.27157 -0.91455507
20.435806 -13.271324 -0.91402531
20.755789 -13.289243 -0.92345428
20.898291 -13.276635 -0.9095335
21.107515 -13.276606 -0.92778969
21.29891 -13.274035 -0.92908192
21.49605 -13.276346 -0.92890644
21.670973 -13.270332 -0.93043709
21.964514 -13.260895 -0.94437933
22.112375 -13.268948 -0.92744493
22.296669 -13.264481 -0.92542744
22.502092 -13.26432 -0.92878532
22.695251 -13.262394 -0.92883253
22.812143 -13.291286 -0.94564247
23.317778 -13.272624 -0.91626453
23.4995 -13.284685 -0.92126274
23.674633 -13.282568 -0.91728258
23.922346 -13.271173 -0.89288568
24.0452 -13.244636 -0.90770721
24.33666 -13.286453 -0.90796232
24.500397 -13.289242 -0.91712046
24.709639 -13.269624 -0.91687346
24.879112 -13.278742 -0.92294693
25.102749 -13.264502 -0.89881277
25.250999 -13.309001 -0.93599987
25.479 -13.256001 -0.91200018
25.968334 -13.281668 -0.98666668
26.109276 -13.269241 -0.92612982
26.306076 -13.268663 -0.90679836
26.422161 -13.260923 -0.93464708
26.775602 -13.272601 -0.88800001
26.82 -13.318502 -0.9465003
27.150335 -13.262333 -0.8721242
27.295424 -13.28688 -0.89267778
27.422836 -13.293334 -0.89583254
27.970875 -13.294749 -0.90999985
28.129 -13.282 -0.89199972
28.348001 -13.241924 -0.84261608
28.507063 -13.275029 -0.87223577
28.691278 -13.290307 -0.88975048
28.823599 -13.268001 -0.875
29.291643 -13.249215 -0.86621523
29.440224 -13.254779 -0.86966753
29.742001 -13.231667 -0.85500002
29.920383 -13.243153 -0.8522315
30.036777 -13.250113 -0.85977793
33.598 -13.302 -0.99500036
33.599998 -13.302 -0.97099876
34.238499 -13.381002 -0.97649956
34.555 -13.203001 -0.83899975
34.64233 -13.264223 -0.90622187
36.339924 -13.288156 -0.88753796
36.488747 -13.325417 -0.91633368
36.722168 -13.255667 -0.8670001
3.3452446 -13.051336 -0.97375631
3.5023811 -13.066887 -0.96015024
3.702323 -13.063187 -0.91530752
3.9190164 -13.087799 -0.91579151
4.0291252 -13.098585 -0.91018629
4.5331249 -13.175501 -0.89212513
4.7458754 -13.182625 -0.83237457
4.8365002 -13.1915 -0.82749987
5.178421 -13.103836 -0.89461994
5.2641006 -13.079376 -0.92127419
6.3587494 -13.0505 -0.90674925
6.4800916 -13.055546 -0.94800091
8.8824644 -13.075984 -0.89960527
9.8883638 -13.06846 -0.91823435
10.05647 -13.061649 -0.89944124
11.088346 -13.059394 -0.92874193
11.213375 -13.035501 -0.91387463
12.19175 -13.160749 -0.93000031
12.206072 -13.151287 -0.95221472
13.377335 -13.017002 -0.97666645
13.569153 -13.096236 -0.90423155
15.7648 -13.123629 -0.90734243
15.936749 -13.108019 -0.89274836
16.0028 -13.016401 -0.9831996
16.963289 -13.040806 -0.93477488
17.118944 -13.094315 -0.90504646
18.155849 -13.06567 -0.93817854
18.29261 -13.054337 -0.91862583
19.299999 -13.033001 -0.8119998
19.492067 -13.128694 -0.87434673
19.689684 -13.194792 -0.82552624
19.906956 -13.194321 -0.83654547
20.100561 -13.191616 -0.83673525
20.311703 -13.191111 -0.83653641
20.465612 -13.162838 -0.85751057
20.730001 -13.115555 -0.89388847
20.909237 -13.192589 -0.82941151
21.101658 -13.179377 -0.83134556
21.296587 -13.175156 -0.82861328
21.49663 -13.173522 -0.82651711
21.68306 -13.118233 -0.87096453
21.919519 -13.11479 -0.88373041
22.110661 -13.15775 -0.82449198
22.29929 -13.152491 -0.82510281
22.498783 -13.148597 -0.82448483
22.67507 -13.146202 -0.82687473
22.815666 -13.158 -0.82200003
23.318882 -13.153646 -0.81699944
23.494583 -13.163584 -0.82008362
23.672445 -13.166889 -0.81522179
23.931667 -13.160252 -0.81225061
24.038534 -13.089922 -0.90816212
24.307428 -13.147573 -0.8305707
24.493402 -13.172 -0.80359983
24.699268 -13.171533 -0.81166697
24.839333 -13.180667 -0.82500076
25.0945 -13.197001 -0.82749987
25.207003 -13.104601 -0.89560032
25.472 -13.194 -0.87299967
25.980999 -13.194 -0.86850023
26.097395 -13.189333 -0.84112215
26.333261 -13.160632 -0.88447428
26.415493 -13.13306 -0.9233284
27.177999 -13.193001 -0.81049967
27.724001 -13.008 -0.94299936
28.3235 -13.1885 -0.80249977
28.443335 -13.194 -0.81266642
28.767231 -13.09095 -0.90476894
28.821386 -13.153694 -0.84492254
29.280998 -13.170272 -0.83418179
29.73782 -13.154819 -0.83163691
29.871 -13.123 -0.82966661
34.546997 -13.174 -0.80849934
34.613998 -13.177 -0.84349966
2.3139999 -12.862501 -0.95412493
2.5518847 -12.843573 -0.90227795
2.6665924 -12.878687 -0.91779947
2.8846757 -12.900947 -0.89808083
3.0348334 -12.875833 -0.91338968
3.3461947 -12.947475 -0.87019539
3.48773 -12.970366 -0.86206532
3.6738 -12.980336 -0.83290005
3.9866345 -12.931339 -0.89703465
4.0578685 -12.855773 -0.92479992
4.2207499 -12.875 -0.96099949
5.1837859 -12.889475 -0.91322994
5.2101889 -12.937059 -0.87975454
6.3940001 -12.9755 -0.85750055
6.4943337 -12.951935 -0.83459902
7.6929998 -12.918001 -0.81750011
8.9108934 -12.899296 -0.89969301
9.9091673 -12.953594 -0.87887049
10.044157 -12.946735 -0.88099957
11.090334 -12.964666 -0.85229158
12.220734 -12.874333 -0.86633348
12.473091 -12.815365 -0.89604521
13.364799 -12.938202 -0.88150024
13.53079 -12.939335 -0.86901951
14.593 -12.973 -0.8119998
14.69075 -12.974752 -0.82975006
15.760472 -12.880167 -0.92261171
15.965055 -12.885717 -0.91377831
16.00441 -12.87414 -0.918715
16.969078 -12.962768 -0.84503889
17.077551 -12.963861 -0.8470974
18.166286 -12.947531 -0.85623312
18.269211 -12.947749 -0.85485983
19.301378 -12.895 -0.88520765
19.5452 -12.850094 -0.93898773
20.556715 -12.921288 -0.8837142
20.673 -12.915377 -0.90879297
21.729612 -12.898232 -0.89248133
21.833263 -12.886793 -0.90104437
22.908001 -12.818001 -0.81599998
23.013 -12.861 -0.88799906
24.206001 -12.934999 -0.9090004
25.188801 -12.821133 -0.84346628
25.278288 -12.853116 -0.91136217
26.399 -12.924667 -0.83300018
26.432446 -12.90027 -0.88718939
27.592798 -12.920601 -0.83459949
27.681053 -12.940487 -0.86725712
28.748833 -12.972167 -0.9883337
28.932333 -12.841666 -0.82266665
29.938454 -12.858357 -0.90553188
32.396999 -12.931 -0.82000065
32.494667 -12.933002 -0.83766699
32.605 -12.98 -0.88699961
33.743 -12.927 -0.8409996
35.875999 -12.967001 -0.85650063
37.851002 -12.83 -0.954
0.93066669 -12.609667 -0.97633314
1.1594783 -12.64061 -0.97710943
1.3069123 -12.661098 -0.96221638
1.5074482 -12.669678 -0.9246397
1.6909994 -12.69626 -0.91291904
1.977 -12.693668 -0.899333
2.0282502 -12.647249 -0.93249989
2.2901175 -12.772119 -0.84723568
2.5371788 -12.785322 -0.83546448
2.6155715 -12.790144 -0.82971478
2.934 -12.6558 -0.8961997
3.0646667 -12.652 -0.95933294
3.9898748 -12.778126 -0.85024977
4.0742941 -12.752422 -0.85618353
4.2195001 -12.7775 -0.86199951
5.1711588 -12.705094 -0.87169075
5.2846589 -12.685073 -0.91439867
5.42974 -12.674962 -0.8717041
12.291072 -12.681778 -0.9069252
12.46918 -12.70996 -0.88729477
15.765441 -12.724621 -0.88236475
15.909039 -12.727334 -0.88429928
16.00802 -12.741413 -0.86097717
19.33853 -12.692316 -0.92060804
19.499191 -12.676399 -0.91862392
21.766834 -12.792003 -0.80499983
21.830168 -12.796 -0.80966616
22.795113 -12.674002 -0.90322256
22.818001 -12.753001 -0.88599968
25.183144 -12.788143 -0.81771517
25.264063 -12.779936 -0.82425737
26.435423 -12.678855 -0.91307974
27.663 -12.733 -0.81200075
29.928255 -12.699884 -0.90491486
-0.015 -12.400999 -0.99000025
0.13231429 -12.418203 -0.98880005
0.30862072 -12.453204 -0.98020744
0.49937674 -12.444849 -0.9343195
0.61487502 -12.44425 -0.93462515
0.91708338 -12.50696 -0.89491653
1.1510425 -12.524943 -0.86894226
1.2901852 -12.554579 -0.86629152
1.4700122 -12.568965 -0.84128332
1.7550205 -12.49297 -0.8985033
1.9548889 -12.501112 -0.83566666
2.0438826 -12.515002 -0.93123484
2.9571428 -12.531713 -0.84114313
3.0311904 -12.515905 -0.85571337
5.1735716 -12.586287 -0.80814362
5.2649994 -12.592288 -0.80757236
12.288928 -12.586575 -0.81635761
12.4445 -12.590251 -0.80875015
19.327499 -12.583 -0.84850025
-0.89277774 -12.218223 -0.99944401
-0.67957151 -12.225284 -0.98467875
-0.527125 -12.234874 -0.94287539
-0.2606706 -12.256184 -0.92991734
-0.092971914 -12.282642 -0.91523457
0.096695416 -12.296752 -0.88911104
0.29810268 -12.331869 -0.87890911
0.47852179 -12.350382 -0.85992861
0.6243999 -12.239401 -0.90310001
1.774248 -12.306473 -0.90071726
1.8588752 -12.222251 -0.96718788
2.1732001 -12.352202 -0.93480015
-1.4284033 -12.02629 -0.94569445
-1.294503 -12.051455 -0.93660307
-1.128975 -12.075769 -0.92216635
-0.90213478 -12.098028 -0.89663601
-0.67415673 -12.128653 -0.88795137
-0.55160004 -12.129845 -0.86702251
-0.26293945 -12.126676 -0.86040115
-0.11265153 -12.18083 -0.81996155
0.031714287 -12.193999 -0.81471443
0.7150625 -12.074688 -0.92362547
0.82428575 -12.070286 -0.85700035
1.780553 -12.134453 -0.87773085
1.8393704 -12.132076 -0.91064692
2.0365 -12.078001 -0.83200026
-2.4661713 -11.81229 -0.96299934
-2.3246117 -11.834158 -0.9547987
-2.0528002 -11.881067 -0.91859913
-1.8746984 -11.895085 -0.898386
-1.7690358 -11.903894 -0.89325047
-1.4471694 -11.905613 -0.8911376
-1.3009516 -11.951344 -0.83361626
-1.1520901 -11.978829 -0.83205414
-0.4420943 -11.825924 -0.95913219
-0.29144922 -11.861464 -0.93243933
0.76530004 -11.966901 -0.82439995
0.80400002 -11.988001 -0.8119998
-3.4675715 -11.613245 -0.96727037
-3.3214793 -11.63618 -0.96008396
-3.0895262 -11.663302 -0.92944717
-2.9913335 -11.618 -0.85166645
-2.4649851 -11.740217 -0.88566875
-2.3014054 -11.74048 -0.84841585
-2.1747649 -11.761499 -0.83732367
-1.609 -11.7875 -0.98000002
-1.4754169 -11.727749 -0.87364578
-1.3167037 -11.627112 -0.96818542
-0.42698357 -11.743004 -0.8775444
-0.32764301 -11.74374 -0.87095547
-4.607667 -11.406668 -0.97066736
-4.4722147 -11.414359 -0.97007227
-4.3010983 -11.441312 -0.96166658
-4.0875478 -11.457808 -0.92888117
-3.9648697 -11.436522 -0.86999941
-3.6524124 -11.49334 -0.91266775
-3.5088933 -11.529568 -0.88665628
-3.3024306 -11.545681 -0.85872889
-3.1457903 -11.571855 -0.84685469
-2.6246667 -11.430334 -0.97733402
-2.5457499 -11.43225 -0.96999979
-1.4910001 -11.592667 -0.84233379
-1.3160001 -11.486513 -0.91025782
-5.6853333 -11.225001 -0.97266626
-5.4842501 -11.224 -0.96575022
-5.2734003 -11.257999 -0.96500015
-5.0823336 -11.271111 -0.94377756
-4.8576674 -11.276403 -0.91593361
-4.734962 -11.279251 -0.90527391
-4.5016122 -11.335663 -0.88346243
-4.3021779 -11.357865 -0.86186504
-4.1166162 -11.384127 -0.85076571
-3.9579999 -11.385 -0.82239962
-3.6504323 -11.367047 -0.85027218
-3.5573442 -11.26819 -0.92084789
-2.6520336 -11.312599 -0.85286665
-2.5515554 -11.358444 -0.88499975
-6.0847998 -11.056799 -0.91984034
-5.8899279 -11.046288 -0.93947649
-5.6943569 -11.116786 -0.89314222
-5.5051537 -11.141922 -0.8691535
-5.3234444 -11.167001 -0.86066628
-5.1205711 -11.187428 -0.84800005
-4.8805003 -11.185999 -0.91900015
-4.7396674 -11.08532 -0.90827894
-3.6587858 -11.101944 -0.9094305
-3.5587435 -11.131686 -0.88351107
-2.6728921 -11.063671 -0.86024618
-7.7145 -10.802 -0.99050045
-6.1442223 -10.987555 -0.85466671
-8.6394997 -10.610001 -0.98374987
-8.4902925 -10.627876 -0.98366642
-8.3726664 -10.635889 -0.98355532
-7.8583126 -10.710127 -0.9290309
-7.742394 -10.709575 -0.90324259
-7.5643339 -10.731334 -0.85599995
-9.8109999 -10.426001 -0.98499966
-9.692112 -10.411779 -0.99488926
-9.5612497 -10.4265 -0.98874998
-9.2342863 -10.451286 -0.92185688
-9.1390772 -10.453464 -0.90453815
-8.8961229 -10.475389 -0.90293837
-8.696537 -10.491887 -0.88726664
-8.500721 -10.528933 -0.89370155
-8.3566036 -10.48735 -0.9071312
-8.1549997 -10.454294 -0.9431181
-7.9409995 -10.422304 -0.90672684
-7.7940001 -10.599001 -0.82000017
-10.851999 -10.208 -0.99749994
-10.698455 -10.219182 -0.99390936
-10.516566 -10.223566 -0.95691299
-10.306666 -10.232666 -0.913167
-10.095864 -10.277235 -0.92068052
-9.8776579 -10.291998 -0.90873194
-9.7185984 -10.323708 -0.91135693
-9.5338221 -10.343647 -0.90864706
-9.2317696 -10.306231 -0.90507746
-9.0786362 -10.362728 -0.81790876
-8.9140434 -10.383695 -0.81678295
-8.78475 -10.39575 -0.81050014
-8.3073568 -10.294073 -0.89499998
-8.1116629 -10.301401 -0.90935421
-7.9513674 -10.339397 -0.86512184
-11.268001 -10.061666 -0.93899965
-11.0568 -10.084701 -0.90889978
-10.855992 -10.091705 -0.89951038
-10.705912 -10.115568 -0.89167976
-10.535189 -10.104547 -0.90824556
-10.306727 -10.14082 -0.82363653
-10.127446 -10.173389 -0.82500029
-9.9251108 -10.189556 -0.81255579
-9.4110003 -10.051335 -0.87966681
-9.304493 -10.047771 -0.87708426
-9.1750002 -10.05375 -0.91112518
-8.2870712 -10.058287 -0.91635752
-8.0854807 -10.092899 -0.92672634
-12.428499 -9.8106251 -0.96525002
-12.289502 -9.8170605 -0.94940519
-12.100784 -9.8463478 -0.94593143
-11.972205 -9.8727131 -0.94458771
-11.696083 -9.9029169 -0.8706665
-11.527143 -9.8831596 -0.91095638
-11.106572 -9.9728584 -0.82157135
-10.915 -9.9907513 -0.8072505
-10.501299 -9.8869419 -0.90105486
-10.381024 -9.8583746 -0.90555048
-9.4174995 -9.9535007 -0.96500063
-9.2887106 -9.9598656 -0.95519161
-9.1931667 -9.9810009 -0.96633339
-13.433894 -9.6087885 -0.96942091
-13.29058 -9.624609 -0.95182371
-13.098031 -9.6586351 -0.94544125
-12.892985 -9.6644392 -0.90692329
-12.77603 -9.6779442 -0.87724352
-12.450873 -9.7417631 -0.89957762
-12.313051 -9.7413549 -0.86435747
-12.103226 -9.7593136 -0.83870125
-11.995799 -9.7804012 -0.84439993
-11.662 -9.6530666 -0.85946655
-11.509262 -9.7397404 -0.89853954
-10.46657 -9.785162 -0.82062531
-10.385182 -9.7885456 -0.82181787
-14.604 -9.4030008 -0.9550004
-14.464551 -9.4146023 -0.95954227
-14.29531 -9.437685 -0.95481825
-14.088265 -9.4571743 -0.92808104
-13.962688 -9.4598885 -0.90216112
-13.625916 -9.5313339 -0.89599943
-13.445039 -9.5387192 -0.88134909
-13.304749 -9.5425425 -0.85215282
-13.103622 -9.5717478 -0.84163761
-12.853596 -9.5156717 -0.89170265
-12.69426 -9.4251919 -0.96707821
-12.591333 -9.4833336 -0.93566608
-11.663478 -9.4848156 -0.90820074
-11.491045 -9.4322491 -0.92561817
-15.631 -9.2040005 -0.97999954
-15.479668 -9.2177238 -0.96242619
-15.318707 -9.2377148 -0.95340157
-15.13737 -9.261549 -0.91852045
-14.865174 -9.281806 -0.90405083
-14.691879 -9.3158674 -0.89924574
-14.512147 -9.334177 -0.88038445
-14.303382 -9.3540468 -0.84968185
-14.119365 -9.3817959 -0.84047937
-13.912413 -9.2924423 -0.91400957
-13.746143 -9.2717171 -0.87414265
-12.806589 -9.3624096 -0.87558174
-12.726153 -9.3381729 -0.88366938
-11.63845 -9.3612823 -0.87421274
-11.529898 -9.3630314 -0.89148045
-16.042599 -9.0626945 -0.92137241
-15.906334 -9.0730362 -0.90280294
-15.740192 -9.1055489 -0.8920002
-15.473853 -9.1471138 -0.88149214
-15.314636 -9.1595383 -0.8538332
-15.122955 -9.173296 -0.86836338
-14.880754 -9.0756321 -0.91540241
-13.887609 -9.1379433 -0.86736107
-13.731643 -9.051796 -0.88346148
-17.879 -8.8120003 -0.94699979
-17.67589 -8.8191662 -0.9580555
-17.574251 -8.8310013 -0.95966697
-15.778 -9 -0.80099964
-18.214201 -8.6584005 -0.90339971
-18.071354 -8.6869431 -0.90855861
-17.900612 -8.7178917 -0.90603113
-17.688444 -8.7159271 -0.87099934
-17.573599 -8.7357349 -0.86333323
5.125 -13.206001 -0.75500011
5.289 -13.207 -0.76849985
5.5167499 -13.20525 -0.77349997
5.7028751 -13.213875 -0.77412462
5.8600001 -13.209001 -0.78399992
6.0937495 -13.2155 -0.75150013
6.6961541 -13.235078 -0.74946165
6.9139166 -13.2325 -0.75541687
7.100626 -13.227879 -0.74400043
7.2966971 -13.228909 -0.73862076
7.4297781 -13.247778 -0.75277758
9.1773338 -13.266001 -0.76200056
9.2998848 -13.230501 -0.73980713
9.4903002 -13.235901 -0.74359941
9.7224379 -13.223436 -0.74500036
9.8893337 -13.224916 -0.73816681
10.091333 -13.221 -0.73777723
10.296624 -13.216375 -0.73425007
10.4715 -13.2195 -0.73174953
10.6792 -13.252602 -0.76519966
10.939858 -13.257002 -0.76914263
11.0276 -13.236601 -0.75180006
11.50825 -13.247751 -0.77662563
11.658286 -13.246572 -0.78171444
12.094 -13.227001 -0.78466702
13.1265 -13.237001 -0.79849958
13.297 -13.244334 -0.79933357
13.546801 -13.226 -0.78879929
13.689 -13.2319 -0.78539944
13.8965 -13.229334 -0.78416634
14.124918 -13.235085 -0.77008295
14.298002 -13.239637 -0.77018166
14.769333 -13.242001 -0.76633358
14.874792 -13.243124 -0.75516653
15.292068 -13.237667 -0.76566601
15.521 -13.227001 -0.77300024
15.7575 -13.2225 -0.77699995
15.926265 -13.224972 -0.74997473
16.099621 -13.220438 -0.75538969
16.295877 -13.216749 -0.7568531
16.499571 -13.214923 -0.75920868
16.631735 -13.214003 -0.76040077
16.895748 -13.210751 -0.7367506
17.164217 -13.209781 -0.74817419
17.302284 -13.210337 -0.75945044
17.498432 -13.20861 -0.75725412
17.693636 -13.213018 -0.76100016
17.84194 -13.216588 -0.76417685
18.342085 -13.230835 -0.77116632
18.497295 -13.235824 -0.78223562
18.6931 -13.230499 -0.78800058
18.877251 -13.221251 -0.78625011
19.094334 -13.222335 -0.78666735
19.229 -13.23 -0.78900003
21.021999 -13.2015 -0.79949903
26.329 -13.208167 -0.79666662
27.117001 -13.220727 -0.7877264
27.289104 -13.214684 -0.77726269
27.490334 -13.207001 -0.76666641
28.253998 -13.205334 -0.76733351
28.434668 -13.205002 -0.76666641
28.721001 -13.209 -0.76799965
3.9909999 -13.009001 -0.74900055
4.0741434 -13.008716 -0.74614286
4.2567501 -13.025749 -0.75274944
4.7319741 -13.076735 -0.73434258
4.9185319 -13.078447 -0.70655346
5.131701 -13.084549 -0.71347904
5.251225 -13.107447 -0.69710159
5.4930005 -13.119923 -0.67500019
5.6967144 -13.124571 -0.6679287
5.9232001 -13.1026 -0.65300035
6.0320001 -13.134 -0.66919994
6.3590002 -13.060001 -0.78900003
6.7422857 -13.157572 -0.6684289
6.9110003 -13.145203 -0.65810013
7.1050868 -13.133825 -0.64491272
7.2597008 -13.139935 -0.6401329
8.8789339 -13.051523 -0.73050022
9.191 -13.128 -0.60699987
9.3266678 -13.128917 -0.63124943
9.5243578 -13.122716 -0.63414335
9.7044621 -13.149038 -0.6631155
9.8836422 -13.109233 -0.70548773
10.078547 -13.099243 -0.68748522
10.317416 -13.136501 -0.66108322
10.496222 -13.126223 -0.64977789
10.714499 -13.157373 -0.66937494
10.916409 -13.132318 -0.65954638
11.029789 -13.107243 -0.72160578
11.346001 -13.1075 -0.6789999
11.498429 -13.152666 -0.68295193
11.62225 -13.157499 -0.68549967
11.979 -13.17 -0.74500036
12.147222 -13.061001 -0.63777876
12.218191 -13.056621 -0.66352415
12.954999 -13.093601 -0.65380049
13.099667 -13.132 -0.69422197
13.253625 -13.139125 -0.70275021
13.56207 -13.082279 -0.71970415
13.694444 -13.1108 -0.68181419
13.89777 -13.112715 -0.6812973
14.077342 -13.123405 -0.68381262
14.270059 -13.138853 -0.68150043
14.5713 -13.030499 -0.6880002
14.758667 -13.159834 -0.71299982
14.904429 -13.139328 -0.65922451
15.026599 -13.117401 -0.64260006
15.340334 -13.143333 -0.68499947
15.766666 -13.110668 -0.74816656
15.928996 -13.091331 -0.70026779
16.104307 -13.12604 -0.65355349
16.307755 -13.129565 -0.65843391
16.500065 -13.132048 -0.66691828
16.637999 -13.123134 -0.66133356
16.917418 -13.120417 -0.697083
17.157541 -13.082207 -0.70531607
17.301237 -13.137988 -0.68071556
17.500195 -13.135139 -0.67809105
17.700134 -13.135469 -0.68184614
17.856539 -13.132796 -0.68127108
18.1329 -13.133051 -0.72820044
18.31875 -13.076516 -0.697721
18.504992 -13.132792 -0.68569756
18.675098 -13.114451 -0.67241526
18.853249 -13.094767 -0.67845583
19.10289 -13.095889 -0.67477751
19.306168 -13.078503 -0.72166681
19.532028 -13.077239 -0.69854403
19.69644 -13.076263 -0.69427776
19.897659 -13.073296 -0.69524002
20.091673 -13.072779 -0.6961894
20.299583 -13.074369 -0.69798422
20.432922 -13.079636 -0.70236301
20.748001 -13.09067 -0.70666695
20.935493 -13.104818 -0.71973372
21.097198 -13.088583 -0.71846437
21.298349 -13.087925 -0.72034073
21.496029 -13.087822 -0.71976709
21.665678 -13.079886 -0.72311354
21.956499 -13.066157 -0.73199987
22.112204 -13.079908 -0.71817303
22.297178 -13.077925 -0.72045469
22.502096 -13.069951 -0.71730661
22.673523 -13.081541 -0.72680521
22.81386 -13.077 -0.71485758
23.309824 -13.081877 -0.7121253
23.503399 -13.088894 -0.71348286
23.673944 -13.090195 -0.70838976
23.928297 -13.082977 -0.70598269
24.046503 -13.075567 -0.71961594
24.328756 -13.095278 -0.69789553
24.503515 -13.076138 -0.68848324
24.690022 -13.092576 -0.71807146
24.892759 -13.098122 -0.71230364
25.101135 -13.081469 -0.69910049
25.211857 -13.055716 -0.68799973
25.425001 -13.076 -0.70483351
25.980415 -13.054167 -0.70283365
26.10441 -13.087939 -0.72191477
26.294252 -13.091974 -0.70218754
26.420483 -13.075821 -0.70424271
26.747 -13.097801 -0.69840002
26.980167 -13.052334 -0.63533354
27.106264 -13.094229 -0.68111467
27.279718 -13.106528 -0.68454885
27.506149 -13.093596 -0.68262959
28.169336 -13.074467 -0.6553998
28.31123 -13.113999 -0.69596434
28.504257 -13.117399 -0.70824242
28.678606 -13.144316 -0.73549986
28.816666 -13.173334 -0.78133392
29.193001 -13.080001 -0.70799971
29.272484 -13.114726 -0.73057604
29.564667 -13.047556 -0.65288925
29.699732 -13.088623 -0.70313311
29.879887 -13.114576 -0.72457695
30.393999 -13.037001 -0.69799995
30.435001 -13.074333 -0.72599983
32.354752 -13.1035 -0.69250011
32.780998 -13.178 -0.77300024
34.34433 -13.030001 -0.68400002
34.499634 -13.079264 -0.72626305
34.622501 -13.077749 -0.72475052
36.300777 -13.131666 -0.75922251
36.528126 -13.048626 -0.68487501
36.666004 -13.130167 -0.74933243
3.1670001 -12.809001 -0.76499987
3.3502586 -12.850758 -0.75633907
3.5029044 -12.871712 -0.74410915
3.7007313 -12.870401 -0.70596552
3.9128034 -12.897139 -0.7076273
4.0265007 -12.883961 -0.70324278
4.3040004 -12.937666 -0.65433359
4.5560002 -12.972601 -0.6487999
4.6803327 -12.984667 -0.64927769
4.9391251 -12.962627 -0.60549974
5.1821799 -12.917097 -0.69074726
5.2076607 -12.866608 -0.72624969
6.3624659 -12.834886 -0.68014002
6.4830284 -12.859492 -0.71171999
7.5816665 -12.818666 -0.70749998
7.6576324 -12.850263 -0.74015808
8.8871126 -12.904113 -0.69571686
9.9037018 -12.871212 -0.70372391
10.062356 -12.88931 -0.71760035
11.067269 -12.876055 -0.71062565
11.210401 -12.898201 -0.70520067
12.199 -12.985 -0.7390008
12.290488 -12.865763 -0.69189739
12.442835 -12.810833 -0.75083256
13.398 -12.848 -0.79000044
13.567308 -12.896389 -0.70412874
14.573105 -12.912209 -0.67039537
14.6665 -12.885376 -0.7189374
15.768046 -12.888318 -0.71086359
15.947994 -12.912934 -0.69064283
16.003649 -12.834001 -0.77023506
16.962933 -12.872657 -0.72059011
17.109516 -12.89654 -0.70010662
18.156866 -12.852545 -0.73553181
18.292692 -12.88611 -0.71239138
19.297607 -12.898093 -0.70115137
19.489279 -12.941816 -0.6667757
19.71237 -12.993841 -0.63394737
19.908001 -12.996195 -0.63295078
20.099066 -12.992752 -0.6307869
20.290365 -12.992794 -0.63009596
20.447964 -12.97326 -0.64759302
20.643669 -12.815333 -0.79466677
20.984043 -12.988392 -0.6242609
21.102444 -12.983476 -0.61940193
21.297375 -12.979582 -0.62017822
21.493813 -12.975178 -0.61996889
21.684515 -12.908102 -0.68535185
21.912741 -12.916132 -0.68691254
22.107294 -12.961548 -0.61834097
22.300951 -12.955416 -0.61653948
22.500443 -12.955377 -0.61662531
22.672199 -12.956799 -0.61492014
22.868599 -12.874202 -0.65160036
23.519501 -12.972502 -0.60812426
23.620001 -12.979 -0.60900021
23.906668 -12.990335 -0.60666704
24.225 -12.848 -0.79399967
24.664 -12.995001 -0.60100031
25.191029 -12.817668 -0.69682074
25.203499 -12.807001 -0.66450071
25.966 -12.993 -0.64400053
26.385094 -12.862784 -0.68460798
26.412802 -12.903204 -0.70273447
26.693001 -12.999001 -0.62100029
27.285999 -12.996 -0.60599995
27.585751 -12.89493 -0.70496416
27.655783 -12.839869 -0.75265169
28.166 -13 -0.60099983
28.223999 -12.991501 -0.60549927
28.525198 -12.995799 -0.60599947
28.6185 -12.998001 -0.61300039
28.934668 -12.813002 -0.78366661
29.186001 -12.976 -0.61100006
29.216 -12.978001 -0.61299944
29.482 -12.996 -0.61099911
29.669001 -12.977001 -0.60100031
29.933903 -12.86855 -0.70304918
30.007875 -12.909 -0.63274956
30.364 -12.951001 -0.63850021
30.411499 -12.970501 -0.64100027
32.377449 -12.888517 -0.70125961
32.429001 -12.894001 -0.80000019
34.317863 -12.964146 -0.62628603
34.499752 -12.972501 -0.63424969
35.716499 -12.852749 -0.70775032
35.819 -12.842668 -0.75566626
36.372002 -12.949001 -0.60699987
36.475502 -12.9685 -0.61350012
37.855999 -12.92 -0.66499996
1.7555 -12.6035 -0.76100063
2.1859999 -12.66125 -0.73050022
2.2997649 -12.671352 -0.73335314
2.5284843 -12.665556 -0.70016098
2.6963084 -12.6959 -0.69896317
2.867547 -12.721563 -0.69641495
3.3533649 -12.756715 -0.65193224
3.4981685 -12.779064 -0.6481123
3.6589999 -12.79232 -0.63090849
3.9957249 -12.743104 -0.70117188
4.048027 -12.684098 -0.71611261
4.21 -12.698999 -0.76350021
5.171618 -12.685143 -0.71302176
5.2077742 -12.757806 -0.64954901
6.3698001 -12.772003 -0.63219976
6.454144 -12.772644 -0.63560724
7.5318155 -12.764853 -0.63807392
7.6472011 -12.774002 -0.64786673
8.9185429 -12.695536 -0.70416164
9.9229784 -12.754486 -0.65142918
10.041346 -12.756578 -0.67092276
10.979583 -12.6225 -0.64300013
11.060041 -12.748667 -0.64920855
12.254082 -12.715667 -0.6832509
12.473078 -12.684208 -0.71250343
13.560154 -12.771051 -0.66630793
14.574333 -12.791667 -0.60966682
14.638334 -12.781002 -0.60566664
15.763286 -12.658426 -0.72298622
15.940257 -12.662134 -0.73604918
16.006065 -12.690443 -0.7041049
16.969767 -12.77747 -0.62470579
17.07564 -12.775567 -0.62946272
18.163828 -12.759396 -0.64446974
18.266296 -12.759727 -0.6463089
19.305367 -12.713768 -0.69693327
19.536779 -12.659662 -0.72680855
20.569302 -12.747202 -0.70050001
20.651812 -12.729591 -0.68537474
21.731657 -12.715568 -0.68981886
21.832222 -12.707508 -0.69510174
22.797001 -12.638 -0.79099941
22.909834 -12.7 -0.67949963
23.016001 -12.622 -0.61499929
24.209 -12.741 -0.68400002
25.186739 -12.723421 -0.67969704
25.270779 -12.680905 -0.70456839
26.386002 -12.773001 -0.65858364
26.426001 -12.729658 -0.69000053
27.582888 -12.775223 -0.6520009
27.629499 -12.764999 -0.67112541
28.889715 -12.727514 -0.67905664
29.924295 -12.734585 -0.7119298
33.554001 -12.778 -0.69799948
35.746002 -12.739166 -0.67333412
35.816666 -12.73 -0.65466642
0.95059997 -12.4216 -0.77299976
1.1483463 -12.448248 -0.76408625
1.3120594 -12.463163 -0.73731422
1.5017855 -12.473577 -0.70044279
1.6947573 -12.503643 -0.70136309
1.9174616 -12.49177 -0.71330786
2.1795001 -12.563168 -0.63433266
2.2882726 -12.583093 -0.6438179
2.4767892 -12.596104 -0.62936926
2.951102 -12.448162 -0.73357153
3.0295608 -12.434927 -0.75451231
4.0538406 -12.574174 -0.64246655
5.1670804 -12.524324 -0.68006277
5.2787681 -12.509636 -0.7068553
5.4219379 -12.573126 -0.75762558
10.983399 -12.532739 -0.70664024
11.051714 -12.518858 -0.68102789
12.277977 -12.532255 -0.72119093
12.474105 -12.527466 -0.68199062
15.766703 -12.542097 -0.66888809
15.901287 -12.540096 -0.67347145
16.010328 -12.553665 -0.65310764
19.314617 -12.479462 -0.69076872
19.504766 -12.48629 -0.71012497
25.188 -12.593 -0.60299969
25.286749 -12.5935 -0.60575008
26.395498 -12.522286 -0.67214298
26.427792 -12.500546 -0.71299887
27.501858 -12.428999 -0.63314247
29.9135 -12.496 -0.64599943
-0.056763154 -12.209499 -0.78471041
0.10263806 -12.233027 -0.77724504
0.31333482 -12.265474 -0.76062489
0.49184811 -12.260724 -0.71753311
0.61133337 -12.308334 -0.73583317
0.94944447 -12.347445 -0.70088816
1.1408536 -12.354611 -0.65739679
1.2821389 -12.378596 -0.6503253
1.4198124 -12.393373 -0.63618708
1.7727402 -12.301912 -0.69801092
1.8088 -12.237001 -0.71019983
2.9563735 -12.353991 -0.64796925
3.0295691 -12.350155 -0.65643072
39.105999 -12.249001 -0.63100004
-1.0275999 -12.0172 -0.79079962
-0.89744443 -12.030724 -0.78477716
-0.66068667 -12.060575 -0.77120447
-0.53340912 -12.048457 -0.73838663
-0.25016806 -12.084881 -0.71502304
-0.099028014 -12.10515 -0.7004962
0.097189605 -12.120665 -0.67291498
0.29313546 -12.162571 -0.66828489
0.45346865 -12.173685 -0.63866711
0.8416667 -12.024666 -0.7579999
1.7794676 -12.088497 -0.70069504
1.82295 -12.042052 -0.76344967
2.039 -12.013 -0.75549984
39.130997 -12.182501 -0.66650057
-2.017 -11.801001 -0.79899931
-1.8690836 -11.830832 -0.79174995
-1.7723999 -11.8386 -0.78400087
-1.4287159 -11.844754 -0.73280382
-1.2904042 -11.870031 -0.72516966
-1.123057 -11.888758 -0.70855427
-0.90252322 -11.916 -0.684093
-0.65819681 -11.958002 -0.68132734
-0.57124591 -11.957329 -0.67039347
-0.25304538 -11.900229 -0.67990875
-0.1376842 -11.98629 -0.60868454
0.026000001 -11.998001 -0.60700035
0.58381814 -11.830136 -0.634727
0.76006126 -11.861663 -0.69938469
0.82433343 -11.917933 -0.69313335
1.781109 -11.958437 -0.67468739
1.8713 -11.939201 -0.68165016
2.0570002 -11.938335 -0.66099977
-2.4161143 -11.632058 -0.74451399
-2.2965305 -11.646442 -0.73285532
-2.1189661 -11.669691 -0.71399021
-1.8822371 -11.708395 -0.69013166
-1.7638204 -11.729975 -0.68156385
-1.437577 -11.703346 -0.69336033
-1.2911842 -11.737495 -0.62598467
-1.1187978 -11.779453 -0.61641645
-0.43093103 -11.660851 -0.74356365
-0.29873496 -11.666669 -0.72660255
0.59423083 -11.743565 -0.7028203
0.67960018 -11.67482 -0.69505835
-3.6275001 -11.408501 -0.79400015
-3.4796102 -11.417229 -0.75055742
-3.2974381 -11.448748 -0.74341249
-3.1039753 -11.46619 -0.71794271
-2.9832191 -11.447187 -0.67312431
-2.4305 -11.5755 -0.66650057
-2.2869756 -11.55032 -0.63269997
-2.1106021 -11.577658 -0.62524414
-1.9950001 -11.596001 -0.61866665
-1.43935 -11.57905 -0.6510005
-1.3133931 -11.442868 -0.75344276
-0.42000002 -11.560659 -0.64978552
-0.32605958 -11.561147 -0.64646816
-4.6395717 -11.210501 -0.76521444
-4.4927092 -11.226124 -0.75735426
-4.297606 -11.257789 -0.74689388
-4.0901794 -11.272552 -0.71403742
-3.9247684 -11.284811 -0.69269466
-3.6540773 -11.305592 -0.70031118
-3.514833 -11.32971 -0.67553043
-3.301435 -11.353411 -0.64000511
-3.1158128 -11.381735 -0.63629723
-2.8518002 -11.2652 -0.70120001
-2.7205889 -11.232905 -0.69764376
-2.5773335 -11.227 -0.71483326
-1.3181881 -11.282635 -0.71474504
-5.6758337 -11.0215 -0.76449966
-5.4886928 -11.039925 -0.75599957
-5.310133 -11.061601 -0.73400068
-5.0810003 -11.069069 -0.696733
-4.8349175 -11.10675 -0.69575071
-4.7146997 -11.110687 -0.7048769
-4.5288782 -11.125435 -0.65544319
-4.2974887 -11.168755 -0.65177774
-4.1467338 -11.186934 -0.64140034
-3.819 -11.16 -0.65200043
-3.6641667 -11.051584 -0.71661091
-3.5517554 -11.081848 -0.71466398
-2.8115001 -11.189 -0.7680006
-2.6669915 -11.1527 -0.72315741
-2.5855999 -11.152075 -0.7008543
-6.0976343 -10.869854 -0.69717026
-5.6652999 -10.9294 -0.65920019
-5.5028567 -10.945358 -0.66121435
-5.3374548 -10.973091 -0.6602726
-5.1430001 -10.991667 -0.62933302
-4.7369652 -10.891642 -0.70270729
-3.6718936 -10.945194 -0.71453428
-3.5526087 -10.963585 -0.66864872
-7.8270001 -10.605 -0.77599955
-7.7084293 -10.621716 -0.76999998
-7.296 -10.604 -0.61199999
-8.86625 -10.407751 -0.77749968
-8.6726494 -10.421217 -0.76990223
-8.4953279 -10.447939 -0.76439047
-8.3478756 -10.459167 -0.76154137
-8.0303335 -10.439556 -0.64411116
-7.9384584 -10.450298 -0.70816135
-7.754231 -10.571232 -0.75438452
-7.106143 -10.472 -0.72014332
-9.8509474 -10.212973 -0.77200031
-9.7144203 -10.232645 -0.76767731
-9.5959997 -10.27 -0.77600002
-9.2603579 -10.259787 -0.71028566
-9.0907488 -10.296959 -0.69749975
-8.9074793 -10.322197 -0.69543457
-8.6919413 -10.334844 -0.67803955
-8.5046768 -10.359508 -0.66291666
-8.3545313 -10.320294 -0.6961174
-8.111949 -10.259118 -0.7482543
-7.9362106 -10.287859 -0.70315456
-11.030001 -10.004 -0.76449966
-10.871144 -10.021953 -0.77600002
-10.696216 -10.045022 -0.7699542
-10.535019 -10.056103 -0.74756718
-10.279231 -10.112924 -0.74499989
-10.096901 -10.1127 -0.70731068
-9.9055071 -10.135349 -0.70342398
-9.7342014 -10.142866 -0.66359997
-9.3008509 -10.053539 -0.72979736
-9.1890001 -10.043 -0.75500011
-8.2995834 -10.101501 -0.68508291
-8.0854626 -10.138694 -0.70898104
-7.9462929 -10.165386 -0.65172338
-11.65325 -9.8457499 -0.77699947
-11.498895 -9.8328943 -0.71894741
-11.058526 -9.8977261 -0.67794991
-10.895911 -9.9181232 -0.67409992
-10.704988 -9.9491014 -0.67003536
-10.529638 -9.9105892 -0.69834566
-9.2890854 -9.9446201 -0.65271425
-9.1863337 -9.9680004 -0.66966629
-8.3098421 -9.8683338 -0.70939159
-8.0842896 -9.8743057 -0.70225763
-12.869303 -9.6128826 -0.7893486
-12.791334 -9.6291676 -0.78883362
-12.432144 -9.6380672 -0.73825598
-12.300717 -9.6489315 -0.72154522
-12.117239 -9.6865234 -0.72391033
-11.659502 -9.6704979 -0.73362494
-11.513629 -9.7415152 -0.7026782
-11.377 -9.7460003 -0.61999989
-10.487453 -9.7176085 -0.6915369
-10.37721 -9.719923 -0.68629599
-14.022334 -9.4056664 -0.79283381
-13.964087 -9.4140005 -0.792696
-13.625092 -9.4305458 -0.74100018
-13.435631 -9.4345465 -0.72656012
-13.298111 -9.4597721 -0.72410202
-13.097076 -9.4875612 -0.7125392
-12.896787 -9.4966602 -0.6951189
-12.783506 -9.5003834 -0.68130159
-12.441012 -9.556097 -0.65929317
-12.307088 -9.5461464 -0.62265158
-12.146438 -9.5718555 -0.6178751
-11.667054 -9.5052433 -0.69915962
-11.459461 -9.5238476 -0.69900036
-15.102 -9.2066669 -0.79666662
-14.84695 -9.2143002 -0.79370022
-14.67045 -9.2274609 -0.76488686
-14.493853 -9.2300434 -0.73411322
-14.298791 -9.2628679 -0.72609091
-14.098192 -9.2835846 -0.7021246
-13.950006 -9.2882538 -0.69016075
-13.684685 -9.3164463 -0.67173672
-13.447091 -9.346386 -0.63843155
-13.305064 -9.3574085 -0.62298584
-13.131428 -9.384428 -0.61756086
-12.806032 -9.3226671 -0.71555614
-12.727658 -9.2536755 -0.72666407
-11.651111 -9.3027744 -0.69875526
-11.494377 -9.262331 -0.72011471
-11.389 -9.2546253 -0.67425013
-15.82575 -9.0074997 -0.76824999
-15.634001 -9.0716667 -0.7840004
-15.475352 -9.0565586 -0.74532366
-15.294642 -9.0790234 -0.7265234
-15.13292 -9.0970936 -0.70911932
-14.857571 -9.1096554 -0.69389391
-14.704674 -9.1377048 -0.68156767
-14.523088 -9.1452971 -0.65108442
-14.306255 -9.1653252 -0.62662411
-14.144051 -9.1893559 -0.6170125
-13.889674 -9.0910702 -0.70988607
-13.731988 -9.0816479 -0.69779778
-12.8015 -9.184 -0.66200018
-12.728823 -9.1654606 -0.64665222
-11.627409 -9.1749878 -0.63657761
-11.513553 -9.1775093 -0.63014078
-15.902986 -8.9175606 -0.6999712
-15.769528 -8.9214058 -0.67571592
-15.477547 -8.9428196 -0.63281822
-15.278251 -8.9776669 -0.62250042
-15.103865 -8.9478636 -0.66718197
-14.863102 -8.8943014 -0.70138741
-13.839037 -8.9454718 -0.69756222
-13.770938 -8.9540815 -0.70083427
-17.862749 -8.611125 -0.75212526
-17.666655 -8.6274137 -0.76203442
-18.260502 -8.496438 -0.73927069
-18.139765 -8.4747467 -0.67852902
-17.899761 -8.5665245 -0.73566651
-17.697767 -8.5315094 -0.63351154
-17.561419 -8.5498943 -0.6298945
5.4829998 -13.0065 -0.57800007
5.6929998 -13.010124 -0.56162548
5.9333644 -13.022818 -0.55718184
6.1147499 -13.06075 -0.56625032
6.2315001 -13.034334 -0.54266691
6.7374287 -13.061857 -0.55028486
6.9241667 -13.050499 -0.54741669
7.0968084 -13.043882 -0.53678846
7.2640004 -13.079473 -0.54999971
7.8999996 -13.037333 -0.475667
8.8568888 -13.049222 -0.53766727
9.1499996 -13.113 -0.56500053
9.3179998 -13.039113 -0.5281105
9.5083847 -13.036272 -0.53023052
9.6963158 -13.056263 -0.55373669
9.8957901 -13.063369 -0.55731583
10.098555 -13.057777 -0.562222
10.286722 -13.05389 -0.55422258
10.50375 -13.052813 -0.56543732
10.728571 -13.032001 -0.54585791
10.906078 -13.059002 -0.56915379
11.023334 -13.057835 -0.55783367
11.366 -13.073 -0.57500029
11.481715 -13.065859 -0.57685709
11.651 -13.067 -0.57500029
12.129111 -13.047888 -0.57788944
12.23 -13.046333 -0.57533312
12.945334 -13.045333 -0.58700037
13.11075 -13.0485 -0.58699989
13.229 -13.048 -0.58700037
13.538168 -13.0345 -0.5836668
13.689593 -13.036445 -0.58074045
13.896863 -13.032518 -0.57831097
14.088167 -13.034417 -0.57675028
14.2725 -13.040564 -0.57256269
14.929842 -13.047209 -0.55394697
15.076859 -13.039478 -0.55633307
15.349667 -13.041668 -0.53800011
15.7505 -13.0085 -0.51949978
15.932952 -13.02605 -0.53818321
16.099125 -13.021173 -0.54092455
16.302431 -13.020105 -0.54423952
16.493446 -13.019955 -0.54377794
16.645166 -13.027835 -0.56458378
16.901287 -13.045859 -0.55528545
17.145864 -13.02916 -0.54930687
17.297316 -13.030466 -0.54930019
17.490576 -13.040291 -0.56459713
17.694906 -13.050493 -0.57447195
17.875658 -13.044186 -0.56579018
18.30743 -13.048227 -0.57788515
18.485569 -13.046238 -0.57919025
18.682835 -13.031668 -0.57533264
18.872997 -13.032666 -0.59083319
19.091999 -13.008 -0.5635004
19.216499 -13.024 -0.58049965
19.541 -13.011173 -0.59256506
19.691374 -13.011801 -0.59342432
19.894169 -13.009794 -0.59206915
20.081867 -13.009678 -0.59208202
20.307484 -13.010962 -0.59411144
20.426136 -13.008068 -0.58666611
20.756334 -13.032667 -0.59766626
20.93586 -13.014572 -0.59614277
21.089104 -13.009138 -0.59151745
21.289286 -13.005574 -0.59042883
21.494715 -13.006428 -0.58142948
24.702 -13.006001 -0.59000015
24.917 -13.0088 -0.59599972
25.025 -13.009001 -0.60000038
26.156002 -13.011333 -0.59033394
26.303541 -13.015694 -0.58799982
26.42975 -13.017 -0.58999968
26.973444 -13.020667 -0.57655525
27.112625 -13.023708 -0.57608366
27.276419 -13.018667 -0.57591677
27.492102 -13.017 -0.56400013
28.079779 -13.00989 -0.55588961
28.274399 -13.008801 -0.56519985
28.432003 -13.010334 -0.554667
32.308998 -13.001001 -0.58999968
3.9170001 -12.811501 -0.59599972
4.0575714 -12.817858 -0.56100082
4.295125 -12.840626 -0.55737448
4.5340953 -12.856859 -0.53942871
4.6851892 -12.872595 -0.52872944
4.9141874 -12.862534 -0.49001408
5.1221056 -12.889953 -0.50619173
5.2094579 -12.899065 -0.50785494
5.5299001 -12.941502 -0.49030018
5.6937699 -12.917848 -0.45246077
5.9073334 -12.9215 -0.46088934
6.0867276 -12.921818 -0.44800091
6.3442392 -12.847221 -0.48596334
6.5279446 -12.853278 -0.53922272
6.7950001 -12.990001 -0.47099924
6.9366007 -12.939602 -0.4277997
7.0519414 -12.947292 -0.44135237
7.2763338 -12.975333 -0.44366693
7.8759999 -12.943001 -0.42399979
8.8872843 -12.875594 -0.51416016
9.3789997 -12.923 -0.42999983
9.5072308 -12.940961 -0.45376968
9.7020435 -12.948914 -0.46239185
9.8921709 -12.901194 -0.51521921
10.092116 -12.907743 -0.50488377
10.31308 -12.950439 -0.46511936
10.482565 -12.958261 -0.4673481
10.697036 -12.953001 -0.46260738
10.917001 -12.939091 -0.46881866
11.023468 -12.860467 -0.52569962
11.357 -12.932 -0.46275043
11.495251 -12.945667 -0.47508335
11.666334 -12.943333 -0.47600031
11.924144 -12.919428 -0.45914316
12.080667 -12.946166 -0.49062443
12.312338 -12.855373 -0.51407194
12.404401 -12.8172 -0.44479942
12.940183 -12.926272 -0.48436403
13.081083 -12.936501 -0.48558426
13.570631 -12.882161 -0.51692343
13.702958 -12.922024 -0.47696686
13.902554 -12.921444 -0.47235155
14.084162 -12.936966 -0.47621489
14.290933 -12.949104 -0.47424126
14.564757 -12.878456 -0.51354551
14.963464 -12.955078 -0.4735384
15.089877 -12.949463 -0.4547801
15.262889 -12.936779 -0.43744469
15.507 -12.938999 -0.41649961
15.728334 -12.878111 -0.50644398
15.939731 -12.890629 -0.49850321
16.104063 -12.926591 -0.44220018
16.306683 -12.928844 -0.44709778
16.501755 -12.929407 -0.44940138
16.669075 -12.938148 -0.46166706
16.880501 -12.950999 -0.48100042
17.139767 -12.89316 -0.50505877
17.302744 -12.937613 -0.4678092
17.500429 -12.938623 -0.47270632
17.700756 -12.937136 -0.47686911
17.860764 -12.930969 -0.47208214
18.123417 -12.89275 -0.50516653
18.321009 -12.90016 -0.49233723
18.50284 -12.928597 -0.47909784
18.671631 -12.922874 -0.4837079
18.912268 -12.90596 -0.48928928
19.1017 -12.899601 -0.48530006
19.283901 -12.840601 -0.52890015
19.528997 -12.882737 -0.49636889
19.700029 -12.886055 -0.49229908
19.897831 -12.88633 -0.49286175
20.095383 -12.893839 -0.50166464
20.299889 -12.898386 -0.50475264
20.427238 -12.896631 -0.50177002
20.757818 -12.909818 -0.49318171
20.958504 -12.898603 -0.49751234
21.103226 -12.906607 -0.50882483
21.300194 -12.903606 -0.50909281
21.49876 -12.904972 -0.51065063
21.667395 -12.895508 -0.51706648
21.95854 -12.882919 -0.51836061
22.112652 -12.893446 -0.51254177
22.297575 -12.88744 -0.51254892
22.4928 -12.88698 -0.51483583
22.686689 -12.894509 -0.51307297
22.85811 -12.885 -0.53899956
23.303328 -12.887169 -0.49745417
23.498837 -12.897144 -0.50187731
23.710346 -12.911869 -0.51495695
23.910902 -12.890431 -0.49743557
24.03948 -12.876669 -0.51236629
24.319548 -12.909172 -0.49753428
24.506144 -12.90428 -0.50036097
24.684589 -12.917154 -0.50746155
24.8957 -12.903336 -0.49466705
25.132498 -12.867281 -0.49948025
25.246653 -12.835652 -0.46418667
25.408501 -12.918503 -0.55650043
25.765667 -12.836334 -0.44100046
25.895666 -12.814667 -0.4066658
26.126831 -12.857084 -0.46240234
26.314783 -12.883077 -0.49919796
26.428635 -12.898138 -0.52378511
26.960894 -12.895431 -0.46949959
27.098055 -12.912155 -0.47650671
27.279238 -12.931119 -0.48751974
27.547636 -12.893704 -0.49495411
27.969456 -12.889729 -0.44445515
28.108582 -12.923383 -0.48690844
28.304495 -12.928446 -0.49457169
28.508627 -12.920912 -0.49407387
28.61986 -12.928715 -0.51271439
29.176001 -12.957 -0.58600044
29.366001 -12.855 -0.44033337
29.488848 -12.929609 -0.52151537
29.700893 -12.907501 -0.5006423
29.939812 -12.889217 -0.51711512
30.011 -12.853399 -0.53880072
30.379501 -12.877501 -0.56200075
32.198002 -12.842001 -0.42800045
32.310768 -12.881648 -0.53194094
34.147335 -12.840334 -0.52499914
34.292667 -12.863056 -0.54311037
34.467587 -12.870918 -0.55200005
36.3139 -12.8591 -0.52460051
36.456001 -12.931 -0.58099985
2.5127141 -12.611571 -0.59799957
2.7750001 -12.607 -0.57950068
2.8717 -12.621302 -0.5703001
3.1889999 -12.632 -0.49400043
3.3501101 -12.658716 -0.53485727
3.5045834 -12.672861 -0.5224123
3.6972303 -12.684801 -0.49847364
3.9015141 -12.714031 -0.49652004
4.0154104 -12.681358 -0.51413918
4.314857 -12.763858 -0.45714283
4.5165 -12.772464 -0.44734573
4.6881428 -12.792215 -0.4460001
4.8339996 -12.797289 -0.42357159
5.1869998 -12.715548 -0.49057388
5.2073541 -12.682294 -0.51676416
6.3655505 -12.715485 -0.49197149
6.4812388 -12.680241 -0.50728559
7.500906 -12.696729 -0.49544525
7.643259 -12.667741 -0.51929665
8.8942327 -12.702267 -0.50171566
9.8950777 -12.7057 -0.51647186
10.057275 -12.675369 -0.49793673
10.973678 -12.691632 -0.4990921
11.055393 -12.674152 -0.49987316
11.2085 -12.668001 -0.52075052
12.339915 -12.712063 -0.49357986
12.44655 -12.6615 -0.53310061
13.393499 -12.607 -0.47750092
13.559936 -12.739796 -0.50188494
14.570651 -12.718784 -0.49483728
14.680892 -12.667942 -0.47120237
15.76495 -12.668192 -0.50313854
15.95216 -12.720805 -0.48297787
16.005833 -12.643336 -0.55003643
16.962862 -12.679573 -0.50326395
17.10408 -12.701444 -0.49213219
