# .PCD v0.7 - Point Cloud Data file format
VERSION 0.7
FIELDS x y z
SIZE 4 4 4
TYPE F F F
COUNT 1 1 1
WIDTH 1613
HEIGHT 1
VIEWPOINT 0 0 0 1 0 0 0
POINTS 1613
DATA ascii
20.099691 14.724667 3.903811
20.294802 14.731774 3.90346
20.455137 14.754942 3.8785963
20.787678 14.701321 3.8946791
20.90012 14.745926 3.9065118
21.096279 14.753328 3.9121594
21.297201 14.754692 3.917541
21.442865 14.757868 3.9153123
21.761347 14.694143 3.9083114
21.898474 14.747888 3.9546256
22.098604 14.749922 3.9570088
22.288799 14.754194 3.9545536
22.474003 14.74327 3.9425335
22.952457 14.768486 3.9605708
23.10413 14.776703 3.9519644
23.302513 14.782255 3.9521327
23.500042 14.782011 3.9471951
23.662672 14.751885 3.9305229
23.991001 14.783501 3.9095006
24.092045 14.790384 3.9472213
24.299286 14.791985 3.9542747
24.465786 14.79543 3.9367156
24.650665 14.798001 3.909668
24.855776 14.678099 3.8917217
25.845852 14.669832 3.8909311
26.935509 14.72076 3.8766713
27.033716 14.676214 3.9466791
27.993 14.794001 3.8050008
28.08651 14.757254 3.9384084
28.2045 14.775 3.9695001
28.9932 14.771402 3.9518008
29.078918 14.748487 3.9231143
29.910944 14.687279 3.8188329
30.335333 14.750999 3.9490004
-8.8324013 14.8267 3.8592
-8.7111282 14.853209 3.8411288
-8.068778 14.961084 3.9466114
-7.8916755 14.949734 3.9187236
-7.74259 14.926342 3.9212952
-7.444417 14.918667 3.875917
-7.2868004 14.864861 3.8716006
-7.1195922 14.836777 3.8470464
-6.9580002 14.807751 3.8380008
18.743 14.8 3.8280005
19.094999 14.819 3.8210011
19.752102 14.821898 3.8187375
19.901136 14.820303 3.8131161
20.096172 14.824453 3.8156285
20.293318 14.823363 3.8145123
20.433701 14.822901 3.8134999
20.793999 14.836752 3.8119988
20.907341 14.839039 3.8228006
21.116104 14.83378 3.8325443
21.305227 14.831239 3.8500185
21.453135 14.826847 3.8570147
21.778824 14.830666 3.8606925
21.901031 14.836149 3.8640656
22.097965 14.844654 3.8665166
22.288532 14.848805 3.8662729
22.45929 14.85984 3.869
22.955772 14.860243 3.864172
23.1001 14.860798 3.8649793
23.301094 14.863712 3.8713393
23.502932 14.856313 3.8768034
23.643669 14.857615 3.8801141
23.979574 14.865667 3.8605709
24.101625 14.856716 3.8762918
24.303043 14.85635 3.8826399
24.503643 14.854643 3.894124
24.698032 14.862163 3.896193
24.827847 14.856798 3.9021087
25.184801 14.911201 3.8193998
25.313971 14.893766 3.890543
25.500994 14.896175 3.898314
25.699375 14.908726 3.8996525
25.810059 14.88065 3.8879828
26.367367 14.947002 3.8732729
26.46162 14.931684 3.9309101
26.620501 14.903 3.9920011
26.882929 14.889002 3.8397779
27.590332 14.981335 3.9359999
27.710045 14.979956 3.9596224
27.902048 14.987843 3.9602046
28.017113 14.887517 3.905591
28.993288 14.893286 3.8801427
29.039696 14.846306 3.8653851
29.938316 14.904272 3.8577724
30.055813 14.925705 3.9534082
30.32686 14.893431 3.8954296
-9.8449421 15.098545 3.8660283
-9.7617331 15.089968 3.8478355
-9.4379997 15.148499 3.9940014
-9.2766361 15.170124 3.9559383
-9.0997849 15.14917 3.9391589
-8.9213324 15.111998 3.9389305
-8.7314997 15.047501 3.8844995
-8.2620287 15.051895 3.8558655
-8.1104345 15.035416 3.8579259
-7.9059005 15.045053 3.8177009
-7.7415714 15.030001 3.8148584
25.752668 15.021 3.800334
26.502777 15.009445 3.831778
26.651335 15.015499 3.8528333
26.854855 15.045646 3.8144298
27.5289 15.059828 3.8403811
27.703094 15.059413 3.8652329
27.902802 15.067738 3.8780608
28.008434 15.054351 3.8767829
28.346334 15.025333 3.9783335
28.571886 15.159002 3.8161116
28.718748 15.125256 3.8556881
28.890757 15.116068 3.891418
29.01075 15.106626 3.86625
29.340752 15.08975 3.9765005
29.424 15.153 3.960999
29.925365 15.131003 3.8730011
30.181999 15.099501 3.9100008
30.324249 15.116125 3.8759995
-11.897322 15.375231 3.9605718
-10.86298 15.296778 3.8548017
-10.772655 15.277587 3.866724
-10.477455 15.387365 3.9635444
-10.262731 15.366731 3.9240394
-10.102904 15.33973 3.9209619
-9.9143715 15.324118 3.8937297
-9.6297998 15.271701 3.8871002
-9.4856758 15.254282 3.8894558
-9.315506 15.239182 3.8751163
-9.1312504 15.242836 3.8407493
-8.9594994 15.21725 3.8264999
28.735001 15.215 3.8079996
28.918501 15.204002 3.8138337
29.021 15.216251 3.8202496
29.770332 15.259003 3.8206663
29.895695 15.270617 3.8301544
30.280289 15.236002 3.8548584
-11.940687 15.469801 3.8861885
-11.689908 15.538818 3.9287276
-11.477611 15.581668 3.9461756
-11.316999 15.556841 3.9505157
-11.101097 15.521335 3.9398098
-10.90794 15.52011 3.8678465
-10.650321 15.465321 3.8923588
-10.530677 15.420474 3.9394112
-10.287001 15.436581 3.8657889
-10.109429 15.424717 3.8420005
-9.9829998 15.400001 3.8230004
-14.046074 15.729233 3.9126744
-13.94882 15.724984 3.8939519
-13.0308 15.757198 3.8573999
-12.67747 15.780414 3.9184127
-12.534594 15.755062 3.9363713
-12.282924 15.746277 3.8929734
-12.07315 15.734217 3.8753529
-11.960608 15.687248 3.8820677
-11.653588 15.63431 3.9215527
-11.50913 15.654556 3.8812513
-11.366333 15.636999 3.8951669
-10.976667 15.610336 3.8293333
-16.228909 15.989998 3.9879122
-16.172667 15.990835 3.9903336
-15.213157 15.923513 3.9250674
-15.121897 15.925781 3.8947487
-14.229261 15.985697 3.9443483
-14.093352 15.93675 3.9218006
-13.83711 15.912056 3.9226098
-13.709629 15.935768 3.9200873
-13.50904 15.946684 3.8815107
-13.302416 15.92175 3.874917
-13.111096 15.897882 3.8795576
-12.691521 15.85004 3.8583989
-12.4948 15.835041 3.8505602
-12.328688 15.814062 3.8438745
-17.132936 16.172749 3.9616876
-16.230677 16.074572 3.897059
-16.161074 16.069092 3.8813481
-15.82725 16.191563 3.9638748
-15.699709 16.179054 3.9610996
-15.502986 16.161654 3.9576707
-15.282014 16.130074 3.9482265
-15.164922 16.11068 3.8902402
-14.915227 16.156738 3.8916726
-14.691394 16.138924 3.8763957
-14.492106 16.109394 3.8788261
-14.269143 16.06407 3.8745441
-14.113809 16.048279 3.8677802
-13.832334 16.018 3.8570008
-13.727312 16.009232 3.8548841
-13.573 16.011999 3.8939996
-18.281338 16.358929 3.9360676
-17.2215 16.265503 3.8396678
-17.090088 16.309969 3.9055328
-16.895996 16.358833 3.9660592
-16.679424 16.357786 3.92418
-16.494421 16.350941 3.9058952
-16.308477 16.323843 3.8978257
-16.006001 16.320999 3.8190012
-15.833325 16.29027 3.8710814
-15.701488 16.276085 3.8710284
-15.503484 16.258638 3.8666873
-15.3033 16.23329 3.86481
-15.184599 16.229321 3.8478007
-14.9336 16.2208 3.8438001
-21.369305 16.499628 3.9078832
-19.409666 16.534668 3.9442225
-19.329321 16.547176 3.9094768
-18.289801 16.426991 3.8451824
-18.120781 16.522367 3.9285312
-17.89036 16.556358 3.9144654
-17.698437 16.537012 3.9077468
-17.497824 16.517288 3.9012618
-17.347858 16.51025 3.8925076
-17.03837 16.47201 3.8777404
-16.904596 16.45528 3.8713503
-16.71941 16.434101 3.8620811
-16.521679 16.447359 3.8237338
-16.307487 16.427797 3.8124366
-21.340338 16.697142 3.9064913
-20.459417 16.743595 3.9178405
-20.376839 16.750797 3.9114914
-19.446852 16.707899 3.9194498
-19.26392 16.692848 3.8857918
-19.100019 16.738007 3.9099483
-18.965082 16.739222 3.8706946
-18.495062 16.70318 3.8615756
-18.09075 16.633186 3.8654094
-17.92634 16.632603 3.8300214
-17.696827 16.633266 3.8122697
-17.509363 16.616837 3.8128614
-17.343601 16.607903 3.8165998
-21.32663 16.884489 3.9141207
-20.813 16.994999 3.9890003
-20.681412 16.97962 3.9857936
-20.483393 16.832304 3.8413911
-20.357199 16.829283 3.8613205
-19.471334 16.837315 3.8625712
-19.218615 16.83654 3.8246164
-19.099562 16.833149 3.8135862
-18.942947 16.814419 3.8109469
-21.30344 17.128807 3.8913832
-21.101294 17.159058 3.8868246
-20.857212 17.093397 3.926146
-20.692816 17.078369 3.9044991
-20.592184 17.069458 3.8549089
-21.271711 17.25983 3.850327
-21.135677 17.24404 3.8291211
-20.969 17.208403 3.8444009
-1.3266298 13.590187 4.1793709
0.71230006 13.591701 4.1880021
0.8173334 13.590335 4.1903343
-3.494 13.773001 4.1959996
-2.6503196 13.720375 4.0940733
-2.5073743 13.726822 4.0986753
-2.354497 13.722229 4.0989556
-1.41325 13.699001 4.1419992
-1.2928092 13.678483 4.0922403
-0.2893889 13.709388 4.049778
-0.19639999 13.703802 4.0611997
0.72517323 13.663618 4.1027842
0.82456225 13.691971 4.0988002
1.7545556 13.734111 4.0321126
2.7650402 13.694705 4.1035175
2.8310523 13.692698 4.0924149
3.7964001 13.7629 4.1708002
3.8713608 13.763465 4.130435
4.9068027 13.775294 4.1631641
5.9835 13.777 4.1384997
6.0311437 13.770145 4.1705713
8.1195717 13.79143 4.1794286
-4.6282864 13.956715 4.1761427
-4.5366001 13.932801 4.1894011
-3.4928572 13.918571 4.156858
-3.0486112 13.971054 4.1754441
-2.9082117 13.97565 4.1440763
-2.74 13.894617 4.0830789
-2.5242176 13.81465 4.0334349
-2.2831876 13.915197 4.0986943
-2.141556 13.974605 4.0621433
-1.6609747 13.909762 4.1303201
-1.5270926 13.916124 4.1030378
-1.2276071 13.88032 4.0908818
-1.10075 13.909741 4.1043916
-0.9405508 13.929483 4.0737529
-0.48871431 13.94093 4.085144
-0.39450002 13.941999 4.0760007
-0.058359753 13.908825 4.098279
0.058345459 13.922395 4.0832911
0.91876769 13.918474 4.107954
1.102155 13.921913 4.1102748
1.2979287 13.924956 4.1061873
1.5004429 13.923005 4.1085715
1.6372147 13.929834 4.0974021
1.9741206 13.915266 4.1150713
2.1016781 13.923175 4.1119051
2.2983158 13.929981 4.1112995
2.4991319 13.928612 4.1238365
2.6862526 13.924519 4.1156244
2.9860001 13.945001 4.1305003
3.1666281 13.95206 4.1313992
3.3018658 13.958693 4.1412659
3.4979081 13.970697 4.148294
3.7127793 13.952327 4.148222
3.8422451 13.854832 4.0513034
4.747231 13.9865 4.1595764
4.8878226 13.873528 4.0880952
5.1037645 13.960676 4.149354
5.2667389 13.987739 4.1732173
5.401 13.986 4.1870017
5.9378433 13.866566 4.0945311
6.0514116 13.860943 4.0829425
6.2476001 13.994201 4.1942
6.970789 13.911892 4.0966797
7.0766387 13.891772 4.0948305
7.2199998 13.980999 4.1420007
7.993 13.905001 4.0260005
8.1009092 13.879586 4.0632334
8.2176666 13.899335 4.0916662
9.08393 13.980215 4.0557871
10.06175 13.941749 4.1860008
10.205 13.99 4.0889997
11.171667 13.951 4.1730003
11.231 13.916501 4.1975002
12.4385 13.965251 4.1789999
-5.6686244 14.114324 4.1682763
-5.4984579 14.119472 4.1280017
-5.3425393 14.127235 4.1181331
-4.633739 14.099741 4.1638269
-4.5853338 14.136 4.1073341
-3.4883332 14.083502 4.1081676
-3.0474997 14.008688 4.1550002
-2.9099162 14.050646 4.0823221
-2.7756667 14.053001 4.0816674
-2.2767417 14.009132 4.0540957
-2.1177058 14.026824 4.0371194
-1.6109999 14.023001 4.0250006
-1.5393794 14.014382 4.0184822
-1.2550001 14.012668 4.0246663
-1.1176 14.007466 4.0193996
-0.921 14 4.0249996
-0.43700001 14.023002 4.032002
0.077999994 14.000001 4.0045009
0.93405265 14.00758 4.0228415
1.1138979 14.009222 4.0272241
1.3188463 14.008875 4.0256157
1.4900639 14.008743 4.0245953
1.6566668 14.01043 4.0250473
1.9733334 14.003 4.0273333
2.1179214 14.00766 4.0243678
2.3139071 14.010815 4.0282569
2.506094 14.010966 4.0404248
2.6799712 14.014143 4.0402155
3.1687276 14.02679 4.0601211
3.3072572 14.036432 4.0629382
3.5018442 14.049735 4.0637975
3.7018626 14.064673 4.0653358
3.810919 14.064002 4.0704064
4.7250762 14.084612 4.0640812
4.8397832 14.074746 4.0711555
5.1420236 14.070581 4.084034
5.259584 14.061959 4.1203337
5.7655997 14.1402 4.0250006
5.8850808 14.084246 4.0747299
6.1855555 14.077556 4.1090002
6.3142657 14.081451 4.1195955
6.4644284 14.071804 4.1479893
6.6193333 14.050002 4.1826658
6.9459891 14.104329 4.0655899
7.1964998 14.009501 4.0324993
7.339397 14.119541 4.1097269
7.4761043 14.112839 4.1280799
7.6966925 14.079155 4.1756916
8.0112734 14.098731 4.0173645
8.3591442 14.114144 4.1075726
8.4823637 14.090181 4.1814542
8.6801996 14.110601 4.1531014
9.1619453 14.053448 4.0218902
9.3653336 14.152167 4.1064997
9.5012913 14.160293 4.1340494
9.7016973 14.158998 4.138907
9.8796473 14.165351 4.1574411
10.039625 14.109125 4.171876
10.252666 14.1385 4.107501
10.565 14.181 4.0939999
10.716833 14.182669 4.1327772
10.900276 14.181174 4.1502748
11.104929 14.150928 4.1641445
11.21 14.195 4.1990004
12.438211 14.095366 4.139061
13.324643 14.067644 4.1448569
13.407769 14.121614 4.1744618
14.319688 14.141188 4.1037488
14.431001 14.105 4.1402502
15.366455 14.179639 4.1016359
15.431091 14.183091 4.0910006
16.378429 14.168644 4.1648583
16.449965 14.18025 4.1666074
-6.6618433 14.278819 4.1136594
-6.5647087 14.329016 4.1256495
-6.0488338 14.384999 4.1673336
-5.8965387 14.366924 4.1640005
-5.7478948 14.325396 4.1067109
-5.5337501 14.216751 4.0712504
-5.2864437 14.311318 4.0921826
-5.1006036 14.318619 4.0919085
-4.9114714 14.309546 4.0698562
-4.7326159 14.273488 4.0894103
-4.5650001 14.205001 4.1750007
-4.2832503 14.244501 4.0754995
-4.0174999 14.223499 4.0609999
-3.98 14.227999 4.000001
8.3760004 14.201 4.052
8.4099998 14.201 4.0260005
9.1920004 14.204 4
9.3875723 14.220573 4.0471435
9.5074558 14.235002 4.056911
9.6810932 14.237938 4.0689383
9.8538179 14.241182 4.0909996
10.117001 14.223001 4.1365004
10.299358 14.250572 4.0657864
10.52844 14.27024 4.0359602
10.701203 14.2762 4.0536103
10.872309 14.268414 4.0836544
11.017333 14.253669 4.1226668
11.362834 14.263835 4.1363339
11.496166 14.283084 4.0893335
11.720047 14.303487 4.0511174
11.873698 14.315727 4.0402136
12.097136 14.298865 4.0792718
12.349625 14.302 4.1330004
12.496775 14.285379 4.120472
12.690119 14.339417 4.0626993
12.865207 14.368239 4.0381727
13.157001 14.330334 4.0533347
13.308499 14.280802 4.1247993
13.501111 14.311475 4.1555009
13.695876 14.339697 4.1322865
13.885509 14.353508 4.127882
14.068637 14.378366 4.0808196
14.295473 14.304842 4.0863161
14.924799 14.357253 4.1728997
15.0802 14.351099 4.1761508
15.360351 14.267552 4.0481014
15.472238 14.265079 4.0358047
15.912525 14.371054 4.1823692
16.106001 14.376539 4.1842694
16.347757 14.271404 4.0874052
16.463324 14.260509 4.0917788
16.610001 14.394001 4.1860003
17.543823 14.276278 4.0972457
17.631329 14.304237 4.1082911
18.54175 14.368999 4.0572495
18.631001 14.327 4.118
19.570717 14.334366 4.1074648
19.660761 14.339394 4.1066799
20.724581 14.317631 4.1119585
20.802057 14.339943 4.1064115
21.699593 14.34277 4.1309261
22.525 14.374 4.1929998
23.735189 14.364442 4.1493168
23.822332 14.385 4.1526675
24.936501 14.390751 4.1872501
-7.7379999 14.586001 4.1959996
-6.6102505 14.537501 4.1582499
-6.5312786 14.49041 4.0983634
-6.3136797 14.53534 4.0502801
-6.0876002 14.481451 4.0767517
-5.9247141 14.454574 4.0921416
-5.7740002 14.421 4.1399989
-5.3039999 14.444335 4.0023336
-5.1729999 14.427 4.0010009
12.772 14.402001 4.006
12.921 14.403 4.0339999
13.019 14.412001 4.0130005
13.731059 14.438533 4.0493526
13.904556 14.444445 4.0470376
14.097572 14.455931 4.0386419
14.302858 14.446573 4.066143
14.955301 14.410299 4.151001
15.090636 14.429864 4.1045461
15.334333 14.471167 4.0463333
15.524502 14.46767 4.0371675
15.614 14.538002 4.0170007
15.930182 14.441062 4.1475763
16.105917 14.477182 4.0940866
16.239946 14.483498 4.0785556
16.550259 14.488173 4.0818272
16.68169 14.511205 4.0721045
16.831333 14.557667 4.0153337
17.18475 14.449751 4.1776242
17.29978 14.479814 4.149755
17.4205 14.487701 4.1107984
17.693953 14.491298 4.1232958
17.8619 14.533001 4.0847807
18 14.581001 4.0120015
18.352873 14.502129 4.1641498
18.452751 14.514325 4.0924749
18.941418 14.54109 4.148891
19.0128 14.5746 4.0678
19.388 14.521715 4.180429
19.462975 14.521694 4.1323338
19.732307 14.526822 4.1120882
19.902542 14.561181 4.1360159
20.098047 14.56188 4.1327152
20.256651 14.567609 4.1257434
20.783695 14.510859 4.097806
20.892721 14.541506 4.1601028
21.096506 14.552539 4.1731305
21.280798 14.558393 4.1788521
21.450003 14.577667 4.1789999
21.742756 14.493581 4.0912018
21.89415 14.576983 4.1790347
22.095936 14.58283 4.1808729
22.292524 14.584429 4.1835732
22.528 14.4795 4.164
22.935202 14.597801 4.1761994
23.141003 14.595667 4.1763344
23.253998 14.595667 4.1687503
23.501999 14.59325 4.1660008
23.712978 14.459324 4.0735807
23.844 14.414333 4.1300001
24.903814 14.476879 4.1038823
25.012001 14.487335 4.1853318
25.877977 14.49984 4.1038694
26.003 14.574502 4.1215
28.097227 14.588419 4.1749024
30.335501 14.498436 4.1422381
-8.8426151 14.718631 4.1171651
-8.747117 14.660527 4.1318526
-7.8564997 14.7925 4.0974994
-7.7142091 14.746908 4.1366057
-7.2379999 14.764002 4.0110006
-7.1748333 14.7445 4.0248342
-6.6069999 14.626001 4.0340004
-6.5003338 14.616945 4.0237784
-6.3682499 14.602001 4.0047507
17.75725 14.6075 4.0180011
17.863001 14.616201 4.0072002
18.024 14.607 4.0149999
18.999001 14.617002 4.0469999
19.009666 14.636334 4.0336671
19.747061 14.643867 4.0365014
19.896448 14.643375 4.0429149
20.101271 14.641888 4.045177
20.270542 14.638691 4.0440254
20.414249 14.644749 4.0342507
20.790001 14.645002 4.0734668
20.900204 14.642118 4.0803137
21.101877 14.649297 4.0819798
21.294409 14.656805 4.0804996
21.446239 14.677559 4.0743594
21.774029 14.667152 4.0771694
21.900663 14.677679 4.0864835
22.100164 14.683651 4.0896945
22.289646 14.68689 4.0945263
22.451092 14.710867 4.0778179
22.955385 14.694124 4.0992842
23.09823 14.69796 4.0959635
23.305059 14.698484 4.0931759
23.500254 14.695562 4.0945024
23.647774 14.696161 4.0869532
24.118696 14.701059 4.083735
24.299559 14.699242 4.090209
24.498341 14.703789 4.0926948
24.697134 14.711035 4.0985155
24.830877 14.691251 4.0931273
25.360283 14.754263 4.0739803
25.500954 14.746037 4.1058931
25.699347 14.754596 4.1111946
25.812059 14.695211 4.0925283
26.094967 14.73175 4.1554656
26.57373 14.74964 4.1623635
26.630501 14.750583 4.1706667
27.083717 14.669714 4.0372143
27.275686 14.785053 4.1743698
28.067785 14.681601 4.0921049
28.222 14.717501 4.1065016
28.987999 14.7395 4.0139999
29.094315 14.656315 4.0526257
30.335258 14.704784 4.1323695
-9.8621111 14.863556 4.1854448
-9.7617512 14.917502 4.1716871
-9.0672503 14.988503 4.1547093
-8.8642826 14.907316 4.120141
-8.7809992 14.948446 4.1253338
-8.4673996 14.874201 4.1853991
-8.30375 14.883001 4.086
-8.0340004 14.913168 4.0209999
-7.881628 14.862816 4.0580463
-7.7206669 14.853483 4.047852
23.511002 14.802002 4.0159998
23.694 14.805 4.0149999
24.150499 14.8055 4.0140004
24.330751 14.804001 4.0100002
24.518253 14.809168 4.0091662
24.702185 14.814076 4.0121498
24.81975 14.8125 4.0105009
25.343456 14.834546 4.0154095
25.498087 14.844809 4.0175967
25.699766 14.844831 4.0197878
25.818249 14.838127 4.0318751
26.104336 14.805334 4.1326675
26.516827 14.845746 4.0701342
26.651667 14.842905 4.0930963
27.191999 14.858999 4.0570016
27.257427 14.860178 4.1390362
27.754072 14.948399 4.0420341
27.914909 14.921683 4.090219
28.011213 14.876602 4.082036
28.350958 14.914424 4.1228423
28.469707 14.909551 4.1670814
28.615999 14.841 4.1929998
28.996 14.879001 4.0259995
29.007 14.986 4.0149989
29.348749 14.9755 4.1331248
29.455999 14.972142 4.1394281
30.105751 14.903334 4.0368342
30.337502 14.89992 4.1247797
-10.879126 15.085626 4.1512504
-10.784 15.101 4.0990005
-10.265909 15.188639 4.1713634
-10.172 15.182001 4.1950016
-9.6887503 15.084583 4.1508327
-9.4938078 15.100656 4.1088462
-9.2941732 15.098335 4.0620155
-9.1086321 15.057579 4.0815792
-8.9012032 15.040569 4.0616336
-8.7596931 15.019693 4.0805387
28.015999 15.006001 4.0180001
28.331335 15.010667 4.0279999
28.408001 15.002002 4.0520005
28.887875 15.042375 4.0178761
29.031 15.043001 4.0610003
29.3585 15.053625 4.0574994
29.445002 15.040201 4.0752006
30.310226 15.060276 4.0934014
-11.90409 15.318415 4.0534253
-11.768 15.368001 4.1230006
-11.35725 15.394501 4.1875
-10.703 15.255999 4.0030003
-10.478664 15.319469 4.0826917
-10.332011 15.272905 4.1179409
-10.099501 15.290833 4.0048327
-9.9202499 15.241251 4.0055008
-14.052237 15.563082 4.1519761
-13.964949 15.56084 4.1409836
-12.639668 15.592001 4.177001
-12.488526 15.580265 4.1757097
-12.361472 15.562942 4.1740012
-11.981799 15.4844 4.0044999
-11.63143 15.51195 4.1085725
-11.497705 15.501904 4.1007752
-11.342731 15.487587 4.0977745
-11.107942 15.471178 4.0572352
-10.960112 15.440445 4.058445
-10.519221 15.405778 4.0118895
-15.223938 15.774033 4.1553955
-15.139121 15.765371 4.1488919
-14.066435 15.683836 4.0903058
-13.933098 15.650019 4.0646343
-13.693284 15.753408 4.1647043
-13.551197 15.755825 4.1538239
-12.646711 15.662178 4.1138225
-12.510769 15.672976 4.0871539
-12.365709 15.63671 4.1444583
-11.944 15.644001 4.0107512
-11.725 15.603 4.027
-16.241255 15.926613 4.1109943
-16.175629 15.922206 4.1054039
-15.489001 15.986835 4.1958337
-15.232469 15.890688 4.1043878
-15.126752 15.836134 4.0577631
-14.979126 15.974686 4.155499
-14.552563 15.913062 4.1398754
-14.209625 15.938375 4.027
-14.109333 15.890875 4.0764451
-13.818126 15.849625 4.0508752
-13.700096 15.842325 4.0680795
-13.571638 15.819029 4.0835271
-18.293333 16.194447 4.1848884
-17.24225 16.048752 4.1777511
-17.147961 16.079998 4.115808
-16.459093 16.186779 4.1409197
-16.311007 16.159048 4.1214852
-16.184 16.014999 4.0040011
-15.819977 16.144585 4.0897727
-15.699057 16.13295 4.0956659
-15.499887 16.109913 4.0943255
-15.298202 16.081411 4.091475
-15.196583 16.091667 4.0700006
-14.967793 16.035332 4.0882096
-14.606 16.032001 4.0030003
-14.592 16.021502 4.0345001
-14.178 16.027 4.0419993
-21.396423 16.36338 4.115571
-19.344976 16.380428 4.1651425
-18.407 16.396999 4.1980009
-18.294538 16.271976 4.0971861
-18.089201 16.3678 4.1959996
-17.840858 16.375214 4.1601424
-17.687834 16.38435 4.1434431
-17.499483 16.366604 4.1301737
-17.378241 16.348244 4.1225123
-17.051311 16.317715 4.1030149
-16.90197 16.306553 4.0970283
-16.701153 16.275864 4.0935659
-16.511343 16.257938 4.082684
-16.316896 16.252987 4.0547252
-15.815001 16.2075 4.0664992
-15.784334 16.206669 4.0393338
-21.405411 16.428705 4.0955873
-21.382063 16.511438 4.100235
-20.464018 16.579111 4.1655817
-20.394667 16.596001 4.1766672
-19.412428 16.484715 4.0261431
-19.323309 16.471899 4.0824447
-19.116491 16.585197 4.1345811
-18.96875 16.56275 4.1169996
-18.420315 16.513357 4.1121998
-18.367859 16.522287 4.0587149
-18.100061 16.479126 4.0932198
-17.905247 16.455315 4.093771
-17.7082 16.447687 4.0685873
-17.504246 16.43856 4.0514088
-17.368704 16.421972 4.0513525
-21.35405 16.697975 4.0947165
-20.470953 16.648018 4.0746517
-20.385504 16.679947 4.0825539
-19.473572 16.722286 4.0500002
-19.242014 16.646152 4.0977144
-19.12409 16.652203 4.0721126
-21.359751 16.89253 4.0942044
-21.028603 16.9464 4.1648006
-20.889254 16.940681 4.1304355
-20.70751 16.935406 4.1029248
-20.5945 16.879 4.0685015
-20.893414 17.015221 4.0800586
-20.790001 17.01 4.0430002
-2.6622469 13.549986 4.336647
-2.5012231 13.559274 4.3336415
-2.3761904 13.568287 4.2948079
-1.4155296 13.550237 4.3393545
-1.3176196 13.522649 4.3061719
0.70835596 13.53138 4.3051081
0.81215388 13.539872 4.3130264
1.831 13.503 4.3769999
2.7599249 13.539553 4.3158026
2.8343856 13.535427 4.3230529
3.7864003 13.586801 4.3842001
3.8625 13.587252 4.3820004
-3.441 13.747499 4.2099996
-3.36325 13.76725 4.3937507
-2.674298 13.627171 4.2455969
-2.528713 13.6378 4.2662868
-2.3460183 13.67651 4.2367272
-1.866879 13.749897 4.3547888
-1.6988639 13.763553 4.3352399
-1.5314869 13.75152 4.331471
-1.2424653 13.704294 4.3079658
-1.1404712 13.75361 4.3246102
-0.048076928 13.753942 4.3314233
0.0040000002 13.756668 4.2939997
0.70123082 13.612387 4.2171535
0.89405501 13.737678 4.3233271
1.1020788 13.767395 4.3400512
1.3014996 13.767699 4.3429255
1.4967145 13.769416 4.3418283
1.6083888 13.760724 4.3427782
1.9609339 13.751851 4.3498702
2.0948911 13.757076 4.3449311
2.2984443 13.773096 4.341444
2.4965165 13.772472 4.3454137
2.6931252 13.730154 4.3186083
2.8268824 13.614355 4.219707
3.1947501 13.7945 4.3630018
3.2842369 13.78945 4.3596311
3.4767859 13.796286 4.3780003
3.7852798 13.702749 4.30831
3.8679023 13.667332 4.2906313
4.8935919 13.698587 4.3047357
5.0174999 13.754751 4.3377514
5.9698963 13.655948 4.3403592
6.0256662 13.697474 4.2947221
7.0983753 13.775708 4.2737508
7.954 13.699001 4.3580003
8.1092863 13.737001 4.2730007
8.2040005 13.784 4.2159996
10.084516 13.782124 4.3732438
11.1692 13.780801 4.3828001
11.279819 13.782273 4.3655467
12.340668 13.796668 4.3893332
12.426001 13.794334 4.389667
-5.6684475 13.977817 4.3657899
-5.4648418 13.959229 4.3485427
-5.3679781 13.962564 4.3345432
-4.6228333 13.940168 4.2320008
-4.5198078 13.893809 4.2760768
-4.0466671 13.992667 4.3553329
-3.9679999 13.980999 4.3700004
-3.2519569 13.891413 4.3408475
-3.0966489 13.901618 4.2989039
-2.9233782 13.885882 4.2911482
-2.30425 13.867033 4.2263446
-1.8527566 13.817297 4.3072958
-1.7011408 13.854744 4.2445259
-1.5439335 13.850558 4.242578
-1.22375 13.828628 4.2505841
-1.1075122 13.830805 4.2454276
-0.053257573 13.838121 4.2610903
0.014352941 13.844588 4.2490592
0.91873723 13.838995 4.2608237
1.0991539 13.845085 4.2638612
1.2969924 13.843107 4.2657228
1.4986712 13.842624 4.2617698
1.6167308 13.841616 4.2590775
1.9683166 13.838293 4.268877
2.1007919 13.838642 4.2624378
2.3000901 13.838614 4.2625279
2.5008214 13.848694 4.2634163
2.6756477 13.85228 4.2602968
3.183655 13.891175 4.2445517
3.3030543 13.883104 4.2831464
3.5005684 13.894022 4.2966866
3.7044816 13.901275 4.3025723
3.8514998 13.934875 4.2725
4.0093336 13.864 4.3630004
4.7736945 13.957529 4.2522225
4.8380585 13.906656 4.2873526
5.1251397 13.920294 4.3017664
5.2673497 13.967266 4.2658663
6.1775002 13.916938 4.3148112
6.3000016 13.946584 4.3166895
6.4999199 13.946622 4.3233204
6.6375003 13.94558 4.3483844
7.088809 13.830762 4.2202392
7.3298368 13.955955 4.3343253
7.4960299 13.95926 4.3359241
7.6283126 13.96075 4.3498125
8.5092115 13.976849 4.3327665
8.6528683 13.972668 4.3641319
9.7245007 13.990999 4.3691673
9.8379993 13.988502 4.3770008
10.049278 13.898402 4.3317885
10.219 13.830002 4.3730011
11.163522 13.902903 4.3258185
11.232625 13.831251 4.2938752
12.30898 13.855142 4.3421025
12.436828 13.884306 4.2836094
13.332824 13.941887 4.3176131
13.401834 13.960167 4.3241663
14.447 13.978999 4.3989997
-6.6753998 14.152602 4.3262005
-6.5867782 14.155666 4.3378878
-5.8039999 14.182 4.2300005
-5.7053924 14.075817 4.2776937
-5.5331244 14.046946 4.2840786
-5.3330326 14.115323 4.2812815
-5.1344504 14.1551 4.3550506
-4.6303577 14.079144 4.2215719
-4.5630002 14.156 4.25
-4.2982306 14.068386 4.2982306
-4.1243334 14.038334 4.3136678
-3.043 14.001501 4.2115006
3.513 14.0015 4.2220016
3.7707503 14.00675 4.2197504
3.809 14.012999 4.211
4.7609997 14.003501 4.2110004
4.842 14.004 4.2069998
5.2897782 14.008667 4.2192225
5.4250002 14.009502 4.224
6.192667 14.003001 4.2220001
6.3062496 14.010128 4.2452912
6.4872904 14.012274 4.2505646
6.6246672 14.006333 4.2623324
7.1660004 14.038668 4.2060003
7.341701 14.030975 4.2457242
7.5008516 14.031833 4.2560835
7.6545992 14.030668 4.2524009
7.8140001 14.017002 4.2120008
8.3915005 14.0235 4.2515006
8.4971313 14.051528 4.2663431
8.6819992 14.065501 4.2350001
9.5587873 14.107216 4.2157149
9.7252932 14.078871 4.269773
9.8984251 14.074385 4.2906508
10.037597 14.055935 4.2969098
10.940499 14.140853 4.2574716
11.129313 14.093752 4.3001604
11.222322 14.109359 4.3175716
12.375 14.195 4.2319999
12.431857 14.085145 4.216001
12.908471 14.118645 4.3851752
13.009501 14.101001 4.3900018
13.380573 14.089275 4.309341
13.440643 14.141559 4.2958446
13.614 14.193001 4.2950001
14.044 14.159503 4.3850007
14.4767 14.138203 4.3758006
14.715668 14.192002 4.3923335
14.855 14.197001 4.3970008
16.365276 14.119879 4.2883201
16.435736 14.132003 4.2351322
17.550566 14.161719 4.262804
17.620468 14.172604 4.2531338
18.514 14.191 4.3669996
18.688751 14.168501 4.3884997
19.569685 14.166258 4.3558002
19.656271 14.168055 4.3541465
20.596668 14.152667 4.3756676
20.700659 14.160218 4.3404431
21.594002 14.166503 4.3745008
21.670698 14.178823 4.372232
23.782202 14.184 4.3923998
23.801001 14.197501 4.3894997
-7.6188331 14.354167 4.3895006
-6.6751118 14.216555 4.2262225
-6.5682311 14.305566 4.2512817
-6.04175 14.309626 4.3325009
-5.8936758 14.316595 4.278677
-5.7495918 14.281021 4.2583051
-5.2926397 14.245062 4.2578392
-5.1419449 14.236668 4.2182231
-4.5679998 14.205001 4.2000003
12.3688 14.2332 4.2347999
12.452667 14.235002 4.2149992
13.361911 14.263274 4.2460017
13.50609 14.253908 4.2689328
13.686114 14.275195 4.2483468
13.93 14.224001 4.3353338
14.539932 14.248202 4.3713336
14.712154 14.268639 4.3256822
14.887408 14.294432 4.2899766
15.057302 14.317968 4.2590661
15.202 14.291 4.1999993
15.736314 14.300244 4.3300295
15.899612 14.318922 4.3084397
16.08886 14.321187 4.3083601
16.288889 14.290448 4.3386688
16.460499 14.3 4.2980013
17.326157 14.358265 4.3113174
17.528286 14.209575 4.2191434
17.634367 14.295757 4.2420607
18.136227 14.364389 4.3531837
18.239124 14.378375 4.2987499
18.5215 14.262001 4.3665009
18.735966 14.3563 4.3648663
18.812666 14.394167 4.3150001
19.324001 14.364501 4.3979993
19.559814 14.250129 4.2698746
19.678112 14.27483 4.2813439
19.902573 14.372145 4.3940721
20.05686 14.372431 4.3948579
20.56011 14.315332 4.3210011
20.722534 14.24361 4.2543445
20.871857 14.343431 4.3492856
21.098572 14.390285 4.3945713
21.276001 14.386668 4.3953347
21.577999 14.313 4.2020006
21.690857 14.261756 4.2865415
23.734581 14.275076 4.2994113
23.817499 14.260218 4.3221874
24.912281 14.332341 4.3048792
25.005749 14.347999 4.3572493
25.880808 14.344634 4.3209991
26.000999 14.375 4.3909993
-8.8477201 14.5553 4.3346596
-8.7427998 14.55152 4.3244843
-7.6030002 14.413 4.381001
-7.1364999 14.567249 4.2530012
-6.8410001 14.4 4.3330002
-6.612 14.45 4.250001
-6.5409999 14.442001 4.2275724
16.261 14.406999 4.2309995
16.513 14.406 4.2319994
17.1814 14.4282 4.2220001
17.27906 14.427139 4.2465396
17.408001 14.434999 4.2290015
17.664566 14.438843 4.2390628
18.182999 14.451 4.2785001
18.274479 14.456506 4.2471881
18.444834 14.464835 4.2388344
18.772911 14.42491 4.3078189
18.855701 14.45933 4.2571383
19.330877 14.44223 4.3156414
19.431402 14.453873 4.2926536
19.74313 14.460121 4.2897587
19.898256 14.462682 4.2947817
20.088039 14.472485 4.2840333
20.268154 14.518848 4.2332311
20.514444 14.463388 4.3137784
20.786461 14.468164 4.2890821
20.899872 14.491529 4.2972207
21.102175 14.496986 4.2978792
21.270523 14.511147 4.2880397
21.466555 14.566778 4.2295547
21.770594 14.503703 4.2944427
21.901281 14.528527 4.2995434
22.100342 14.53629 4.3003778
22.278772 14.539586 4.3049603
22.432999 14.569668 4.269001
22.950687 14.527862 4.3329773
23.09885 14.527012 4.3345914
23.300962 14.523514 4.3363328
23.499683 14.52284 4.3319678
23.651388 14.517303 4.3236709
23.955 14.5885 4.2530003
24.157284 14.533096 4.3149219
24.298899 14.533468 4.3289547
24.497723 14.53978 4.328465
24.698446 14.548851 4.3303475
24.839375 14.507157 4.2969456
25.090082 14.547654 4.3418355
25.543419 14.555708 4.3598762
25.694977 14.552067 4.3759141
25.850115 14.465914 4.2741241
26.118402 14.563879 4.3740001
26.785 14.593502 4.3845005
26.824001 14.591 4.3925004
28.102468 14.52268 4.2760353
28.225668 14.547336 4.3433337
-9.8768892 14.785556 4.2974448
-9.7825003 14.793503 4.2775011
-8.8590202 14.697426 4.2859774
-8.7068481 14.690587 4.3223481
-8.4705114 14.745678 4.3454423
-8.3151894 14.734177 4.3381777
-8.1714993 14.669627 4.3749995
-7.6833339 14.713833 4.2069998
21.792 14.607001 4.2310004
21.917999 14.603249 4.2426257
22.136003 14.604429 4.2325721
22.300781 14.608303 4.2406092
22.412001 14.643999 4.2530003
22.952684 14.614736 4.2461324
23.09762 14.614988 4.2438097
23.302979 14.618284 4.2433486
23.497879 14.618837 4.2360005
23.640358 14.619436 4.2309995
23.983 14.640999 4.2199993
24.141502 14.626162 4.2317948
24.299206 14.634247 4.232132
24.502184 14.639356 4.2347417
24.700459 14.646564 4.2369018
24.825523 14.648335 4.2331905
25.103735 14.650534 4.2554007
25.52669 14.651729 4.2721639
25.698227 14.654455 4.2811651
25.812172 14.653344 4.2808971
26.129471 14.667461 4.2953539
26.281668 14.680336 4.300333
26.715111 14.696849 4.2935638
26.824667 14.654066 4.374599
27.346703 14.759411 4.2634559
27.47032 14.712464 4.341763
27.712 14.743 4.283
28.020638 14.684031 4.2388182
28.358547 14.764958 4.3240008
28.498777 14.779827 4.3438263
28.618999 14.790001 4.3096681
29.986 14.727669 4.3193336
30.058502 14.710501 4.3017488
-10.921568 14.963923 4.355773
-10.142 14.994001 4.394001
-9.8757286 14.854649 4.2551622
-9.7236013 14.915476 4.2684751
-9.5037518 14.962215 4.3003221
-9.3924999 14.956501 4.2925005
-9.0483341 14.942128 4.2467098
-8.8859177 14.886238 4.266953
-8.6982756 14.841175 4.3023806
-8.5252857 14.830523 4.2606192
-8.3990002 14.801001 4.2430005
27.313002 14.8022 4.2204003
27.713501 14.818002 4.25
27.977432 14.827288 4.2285724
28.021502 14.824627 4.25775
28.357851 14.842345 4.243691
28.504211 14.846302 4.2607985
28.670403 14.850401 4.2829719
28.893999 14.86525 4.2814999
29.363335 14.924667 4.2181678
29.495705 14.912706 4.2657065
29.707243 14.888508 4.3201852
29.865433 14.904652 4.3373523
-10.941591 15.070625 4.3183923
-10.689562 15.159407 4.3304067
-10.567901 15.154001 4.3174992
-10.271195 15.137295 4.2776408
-10.116305 15.095914 4.3084373
-9.9468746 15.049252 4.321876
-9.7098894 15.050056 4.2460556
-9.5121117 15.035223 4.2529988
-9.3789997 15.018501 4.2539997
-14.041 15.389002 4.3910012
-13.976334 15.389334 4.3943338
-13.005 15.316 4.3030005
-12.951191 15.349714 4.3276186
-11.629727 15.364227 4.3155913
-11.493094 15.344247 4.3288651
-11.336369 15.331738 4.3102913
-11.114667 15.257999 4.3006001
-10.935438 15.248339 4.3144884
-10.671 15.228144 4.2660007
-10.417 15.220503 4.2135005
-10.342401 15.2078 4.2291346
-15.203 15.595001 4.3969989
-14.06747 15.483404 4.298933
-13.970387 15.4766 4.2867889
-13.7176 15.585601 4.3949995
-13.24525 15.592125 4.3234997
-13.113644 15.546571 4.3166423
-12.860499 15.490002 4.3601265
-12.690742 15.544027 4.3211818
-12.500822 15.533567 4.3002148
-12.307365 15.502626 4.3023257
-12.169474 15.468947 4.3411584
-11.628348 15.434751 4.2612991
-11.508451 15.420218 4.2524323
-11.370715 15.408143 4.2445717
-16.252422 15.765541 4.3515692
-16.168314 15.765869 4.3476315
-15.233077 15.696365 4.3059225
-15.145516 15.681225 4.2927842
-14.646999 15.792 4.3384991
-14.491653 15.777914 4.3325224
-14.372833 15.758667 4.3191667
-14.081719 15.717312 4.2622209
-13.837655 15.693484 4.3005867
-13.699883 15.693126 4.29743
-13.534657 15.68953 4.2815604
-13.314273 15.643092 4.2985759
-13.139875 15.636312 4.2901883
-12.685742 15.60943 4.2470579
-12.58275 15.6045 4.2295008
-17.209694 15.925235 4.3346148
-17.176653 15.942408 4.3056097
-16.263498 15.869741 4.2827373
-16.17104 15.833122 4.2499385
-15.8056 15.9456 4.3542004
-15.689898 15.953205 4.3412695
-15.494747 15.957144 4.3090096
-15.300434 15.935373 4.300972
-15.009946 15.870781 4.311944
-14.952118 15.897046 4.306447
-14.708893 15.867731 4.3016224
-14.507455 15.855801 4.2784004
-14.3634 15.833 4.2725005
-14.068 15.802999 4.2285008
-18.408545 16.139095 4.348546
-18.313686 16.137188 4.3031831
-17.652874 16.193876 4.3791871
-17.498676 16.179918 4.3718123
-17.262751 16.033375 4.227376
-17.066397 16.145315 4.3268452
-16.897211 16.150951 4.3134661
-16.700176 16.126394 4.3066797
-16.495796 16.102682 4.3004408
-16.331001 16.088886 4.2846913
-15.810598 16.030003 4.2440014
-15.709573 16.031467 4.2538991
-15.52172 16.036314 4.2373028
-15.308026 16.03508 4.209384
-21.394333 16.379005 4.2483339
-19.439236 16.264061 4.3457069
-19.331324 16.322908 4.3070536
-18.448828 16.34219 4.3473396
-18.231672 16.280659 4.2857924
-18.098457 16.336853 4.3076897
-17.896936 16.311295 4.302866
-17.700319 16.293987 4.2921267
-17.503057 16.279161 4.2789168
-17.383204 16.273306 4.2541046
-17.064461 16.22657 4.2564845
-16.913013 16.243639 4.2226667
-16.699057 16.225483 4.2131724
-16.534132 16.209261 4.2134352
-21.406565 16.436438 4.2562499
-21.383694 16.515762 4.2432232
-20.47253 16.506292 4.3077984
-20.3995 16.5765 4.2272496
-20.159 16.594501 4.3800011
-19.403999 16.502001 4.3779998
-19.273979 16.487331 4.2958164
-19.124819 16.501043 4.2768164
-18.970558 16.487614 4.2413888
-18.653217 16.452642 4.2791443
-18.469648 16.428415 4.2681341
-18.10898 16.437309 4.2130222
-17.910828 16.415277 4.2122426
-17.731401 16.4048 4.2114005
-21.405499 16.734749 4.288249
-21.373823 16.701092 4.2509255
-21.067501 16.792 4.3935003
-20.884771 16.76281 4.3900008
-20.698124 16.769907 4.345283
-20.435837 16.645626 4.3432927
-20.301825 16.645763 4.3523812
-20.171 16.673332 4.2795005
-19.250181 16.606276 4.212728
-19.159668 16.612667 4.2133331
-21.325792 16.862827 4.2917933
-21.087313 16.891064 4.3096213
-20.900461 16.860239 4.293643
-20.732719 16.844976 4.2658982
-2.7066667 13.380945 4.5724449
-2.441 13.383001 4.5760012
-1.4112941 13.357767 4.5438833
-1.3453263 13.362119 4.5344152
0.5952 13.3664 4.5845985
0.70524657 13.369558 4.5545626
2.7514815 13.375832 4.5627775
2.8422959 13.378865 4.5655694
-3.4520402 13.525494 4.5500259
-3.3924444 13.569334 4.5267777
-2.675051 13.46527 4.4704638
-2.5409017 13.509438 4.4472103
-2.3673847 13.52608 4.4475393
-2.0852141 13.582001 4.5867143
-1.9242221 13.573834 4.5929441
-1.7635 13.559 4.5965009
-1.4360626 13.472375 4.474
-1.3027443 13.463013 4.4571042
-0.80933332 13.580335 4.5843344
0.5887143 13.494572 4.5368571
0.69855255 13.433102 4.4580708
0.8190515 13.512066 4.506104
1.0474 13.5932 4.5699992
1.2930909 13.595638 4.5608172
1.4703335 13.596167 4.5541677
1.9485 13.596501 4.5450006
2.1212502 13.59025 4.5512505
2.328125 13.596126 4.5629992
2.4943335 13.597 4.5690002
2.7432919 13.466509 4.4811573
2.8439238 13.439989 4.4720216
3.7793272 13.529541 4.5180469
3.8597794 13.528758 4.5010428
4.879035 13.582855 4.4592152
5.9631844 13.567651 4.48663
6.0189466 13.554687 4.520947
7.978334 13.570868 4.5516672
8.0553246 13.558559 4.5608234
-4.6583748 13.717003 4.573875
-3.4030001 13.601001 4.4970002
-3.3228774 13.727707 4.5168152
-3.1013792 13.752286 4.5174479
-2.9329898 13.727621 4.515214
-2.7688749 13.685749 4.4429984
-2.554857 13.655573 4.45543
-2.3261666 13.699168 4.4525003
-2.0609329 13.665785 4.5367975
-1.8987225 13.677874 4.4987125
-1.7004585 13.663073 4.501524
-1.5491669 13.659658 4.4928961
-1.2415386 13.667964 4.4603066
-1.1591176 13.699764 4.4187055
-0.92066669 13.690666 4.4730015
-0.063181818 13.721092 4.412272
0.3548182 13.671638 4.5207276
0.48133332 13.673223 4.511446
0.91111648 13.676518 4.4858966
1.1029968 13.676161 4.4880695
1.3026687 13.675636 4.4866505
1.5010805 13.676822 4.4873314
1.6036667 13.755333 4.4159999
1.956125 13.667609 4.4908762
2.1011674 13.675268 4.4894953
2.3000722 13.684591 4.4865384
2.5010881 13.685844 4.4907784
2.665436 13.686357 4.492085
3.3060305 13.719067 4.5173345
3.497597 13.725241 4.5247784
3.711597 13.722823 4.5246248
3.9639289 13.687288 4.490715
4.0085998 13.748802 4.5505004
4.8808784 13.641631 4.4176826
5.0159998 13.708 4.4169993
5.9439478 13.614315 4.4272637
6.1013474 13.698784 4.4889135
6.300808 13.779912 4.5547366
6.5017958 13.782955 4.5615234
6.6995792 13.782975 4.5621581
6.845715 13.788358 4.5707874
7.3959999 13.794 4.5730009
7.4869447 13.790336 4.5738335
7.6333342 13.788335 4.5740008
7.9817967 13.698626 4.5215483
8.0179996 13.603001 4.5019989
8.9764156 13.715003 4.5769172
9.0500011 13.679999 4.509666
10.071225 13.723532 4.5109668
10.206876 13.743 4.5333748
11.160802 13.750535 4.4594674
11.279908 13.70075 4.4840946
12.3387 13.771602 4.4342995
12.452375 13.759125 4.455749
13.2832 13.7607 4.5750008
-6.6607499 13.990502 4.5870008
-6.5949998 13.993 4.5949988
-5.8164997 13.938999 4.5745006
-5.6776996 13.912891 4.4828105
-5.5162363 13.933222 4.4451351
-5.3659234 13.880383 4.4632301
-5.0270004 13.974668 4.5600014
-4.8989005 13.96 4.5635014
-4.743 13.933001 4.5940008
-4.4601822 13.941911 4.4354548
-4.3552504 13.960126 4.4473758
-4.0539999 13.944625 4.4284997
-3.9320004 13.917858 4.4667859
-3.3088551 13.838411 4.4463677
-3.1062558 13.83914 4.4281406
-2.937217 13.821826 4.4250441
-2.77 13.801 4.4429989
2.2349999 13.802 4.4189997
3.3164368 13.809544 4.440022
3.5013535 13.817509 4.4433546
3.7049525 13.826141 4.4578347
4.0108337 13.817501 4.4584999
4.8509998 13.859 4.4119997
5.1190004 13.839171 4.4406009
5.2165003 13.903 4.4049997
6.1809292 13.843643 4.4502153
6.3004727 13.865774 4.4625673
6.4970074 13.871181 4.467061
6.6894197 13.873064 4.4794035
6.8347139 13.849931 4.5409284
7.3467026 13.891245 4.4622636
7.5075793 13.882593 4.4842334
7.6439786 13.875693 4.4985323
7.9840007 13.841701 4.4711008
8.5745001 13.939501 4.4321675
8.7145338 13.91172 4.4777975
8.8753071 13.868235 4.5430579
9.7845001 13.9475 4.469501
9.9146519 13.949937 4.4846525
10.029943 13.880935 4.4823923
10.50311 13.94128 4.5401387
10.648666 13.949554 4.5705557
11.16258 13.895064 4.4482746
11.218333 13.995002 4.4946671
12.268188 13.884562 4.4150634
12.4912 13.992002 4.5746002
12.6775 13.9835 4.5748754
12.9415 13.9475 4.5979996
13.062 13.962001 4.5990005
13.282697 13.882117 4.4903941
14.348248 13.852974 4.5255294
14.435076 13.91659 4.5149393
15.351304 13.905769 4.5123601
15.432308 13.918308 4.4813089
16.341999 13.993002 4.401
16.406 13.991001 4.4170008
18.562431 13.986429 4.5828571
18.604 13.994001 4.572001
19.539 13.999 4.5970006
19.6765 13.9965 4.5900011
20.677128 13.98555 4.5819688
-7.6936245 14.191252 4.5773764
-6.6779284 14.057287 4.4811792
-6.499444 14.11278 4.5564446
-6.300087 14.156826 4.5725222
-6.0824723 14.159283 4.5427732
-5.9439998 14.153725 4.4898276
-5.7635002 14.011001 4.4094996
-5.5167503 14.026752 4.4250002
-5.2806997 14.097402 4.4239998
-5.1033812 14.088619 4.432333
-4.939333 14.041837 4.5156679
-4.4531999 14.043801 4.4155989
-4.3779998 14.042 4.4140005
9.9400597 14.013238 4.4411778
10.040889 14.014223 4.4577775
10.494 14.022249 4.4760008
10.679 14.026 4.4200001
11.127625 14.027876 4.4198751
11.266286 14.052858 4.4404292
12.547 14.007334 4.574667
12.719772 14.028031 4.5237994
12.902706 14.049919 4.4981179
13.087775 14.047065 4.5169024
13.30377 14.054155 4.508616
14.315001 14.134501 4.4849992
14.482578 14.109201 4.4882288
14.67477 14.163898 4.4538207
14.834 14.191 4.4030004
15.320401 14.033202 4.4305992
15.588 14.125001 4.5879998
15.706413 14.138983 4.5449462
15.888552 14.146574 4.532958
16.021667 14.152336 4.5039997
16.360001 14.032 4.4100003
17.905499 14.196001 4.5545001
18.564629 14.024 4.5489998
18.649099 14.091681 4.481812
19.565117 14.072537 4.5039468
19.664892 14.09602 4.5034947
20.590858 14.070716 4.5147142
20.707088 14.066864 4.4917474
21.581917 14.076999 4.5137153
21.675776 14.100229 4.5043468
23.738407 14.129951 4.5067506
23.82646 14.136254 4.5188136
24.912357 14.162272 4.5472889
25.009001 14.197001 4.592001
25.88479 14.172761 4.5623627
-8.8496008 14.392601 4.5829992
-8.7550001 14.3885 4.5810003
-7.8059998 14.206499 4.5830007
-7.6588788 14.275042 4.5020323
-7.5999999 14.380002 4.4219995
-6.5214996 14.279333 4.4578342
-6.2788439 14.2235 4.5234365
-6.1205106 14.238222 4.4537787
-5.9608579 14.244715 4.4231429
14.510201 14.2322 4.4122014
14.609 14.233001 4.4020014
15.724951 14.217438 4.4578538
15.901648 14.223264 4.4596601
16.071028 14.233543 4.4372573
17.939318 14.238167 4.5301003
18.063137 14.298965 4.4412365
18.698824 14.307602 4.4328666
19.1966 14.294001 4.5550003
19.303741 14.315857 4.4998021
19.429167 14.313148 4.4946618
19.738033 14.307814 4.4963446
19.900234 14.319577 4.5016999
20.03713 14.339985 4.4660816
20.358999 14.293001 4.5339999
20.490576 14.312853 4.5157881
20.777924 14.299479 4.4989815
20.898739 14.341715 4.5020714
21.099258 14.346397 4.5017514
21.233694 14.356927 4.49055
21.761105 14.315525 4.505343
21.896162 14.35413 4.5301781
22.096529 14.355162 4.5418892
22.268494 14.363598 4.5513763
22.94825 14.3742 4.5437994
23.098757 14.373842 4.5375381
23.299673 14.374871 4.5384712
23.5 14.375277 4.5444694
23.658672 14.338598 4.5162539
23.858351 14.250801 4.4827008
24.193001 14.384 4.5080004
24.294094 14.381937 4.5414033
24.480692 14.38768 4.5421772
24.67577 14.387424 4.5283847
24.885998 14.267562 4.4717221
25.021498 14.3009 4.5204005
25.716999 14.378 4.5990009
25.864822 14.26503 4.4797654
26.012335 14.330667 4.513001
26.924475 14.286484 4.5080156
27.016333 14.235169 4.5791664
-9.8630009 14.593502 4.5912514
-8.8552504 14.456861 4.4802499
-8.7370672 14.493933 4.4931717
-8.4398003 14.596201 4.5528007
-8.2881594 14.575454 4.5390234
-8.0930004 14.545216 4.5323133
-7.9268827 14.513121 4.5533252
-7.619 14.415001 4.4089994
18.725 14.401002 4.4069996
19.296179 14.416824 4.4103532
19.425999 14.408251 4.4084997
19.748335 14.419333 4.4084992
19.889366 14.417637 4.4036379
20.049501 14.4277 4.4053011
20.514999 14.428001 4.4000006
20.783201 14.4276 4.4040003
20.895819 14.435547 4.4060445
21.100431 14.44261 4.4091425
21.243252 14.435547 4.4135995
21.777218 14.43067 4.4372587
21.907738 14.42907 4.4445686
22.103088 14.431692 4.4504266
22.283152 14.440987 4.4475431
22.950354 14.447973 4.452909
23.098013 14.447384 4.4549222
23.295635 14.448141 4.4589663
23.498255 14.443045 4.4608073
23.644487 14.4496 4.4602189
23.98 14.403 4.5190001
24.185635 14.464948 4.4521055
24.304384 14.459879 4.4694467
24.506655 14.455336 4.4825888
24.704823 14.456011 4.4968295
24.830297 14.463277 4.4901385
25.125467 14.46233 4.5041151
25.224277 14.44817 4.5572233
25.58075 14.525501 4.4504981
25.70266 14.50062 4.4961095
25.813858 14.481003 4.4833341
26.132423 14.515981 4.502018
26.212543 14.523293 4.5182915
26.795 14.597001 4.407001
26.882338 14.490158 4.4618697
27.59 14.576753 4.5167494
27.684105 14.56787 4.5544739
27.801001 14.564 4.5990009
28.184 14.441002 4.4070005
28.200001 14.461001 4.3999991
30.070999 14.511333 4.5566669
-10.887286 14.787431 4.5815716
-9.9166355 14.688814 4.5173216
-9.7764997 14.648502 4.5545015
-9.4407997 14.769402 4.5804005
-9.2868004 14.7444 4.5472994
-8.7049818 14.680792 4.4905858
-8.4724236 14.65461 4.4829073
-8.3137608 14.659725 4.4577408
-8.1134644 14.636215 4.4560351
26.856274 14.60882 4.4490013
27.550541 14.648085 4.4436216
27.649654 14.639846 4.4953461
28.375088 14.699869 4.4544349
28.453213 14.731894 4.4296432
28.917999 14.620501 4.5574994
29.004 14.627001 4.5650001
29.567146 14.759572 4.4552851
29.719603 14.754984 4.5158825
29.886486 14.759435 4.5442681
30.000999 14.764002 4.5840001
-12.0035 14.991501 4.5815001
-11.9855 14.9735 4.5914993
-11.008136 14.878092 4.5343175
-10.932582 14.889346 4.4966912
-10.6527 14.981103 4.566
-10.536 14.976 4.5613751
-10.05641 14.966842 4.4629321
-9.9324894 14.901972 4.4870272
-9.6626673 14.900002 4.4193349
29.586 14.82725 4.4240003
29.700138 14.837894 4.4322081
29.879463 14.855192 4.4396157
-12.03695 15.09073 4.5563402
-11.886786 15.090145 4.4805017
-11.418445 15.160889 4.5536661
-11.335303 15.147419 4.5573249
-10.937414 15.099138 4.4724507
-10.679842 15.073797 4.4832277
-10.501454 15.054773 4.4649096
-10.344818 15.022457 4.4430914
-10.107782 15.040262 4.411479
-9.9373999 15.019001 4.4090014
-14.036061 15.350863 4.4771409
-13.983713 15.344715 4.482686
-12.929249 15.32575 4.4310007
-12.69544 15.364501 4.5588489
-12.488759 15.349275 4.5546832
-12.295024 15.355086 4.5197616
-12.103245 15.319527 4.5280557
-11.886385 15.280616 4.498692
-11.734501 15.332127 4.4346251
-11.470697 15.270662 4.4508023
-11.343492 15.237517 4.4624305
-10.9108 15.212 4.4083996
-15.241446 15.554047 4.5228047
-15.155336 15.546009 4.507339
-14.068727 15.410181 4.4095464
-13.835661 15.541838 4.5065155
-13.727112 15.557448 4.499393
-12.850624 15.474375 4.4313755
-12.698649 15.458885 4.4658332
-12.503331 15.439417 4.4638309
-12.313378 15.443691 4.4281206
-12.141852 15.435186 4.4223328
-16.260651 15.711357 4.4571462
-16.167608 15.699287 4.4576077
-15.443 15.795001 4.539
-15.268669 15.715251 4.4965186
-15.069965 15.696744 4.4856372
-14.979311 15.753024 4.5343342
-14.723 15.632002 4.5809999
-14.432001 15.710083 4.4395003
-14.388 15.651501 4.5399995
-13.814 15.634001 4.4055986
-13.708415 15.63856 4.4126835
-13.593 15.646 4.4040003
-18.413336 15.977669 4.5625334
-18.326092 15.974375 4.5579438
-17.215837 15.85148 4.4563212
-17.178158 15.876792 4.4659462
-16.870255 15.985777 4.5370302
-16.698942 15.966752 4.5380015
-16.49642 15.943672 4.5285168
-16.334291 15.936941 4.5061135
-15.921 15.926003 4.4990005
-15.698331 15.878973 4.4945664
-15.498902 15.860051 4.492661
-15.317368 15.84897 4.4798198
-15.009144 15.830717 4.4382863
-14.973701 15.83935 4.4484496
-19.448879 16.151081 4.5282011
-19.36108 16.162262 4.533885
-18.415565 16.053249 4.479095
-18.303743 16.0639 4.4758043
-18.093109 16.178783 4.5350385
-17.898882 16.152149 4.5320721
-17.689955 16.139376 4.5138164
-17.51894 16.129789 4.498909
-17.072403 16.063217 4.4973292
-16.90847 16.053789 4.4880266
-16.703245 16.049599 4.463604
-16.504812 16.027277 4.4596982
-16.355333 16.008715 4.4505477
-21.418549 16.30069 4.5224628
-21.398001 16.380001 4.4770007
-20.506649 16.36096 4.5223904
-19.455999 16.211555 4.4367776
-19.326227 16.295437 4.4856906
-19.16 16.368223 4.4830003
