# .PCD v0.7 - Point Cloud Data file format
VERSION 0.7
FIELDS x y z
SIZE 4 4 4
TYPE F F F
COUNT 1 1 1
WIDTH 1261
HEIGHT 1
VIEWPOINT 0 0 0 1 0 0 0
POINTS 1261
DATA ascii
-31.2348 -1.0686994 -2.1525002
-31.185667 -1.1188328 -2.1111667
-31.257286 -0.88907135 -2.1057148
-31.178251 -0.93574965 -2.0225
-30.757999 -0.80699968 -2.1300004
-31.292755 -0.69860697 -2.0753572
-30.834 -0.73499972 -2.132
-31.411251 -0.51874971 -2.1560001
-31.340576 -0.51871389 -2.0645714
-30.858866 -0.46499985 -2.1011999
-31.351999 -0.37824982 -2.0205002
-31.424999 -0.15499994 -2.0029998
-31.351667 -0.087999895 -2.0193334
-31.534 0.12488891 -2.0447783
-31.569 0.23100004 -2.052
-31.6115 3.1344988 -2.0140004
-30.403999 -3.0089989 -1.8300002
-30.4396 -2.9131992 -1.8367
-30.476 -2.5449986 -1.8080001
-30.7115 -2.0449989 -1.8355001
-30.820835 -1.8596661 -1.9050002
-30.771385 -1.8866662 -1.8470001
-30.840101 -1.6914997 -1.8636503
-30.77 -1.7684993 -1.8060001
-30.902222 -1.5276103 -1.8782221
-30.6075 -1.2174991 -1.8240001
-30.43775 -1.2508743 -1.8575003
-31.072445 -1.0533886 -1.9146664
-30.997501 -1.1034993 -1.8264999
-30.417999 -1.1889994 -1.8200002
-31.114763 -0.90260494 -1.9101844
-31.220749 -0.67766631 -1.9605002
-31.143461 -0.71338415 -1.8713076
-31.24715 -0.4931851 -1.9199262
-31.17482 -0.52572685 -1.8340909
-31.272629 -0.31906241 -1.8785003
-31.308468 -0.096083298 -1.9038892
-31.459465 0.14630762 -1.9265387
-31.290003 0.050666608 -1.8713334
-31.006001 0.11399998 -1.842
-30.877254 0.11435713 -1.9159286
-31.466499 0.2278749 -1.9013751
-30.843201 0.3611998 -1.8364002
-30.854002 0.40933323 -1.8606668
-31.716557 2.1405544 -1.8891112
-31.621 2.4359984 -1.8413334
-31.49659 2.4811757 -1.8764119
-31.307003 2.5199082 -1.8725455
-31.102148 2.5447488 -1.8825998
-31.639999 2.6339986 -1.9220002
-31.508499 2.6674988 -1.8080003
-31.028667 2.7813325 -1.8390002
-31.072001 2.8139989 -1.946
-31.535999 3.0789988 -1.8824999
-30.414249 -2.8792484 -1.7832501
-30.339401 -2.9389055 -1.6984693
-30.408501 -2.641999 -1.6930002
-30.490334 -2.5346653 -1.7910002
-30.298298 -2.5571651 -1.6936671
-30.515499 -2.3569984 -1.6835001
-30.644144 -2.031713 -1.7357146
-30.58 -2.0099986 -1.6260003
-30.671545 -1.8864537 -1.7019089
-30.5905 -1.9464995 -1.6145
-30.808001 -1.6179992 -1.784
-30.722576 -1.7018281 -1.6942286
-30.826891 -1.5238882 -1.765889
-30.756752 -1.5494994 -1.677
-30.6735 -1.2217138 -1.6931428
-30.468 -1.2069994 -1.7795001
-31.004 -1.0069993 -1.7990003
-30.9105 -1.0557494 -1.67375
-30.682499 -1.1692493 -1.676625
-30.448599 -1.1708993 -1.706
-31.025431 -0.88014263 -1.7660718
-30.950394 -0.9124282 -1.6716788
-31.052082 -0.69782823 -1.7196856
-30.9723 -0.74449956 -1.6209003
-31.098801 -0.49963403 -1.7013416
-31.218998 -0.25349987 -1.7593751
-31.142771 -0.31454885 -1.6808827
-31.242086 -0.076913014 -1.7432177
-31.171835 -0.16416654 -1.6580834
-31.2745 0.10250004 -1.7875
-31.105862 0.0772499 -1.7087858
-30.874079 0.15299985 -1.7376924
-30.784399 0.1805999 -1.7279999
-31.341999 0.31349987 -1.6895001
-31.061001 0.20099995 -1.6910001
-31.211 1.3929994 -1.7229999
-31.702999 1.5919992 -1.7079998
-31.25 1.4089994 -1.6940001
-31.165668 1.4219993 -1.6653336
-31.671 2.1619987 -1.7990001
-31.480751 2.4784365 -1.7561255
-31.378716 2.5351415 -1.7224287
-31.070858 2.5652132 -1.7266428
-31.519003 2.6856654 -1.7413334
-30.931688 2.6787298 -1.7186154
-31.464802 3.1051986 -1.7498
-30.233 -3.0044987 -1.5590003
-30.258331 -2.9606652 -1.5726669
-30.161377 -2.9288735 -1.4226248
-30.400999 -2.6359987 -1.599
-30.3111 -2.6661987 -1.5049
-30.286167 -2.5252211 -1.4836113
-30.443001 -2.3549988 -1.5170001
-30.26186 -2.353713 -1.4217144
-30.611 -1.8574992 -1.5829999
-30.532772 -1.886461 -1.4823077
-30.614 -1.7899996 -1.5340003
-30.544857 -1.7077136 -1.4254286
-30.6325 -1.4799993 -1.4430002
-30.591999 -1.5739992 -1.4299997
-30.703751 -1.2489994 -1.43925
-30.636837 -1.143666 -1.4228334
-30.543251 -1.1187494 -1.4505001
-30.761501 -0.98249972 -1.4335002
-30.986 -0.64499962 -1.599
-31.0065 -0.5219996 -1.5755
-30.953375 -0.47024983 -1.4677501
-31.046669 -0.27566642 -1.5176667
-30.965229 -0.3137691 -1.4271538
-31.056734 -0.11186673 -1.4599333
-31.077917 0.072249964 -1.4411666
-30.997 0.16449997 -1.4295001
-31.016001 0.22199991 -1.433
-30.739 0.22599986 -1.6000001
-31.512999 1.3654993 -1.4402499
-31.481724 1.488055 -1.450889
-31.396999 1.5419993 -1.414
-31.060003 1.4999992 -1.4388573
-30.990334 1.5636662 -1.4280006
-31.530001 1.6319993 -1.46
-31.431 2.3646657 -1.459167
-31.415751 2.4688735 -1.4741251
-31.317305 2.5196989 -1.4478502
-31.191999 2.5769987 -1.406
-30.996 2.5929985 -1.4425001
-31.288401 2.6891987 -1.4575999
-31.185501 2.628999 -1.4075
-30.890644 2.6592846 -1.4474286
-30.785336 2.7243319 -1.4276667
-30.839001 2.8109984 -1.4405004
-31.17 3.6269989 -1.413
-31.130001 4.163497 -1.4569999
-30.6945 4.034997 -1.4380003
-31.118315 4.3119974 -1.5008423
-31.121555 4.4883304 -1.5589442
-30.632 5.1399975 -1.5629998
-30.686333 6.7296643 -1.474
-30.639999 6.8219976 -1.4249997
-30.201 7.369997 -1.5240002
-30.144194 7.339344 -1.4517305
-30.459545 7.4379978 -1.4347277
-30.274302 7.4246979 -1.4517994
-30.154501 7.4032474 -1.4409997
-29.899374 8.1067791 -1.5028229
-29.689999 8.0656605 -1.4903336
-30.0592 -3.0312653 -1.3130667
-30.086775 -2.9302561 -1.3124514
-30.23 -2.6639986 -1.3799999
-30.182333 -2.6903317 -1.3226666
-30.22468 -2.4761357 -1.3279549
-30.173298 -2.494499 -1.2715503
-30.290779 -2.2584434 -1.3312223
-30.139332 -2.3490987 -1.2765666
-30.254002 -2.1853318 -1.2160001
-30.430771 -1.8479328 -1.3156667
-30.372547 -1.8709495 -1.2464001
-30.463078 -1.7018496 -1.3052504
-30.383999 -1.758166 -1.2223332
-30.614 -1.4249994 -1.3620001
-30.514585 -1.5616659 -1.3156669
-30.644125 -1.2478745 -1.3571253
-30.572554 -1.2522212 -1.2558888
-30.634834 -1.1519995 -1.3386667
-30.561165 -1.106666 -1.2849444
-30.822857 -0.65914249 -1.3725718
-30.789749 -0.63724971 -1.3192501
-30.847002 -0.47897419 -1.3243847
-30.776068 -0.51299965 -1.2396668
-30.873066 -0.30853415 -1.2875893
-30.775 -0.39799982 -1.2220001
-31.026573 -0.047428466 -1.3824286
-30.93576 -0.12032594 -1.2925
-31.030285 0.097047582 -1.3478572
-30.964148 0.082071379 -1.2834287
-30.976999 0.2089999 -1.398
-31.274 0.8459996 -1.3270003
-31.3085 1.1714995 -1.2290001
-31.437443 1.3409995 -1.3463334
-31.357313 1.2960618 -1.25325
-31.443106 1.4737887 -1.3182633
-31.351801 1.5438993 -1.2713
-31.041664 1.5149995 -1.3268336
-30.961939 1.568733 -1.2920001
-31.338001 1.6139994 -1.2903334
-31.035 1.7809994 -1.2329999
-30.960455 1.6599088 -1.2737274
-31.346001 2.3889985 -1.3419999
-31.30257 2.5101066 -1.3112975
-31.162668 2.5838876 -1.2772223
-31.255333 2.7433324 -1.3493336
-31.118067 2.6479321 -1.2783999
-30.884253 2.6671777 -1.3178573
-30.75865 2.7338228 -1.2946473
-31.153749 3.5784988 -1.32425
-31.163 3.6229987 -1.3780004
-30.948 3.8539987 -1.2905
-31.075001 4.1863308 -1.3573337
-30.645145 4.0927119 -1.3011427
-31.034 4.2780743 -1.3304622
-30.980164 4.3109417 -1.2513891
-31.0142 4.4323969 -1.3372003
-30.962002 4.5007749 -1.2727778
-30.623501 6.764998 -1.3632503
-30.571499 6.7874975 -1.2655001
-30.610252 6.8219976 -1.3542495
-30.56189 6.8547754 -1.2561111
-30.135889 7.1556635 -1.333889
-30.321499 7.382998 -1.2179997
-30.102962 7.3323731 -1.2991874
-30.430126 7.4347467 -1.3631246
-30.316319 7.4862838 -1.2937617
-30.158716 7.4037123 -1.3175712
-30.22275 7.6257477 -1.274375
-30.167124 7.6598721 -1.2276254
-29.837177 8.1007137 -1.3355646
-29.745708 8.1304111 -1.2687922
-29.804001 8.2009945 -1.3930004
-29.742998 8.2107449 -1.2909999
-30.010401 -2.900799 -1.1864002
-30.069 -2.6142488 -1.1375
-29.983 -2.6214986 -1.0235
-30.07752 -2.5016122 -1.0988636
-29.993999 -2.5679989 -1.0040001
-30.079477 -2.3052585 -1.1037198
-30.222 -2.1569986 -1.161
-30.116777 -2.1436653 -1.0677779
-30.289413 -1.864509 -1.1178302
-30.314226 -1.7231501 -1.0932331
-30.445 -1.5134994 -1.1765001
-30.3785 -1.5929995 -1.1285001
-30.47225 -1.2671994 -1.1121
-30.382 -1.3159995 -1.0020001
-30.497753 -1.0964993 -1.0989425
-30.457502 -0.92708308 -1.0527501
-30.294443 -0.94811082 -1.0757779
-30.723747 -0.43916643 -1.1185832
-30.816092 -0.25360852 -1.1726087
-30.740116 -0.30161247 -1.08182
-30.838831 -0.10113551 -1.1387289
-30.769352 -0.11976661 -1.0474002
-30.856003 0.049384572 -1.104654
-30.788 0.053399988 -1.0082002
-31.126499 0.96199971 -1.0655
-31.241901 1.1462994 -1.1457002
-31.150814 1.0810617 -1.0538125
-31.261127 1.3052601 -1.1125216
-31.186501 1.2389991 -1.0360001
-31.301567 1.515594 -1.1009192
-31.0145 1.5459993 -1.1420001
-30.954287 1.5782136 -1.120643
-31.227333 1.6213328 -1.0748887
-31.164501 1.6449994 -1.0065001
-30.897312 1.6792754 -1.1005517
-31.016003 1.8329995 -1.1680002
-30.973251 1.8172495 -1.0910002
-31.223001 2.5433741 -1.1522501
-31.170664 2.5454435 -1.0780003
-31.087406 2.6333694 -1.1015189
-30.910698 2.6944766 -1.0938697
-30.753403 2.7308986 -1.1012499
-31.049999 3.1739986 -1.012
-31.006001 3.7469985 -1.1340001
-30.9725 3.7419987 -1.051
-30.848249 3.8474982 -1.1019999
-30.959999 4.1829977 -1.1340002
-30.611 4.1249976 -1.1635002
-30.544531 4.088892 -1.066684
-30.90353 4.3030682 -1.1060525
-30.868132 4.4878883 -1.0960275
-30.47875 6.8712473 -1.1125829
-30.077999 7.1759977 -1.1930003
-30.303167 7.385581 -1.1257501
-30.074377 7.355247 -1.128969
-29.995998 7.3484974 -1.0719998
-30.265697 7.4749756 -1.112596
-30.157631 7.5633669 -1.0531576
-30.113119 7.6444769 -1.1043594
-29.718094 8.1379948 -1.1394548
-29.655998 8.2168694 -1.1450005
-29.907639 -2.6337259 -0.8974092
-30.011999 -2.4412484 -0.97224998
-29.92885 -2.5159135 -0.87514883
-30.027481 -2.2907763 -0.93588883
-29.969414 -2.3063323 -0.86141676
-30.086666 -2.0778322 -0.95650017
-29.936998 -2.1331069 -0.87889189
-30.217499 -1.8434992 -0.97500014
-30.151926 -1.8575919 -0.90366662
-30.234907 -1.7007614 -0.95902377
-30.164318 -1.7141598 -0.8628571
-30.2815 -1.5224993 -0.93550003
-30.181 -1.5493994 -0.82599998
-30.355402 -1.2613996 -0.91160017
-30.43362 -1.0670946 -0.95571446
-30.359741 -1.0921992 -0.86265719
-30.435581 -0.94516641 -0.9381668
-30.355408 -0.92513847 -0.89399987
-30.1318 -0.87379968 -0.94510001
-30.4655 -0.7439996 -0.87774998
-29.958313 -0.68874967 -0.86118758
-30.618874 -0.42737481 -0.95275009
-30.539364 -0.46499979 -0.85672742
-30.075003 -0.56785697 -0.87471437
-30.649584 -0.28119716 -0.93506575
-30.572578 -0.31881797 -0.84145451
-30.681753 -0.11698146 -0.91118538
-30.591499 -0.1949999 -0.81599998
-30.718777 0.085755095 -0.88499999
-30.73189 0.32377768 -0.84077775
-30.531 0.39899987 -0.95800006
-30.631001 0.39999986 -0.85500008
-30.477577 0.49077988 -0.90442002
-30.379751 0.54174966 -0.83025002
-30.961399 0.78119969 -0.92620009
-30.506269 0.69364679 -0.89544129
-30.281202 0.65219969 -0.81760019
-31.024309 0.93907666 -0.9350003
-30.970503 0.87037456 -0.89299995
-31.069704 1.0904994 -0.93260002
-31.142 1.2961044 -0.94336855
-31.222286 1.5347137 -0.94971442
-31.177431 1.4549994 -0.9218573
-30.91 1.5899994 -0.97500026
-31.237999 1.6134994 -0.95174992
-31.163498 1.6448328 -0.94066668
-30.865801 1.6727997 -0.9568001
-30.789999 1.7253995 -0.88880014
-30.922001 1.8039994 -0.99800014
-31.077999 2.1949987 -0.81999999
-31.093557 2.3639984 -0.86577779
-31.090307 2.4671526 -0.8984617
-31.059626 2.6497488 -0.94050002
-30.908581 2.7007408 -0.91635478
-30.758068 2.7449994 -0.91480011
-31.016001 3.1584988 -0.96750009
-30.954428 3.1343796 -0.86071432
-30.879835 3.718832 -0.89266682
-30.831287 3.8552845 -0.90600038
-30.474934 4.0983305 -0.89996648
-30.829292 4.2986641 -0.95995843
-30.764433 4.3075981 -0.86360002
-30.814001 4.4356642 -0.9799999
-30.757 4.4659624 -0.8924284
-30.363777 6.8996639 -0.88955569
-29.948334 7.184998 -0.85433316
-30.202 7.3874969 -0.84950018
-30.091667 7.3766642 -0.8258338
-29.934 7.3534975 -0.81500006
-30.227249 7.4302478 -0.96025038
-30.117617 7.5096898 -0.88599968
-30.034264 7.640892 -0.94421005
-29.975368 7.6651797 -0.8610909
-29.910999 7.8039985 -0.93700027
-29.646448 8.0670977 -0.8755517
-29.829668 -2.6275542 -0.76533341
-29.842743 -2.5041022 -0.73427582
-29.773077 -2.5237932 -0.64305145
-29.881399 -2.2937901 -0.69568765
-29.876356 -2.1071308 -0.69400007
-30.058559 -1.8266659 -0.75599992
-29.870571 -1.9528567 -0.66399992
-30.070726 -1.700637 -0.71705174
-29.988001 -1.7399995 -0.61660016
-30.098425 -1.5186052 -0.68321228
-30.262001 -1.2654994 -0.76750016
-30.1625 -1.2691243 -0.65075004
-30.263151 -1.0778457 -0.71578866
-30.180067 -1.1416662 -0.62913334
-30.279697 -0.90320379 -0.71093881
-30.038 -0.77449971 -0.68950003
-29.908243 -0.67480463 -0.69346333
-30.452356 -0.4729642 -0.72975016
-30.382364 -0.4734543 -0.62699997
-30.0142 -0.53659976 -0.74580002
-29.932499 -0.55833304 -0.67144454
-30.492178 -0.29715985 -0.71126664
-30.393 -0.38199985 -0.61299998
-30.610836 -0.063999996 -0.77866673
-30.538662 -0.14330295 -0.71624249
-30.632626 0.12068744 -0.74243748
-30.572956 0.086347803 -0.67208707
-30.661924 0.31614619 -0.69043899
-30.585199 0.22859994 -0.64460003
-30.661636 0.41390899 -0.67518187
-30.446564 0.44912484 -0.73462498
-30.330679 0.54451174 -0.69202435
-30.231781 0.64731216 -0.69615626
-31.060833 1.5766661 -0.70166677
-30.995499 1.5799994 -0.60700005
-31.055332 1.644333 -0.65888894
-30.844 1.6679993 -0.66299993
-30.711939 1.7371244 -0.64518756
-30.723 1.8209994 -0.62000012
-31.056198 2.1859987 -0.72060001
-30.993002 2.1816654 -0.63033354
-31.031736 2.2860656 -0.72233337
-30.976385 2.3336143 -0.65415376
-31.018 2.4272485 -0.74599987
-30.955669 2.4204988 -0.65716678
-30.855453 2.7232718 -0.76209104
-30.764801 2.7559991 -0.70690024
-30.556168 2.9861653 -0.65466666
-30.866728 3.1208162 -0.70281804
-30.610001 3.0419991 -0.65500021
-30.5825 3.0237484 -0.65174997
-30.811501 3.7069988 -0.75750005
-30.775002 3.709332 -0.66833353
-30.806999 3.8569992 -0.79399967
-30.749668 3.8529987 -0.69433343
-30.403 3.9989986 -0.72100008
-30.4 3.9979987 -0.68499994
-30.435534 4.125586 -0.75170636
-30.375225 4.1104527 -0.6619544
-30.678648 4.3160229 -0.70872509
-30.676537 4.4265313 -0.72713351
-30.281816 6.9161797 -0.71545482
-29.9095 7.1819973 -0.73650026
-30.101278 7.3797193 -0.72361135
-29.925116 7.3584766 -0.70044017
-30.064596 7.4777927 -0.71729493
-29.962053 7.5614424 -0.66661119
-29.914131 7.6488037 -0.7127738
-29.762501 7.7649975 -0.63050032
-29.645216 -2.6628385 -0.50628018
-29.695631 -2.498734 -0.50558507
-29.810001 -2.2604985 -0.57225013
-29.729893 -2.3267312 -0.48235714
-29.825077 -2.0930786 -0.53983998
-29.971127 -1.6848745 -0.56175005
-30.025751 -1.4726866 -0.54568756
-29.963306 -1.5110377 -0.47115386
-30.056173 -1.2835213 -0.49615225
-29.98975 -1.3706243 -0.43562502
-30.110077 -1.1008385 -0.49437508
-30.222401 -0.87899971 -0.56949991
-30.146566 -0.92899966 -0.4764334
-30.096001 -0.74299967 -0.49200007
-29.893921 -0.66699958 -0.50528955
-30.319901 -0.44119984 -0.51464999
-29.865778 -0.50170344 -0.48781484
-30.423 -0.2567271 -0.57590908
-30.342199 -0.30541164 -0.48758835
-30.429501 -0.1804999 -0.57133335
-30.3776 -0.17919989 -0.48380005
-30.527302 0.15489991 -0.55950004
-30.60775 0.35399985 -0.579
-30.529636 0.3043505 -0.49666241
-30.615286 0.43914273 -0.56142861
-30.533382 0.46576911 -0.48103848
-30.35165 0.56334758 -0.50986964
-30.266634 0.70810843 -0.49332631
-30.145092 0.7494542 -0.53890908
-30.705267 0.94109058 -0.46786368
-30.410999 0.88824975 -0.51899993
-30.315037 0.88533306 -0.51409727
-30.815716 1.1595709 -0.52042872
-30.749924 1.09632 -0.45681125
-30.227501 1.0019993 -0.55199999
-30.831697 1.2814994 -0.49396154
-30.775692 1.2585379 -0.42769223
-30.900024 1.5228401 -0.48104548
-30.798 1.4079993 -0.40400004
-31.013 1.6639993 -0.58399999
-30.936234 1.6765628 -0.48099995
-30.695705 1.7489994 -0.50244439
-30.686169 1.8872494 -0.48008329
-30.592999 1.8154993 -0.44550002
-30.921202 2.1652987 -0.50860012
-30.733908 2.024817 -0.4750911
-30.900198 2.3217831 -0.49872559
-30.878546 2.4169159 -0.49366689
-30.472528 2.9393868 -0.48713899
-30.806999 3.1164985 -0.58299994
-30.753387 3.1419992 -0.50594461
-30.511103 3.0430984 -0.48889983
-30.681299 3.724298 -0.50839972
-30.653502 3.8469987 -0.50333333
-30.469666 3.9469986 -0.50133371
-30.4165 3.9999986 -0.44450009
-30.317413 4.1163864 -0.5019722
-30.617876 4.319622 -0.5882498
-30.557858 4.3246398 -0.49814272
-30.33675 4.2074966 -0.46124983
-30.032501 7.3826647 -0.51350021
-29.907526 7.3671036 -0.52652669
-30.030115 7.4276638 -0.56644464
-29.930096 7.5136509 -0.51116347
-29.837519 7.6361413 -0.53399992
-29.786499 7.6656637 -0.47733402
-29.618614 -2.47616 -0.36806452
-29.643776 -2.3032055 -0.3307758
-29.875265 -1.4570194 -0.30116004
-30.0128 -1.2297994 -0.38140002
-29.915966 -1.3061992 -0.29587367
-30.030209 -1.0985856 -0.35496554
-29.957603 -1.1145327 -0.26191112
-30.04258 -0.92284602 -0.31392315
-29.983099 -0.9320997 -0.22409999
-30.061298 -0.69679964 -0.30389997
-29.9163 -0.65979964 -0.34189999
-30.232334 -0.40566656 -0.36600012
-30.240862 -0.29105538 -0.33002776
-30.174997 -0.33349979 -0.24688891
-29.848001 -0.38259989 -0.30220002
-30.279716 -0.10028567 -0.27228573
-30.434 0.16199991 -0.389
-30.329 0.084666654 -0.26983333
-30.439901 0.33022481 -0.34889993
-30.36417 0.29127568 -0.25327581
-30.451414 0.48320687 -0.30958623
-30.36693 0.51635683 -0.27671435
-30.240492 0.67564589 -0.30830771
-30.176239 0.75311881 -0.29130945
-30.638155 0.95792282 -0.36546156
-30.560375 0.96574968 -0.26162505
-30.258223 0.88493073 -0.30539647
-30.170336 0.8300553 -0.2479445
-30.654789 1.1119623 -0.31183952
-30.585897 1.0650992 -0.22435001
-30.693192 1.2715843 -0.29754722
-30.822269 1.5257328 -0.36246669
-30.747404 1.5169144 -0.26842552
-30.842093 1.6724139 -0.33441466
-30.727108 1.6910887 -0.27220005
-30.567638 1.7768176 -0.27418178
-30.6565 1.9539993 -0.37800008
-30.474268 1.8709326 -0.27943343
-30.353527 1.9664701 -0.27658832
-30.854 2.1679988 -0.38599998
-30.6985 2.0429988 -0.38050002
-30.254505 2.0552986 -0.27309996
-30.837776 2.3115544 -0.38533336
-30.816 2.4289989 -0.38260019
-30.688147 2.7741413 -0.24085712
-30.635 2.8269992 -0.27100015
-30.496449 2.8899741 -0.30569983
-30.373062 2.966186 -0.27312505
-30.646 3.1553321 -0.32222223
-30.442106 3.0709462 -0.31526315
-30.388893 3.0394433 -0.26033342
-30.610001 3.690999 -0.38050008
-30.549999 3.69909 -0.26245475
-30.549335 3.8399987 -0.30516684
-30.437668 4.0029974 -0.31100035
-30.246967 4.1225967 -0.30886686
-30.191801 4.1159978 -0.22080016
-30.482498 4.3044977 -0.34320009
-30.273214 4.2177119 -0.29921412
-30.422501 4.5744972 -0.29949999
-30.357 4.5509973 -0.2110002
-30.3685 4.6764975 -0.21599984
-29.82 -1.4184994 -0.1879999
-29.834499 -1.2767701 -0.15331256
-29.860498 -1.0987172 -0.11210257
-29.781765 -1.1567051 -0.030529439
-29.902122 -0.91384512 -0.08938092
-30.014668 -0.672333 -0.15599999
-29.944624 -0.70431209 -0.076812446
-29.824001 -0.58433294 -0.12033334
-30.105707 -0.28925794 -0.11635486
-29.802999 -0.31899983 -0.10300002
-30.235001 -0.014 -0.148
-30.162998 -0.093999967 -0.084400006
-30.236858 0.12399995 -0.10271428
-30.174999 0.02549999 -0.034999996
-30.279163 0.30580944 -0.10480954
-30.191 0.22899991 -0.0046666712
-30.4025 0.51199967 -0.186
-30.332531 0.50117511 -0.096789449
-30.278103 0.65163136 -0.10073686
-30.152477 0.7481848 -0.10471612
-30.501249 0.98924971 -0.15374997
-30.228716 0.96657109 -0.13414288
-30.129074 0.88318515 -0.094402075
-30.604 1.1979994 -0.19400001
-30.52224 1.1137967 -0.099987328
-30.384001 1.0219992 -0.022999942
-30.625832 1.3075826 -0.16208333
-30.553181 1.2583326 -0.076044381
-30.659897 1.5303211 -0.1111865
-30.589399 1.4712994 -0.03610003
-30.695189 1.6832426 -0.10188454
-30.568167 1.7514994 -0.14033335
-30.700001 1.8089993 -0.042999983
-30.463192 1.8853116 -0.098593712
-30.348387 1.9680765 -0.13307697
-30.462288 2.071713 -0.038857222
-30.253117 2.056881 -0.13705885
-30.683889 2.3152208 -0.046444535
-30.656923 2.4933064 -0.045769215
-30.627438 2.7257931 -0.085440993
-30.595001 2.7581987 -0.028400064
-30.619535 2.8321326 -0.1099999
-30.51519 2.889061 -0.093812466
-30.332699 2.9739983 -0.098521709
-30.476334 3.148999 -0.171
-30.32987 3.0715995 -0.094624996
-30.476547 3.6814528 -0.092090845
-30.461401 3.834599 -0.12799978
-30.274181 4.0774517 -0.086727262
-30.161547 4.1293612 -0.10215139
-30.407 4.3749976 -0.14999986
-30.2925 4.297997 -0.13799953
-30.333 4.4829974 -0.035000086
-30.328571 4.66014 -0.1277144
-29.82111 7.3832197 -0.092111349
-29.798 7.3789978 -0.037999868
-29.820398 7.4223976 -0.12299967
-29.727577 7.5067663 -0.074192047
-29.636902 7.6327128 -0.10266685
-29.807144 -1.0224278 0.021571457
-29.722101 -1.1037064 0.10359347
-29.829731 -0.89210492 0.037631571
-29.759653 -0.92898154 0.12783638
-29.848894 -0.69241351 0.093344837
-29.789286 -0.75785685 0.1624285
-30.031002 -0.24366659 0.032333337
-29.949169 -0.25249985 0.14750002
-30.069067 -0.065933287 0.070266679
-29.991837 -0.10699994 0.16766667
-30.080999 0.19266658 0.15400003
-30.217575 0.37399983 0.037428573
-30.140324 0.29355156 0.11141378
-30.239264 0.51378012 0.058219537
-30.168133 0.48659354 0.1587813
-30.24954 0.65892267 0.093999982
-30.132832 0.75231862 0.095014483
-30.061247 0.89677274 0.095907569
-29.986 0.89649963 0.17500004
-30.432674 1.1385875 0.053029358
-30.357273 1.1117234 0.1283448
-30.113258 1.0272214 0.11266664
-30.460855 1.2774687 0.083061218
-30.385752 1.2197496 0.17200008
-30.6105 1.5804994 0.010500014
-30.530077 1.523345 0.098135889
-30.625278 1.7193441 0.051413834
-30.567343 1.6809992 0.12914634
-30.635857 1.832428 0.09271425
-30.483063 1.9038382 0.10132259
-30.380772 1.9682304 0.11015385
-30.427202 2.1141987 0.063866615
-30.365627 2.0639987 0.14981246
-30.636152 2.3339987 0.079800129
-30.549747 2.3164985 0.17324996
-30.626183 2.4779534 0.04645443
-30.580317 2.5019987 0.15103996
-30.614302 2.6492987 0.020300031
-30.562511 2.7074394 0.10602939
-30.525154 2.878962 0.098472714
-30.339813 2.9724364 0.094999909
-30.253643 3.0708437 0.10357797
-30.426001 3.5849986 0.07099998
-30.393999 3.5849986 0.16300011
-30.4298 3.6759984 0.064100266
-30.393002 3.6729989 0.16775
-30.403 3.8059983 0.036000252
-30.349751 3.9422488 0.15424991
-30.319002 4.0562639 0.099333405
-30.127125 4.107748 0.07962513
-30.2915 4.3589973 0.14350009
-30.112 4.241497 0.11874986
-30.282001 4.4664974 0.1110003
-30.243587 4.6701641 0.14016652
-30.218 4.869997 0.14350033
-30.196501 4.9639969 0.16900015
-30.156601 5.0370975 0.15160012
-30.351501 5.7279983 0.17499995
-30.319 5.918664 0.14077759
-30.312336 6.0866642 0.13599992
-30.040001 6.1229978 0.1500001
-29.940498 6.145997 0.14349985
-29.736403 6.1699972 0.16760015
-29.748751 6.2417479 0.14249969
-29.945 6.5929976 0.14499974
-29.9165 6.7279968 0.1394999
-29.869499 6.9478307 0.17599988
-29.850386 7.0857744 0.16494393
-29.656 7.1879973 0.1784997
-29.822001 7.2109976 0.18400049
-29.652779 7.2921085 0.12299991
-29.652695 7.5174842 0.09423089
-29.666098 -0.90197462 0.29856953
-29.805 -0.64499962 0.22150002
-29.719353 -0.72237468 0.30760419
-29.733707 -0.54964674 0.32376474
-29.866165 -0.21383326 0.30616665
-29.90583 -0.11148273 0.30420688
-29.677999 -0.1579999 0.30600002
-30.046 0.19799992 0.206
-29.954 0.14216658 0.36133334
-30.043346 0.3015089 0.28561813
-29.987278 0.23738879 0.3490001
-30.100891 0.5043776 0.30050012
-30.211166 0.71166641 0.22016665
-30.137333 0.71374321 0.30388892
-30.03194 0.85992926 0.28422523
-29.961958 0.93905604 0.31685922
-30.293779 1.1395195 0.31059998
-30.047251 1.071954 0.28574997
-29.975285 1.038904 0.34871432
-30.4184 1.3693993 0.21960008
-30.341427 1.2720878 0.31504411
-30.443584 1.5200946 0.27850801
-30.380646 1.4672852 0.36428571
-30.492809 1.6987768 0.30118519
-30.515541 1.8995123 0.31110251
-30.364845 1.9807684 0.29753846
-30.31044 2.0875611 0.31453139
-30.558334 2.3687482 0.28866667
-30.360144 2.227427 0.31485707
-30.529957 2.493618 0.31214309
-30.495569 2.705435 0.30298698
-30.46694 2.8902445 0.30208755
-30.324429 2.9882846 0.26971424
-30.238348 3.0486529 0.28557706
-30.162312 3.0923097 0.31248271
-30.363998 3.5859985 0.30099988
-30.353502 3.6677849 0.30257142
-30.298454 3.9435444 0.32081819
-30.295557 4.0692196 0.27600014
-30.122 4.1257477 0.25275016
-30.240501 4.3514977 0.25049996
-30.0513 4.2747974 0.30560017
-29.998001 4.2364969 0.38000011
-30.227802 4.5057969 0.29520011
-30.186249 4.5839972 0.35400009
-30.217287 4.6402826 0.25028563
-30.176413 4.6749377 0.32129407
-30.150061 4.9126453 0.31288242
-30.121679 5.0398998 0.30335522
-30.271429 5.3797112 0.32171464
-30.146252 5.3546224 0.34087539
-30.418779 5.4674416 0.32444453
-30.340143 5.4111409 0.35014296
-30.092499 5.5434971 0.39599991
-30.500999 5.7317467 0.36325026
-30.355001 5.7604971 0.26933336
-30.067499 5.7273726 0.38987494
-30.503445 5.8954425 0.37144446
-30.338705 5.9063172 0.28313637
-30.033583 5.9149981 0.37008333
-30.499601 6.0475979 0.36800003
-30.306078 6.0161514 0.2913847
-30.096416 6.0316648 0.25400019
-29.867758 6.0609169 0.2744
-29.716656 6.1150122 0.31210303
-29.884998 6.355309 0.34524989
-29.695946 6.2767391 0.31707382
-29.883684 6.4738398 0.32142162
-29.848207 6.7402244 0.31215119
-29.798332 6.796998 0.38933301
-29.828905 6.8945603 0.2931025
-29.789145 6.9230213 0.37121463
-29.8181 7.0595827 0.26251245
-29.759476 7.1127129 0.32170129
-29.719749 7.290164 0.29150009
-29.632332 7.4703588 0.25516653
-29.617786 -0.84549963 0.43264285
-29.636057 -0.7216484 0.47094589
-29.668753 -0.51716632 0.51458347
-29.823999 -0.2019999 0.41100001
-29.64743 -0.38871422 0.50357157
-29.830002 -0.08679162 0.47229171
-29.773771 -0.10618176 0.54768181
-29.888937 0.1584999 0.49543339
-30.00975 0.37324986 0.42075005
-29.924189 0.28151673 0.50979775
-30.029737 0.5148508 0.46268094
-29.973461 0.46814561 0.53637505
-30.06773 0.70388407 0.49933061
-29.992834 0.63183308 0.58600003
-30.045456 0.83176458 0.5021373
-29.938324 0.93166649 0.50297046
-30.238504 1.1614993 0.44735
-30.061455 1.1679993 0.4916364
-29.916037 1.0784838 0.50908244
-30.265648 1.3028176 0.48951131
-30.186201 1.2317992 0.57360005
-29.976999 1.2049994 0.59500003
-30.406 1.5684993 0.41600001
-30.321619 1.4907169 0.50737667
-30.42889 1.7307491 0.46052766
-30.370274 1.6847744 0.54067492
-30.454403 1.8934884 0.49939996
-30.384285 1.9122853 0.50957161
-30.413 2.0069985 0.56300002
-30.26178 2.0791178 0.49569035
-30.194 2.1086655 0.57700008
-30.467665 2.385221 0.52300018
-30.275618 2.2606144 0.51161546
-30.018999 2.3659987 0.58499986
-30.471878 2.4966497 0.49430227
-30.433483 2.709374 0.50009382
-30.3936 2.7229986 0.5624001
-30.420498 2.8850698 0.45203555
-30.381762 2.9070525 0.54324329
-30.41 3.0129986 0.45600009
-30.292999 3.0272262 0.50140929
-30.115032 3.0996351 0.49990904
-30.107 3.2589989 0.59200025
-30.302002 3.5746655 0.52133322
-30.288858 3.6607127 0.51064289
-30.250616 3.9154601 0.48676932
-30.052399 4.1437979 0.50900018
-30.147598 4.3369966 0.47060025
-29.944386 4.2711506 0.49769211
-30.145817 4.5517249 0.49172735
-30.111448 4.6782036 0.52172422
-30.063145 4.9086256 0.54780006
-30.056646 5.0326738 0.51458812
-30.431999 5.3739977 0.54399991
-30.294167 5.3569975 0.56833339
-30.133799 5.365797 0.41640019
-30.366001 5.4796638 0.57800031
-30.093864 5.4791794 0.47136354
-29.909901 5.4298429 0.53192306
-30.407 5.6684971 0.55049992
-30.052679 5.7408371 0.47948003
-29.971241 5.7072201 0.50746298
-30.35825 5.8842473 0.56174994
-30.048573 5.8928075 0.43528557
-29.903973 5.8892355 0.53452253
-30.019287 6.0348544 0.43142867
-29.88518 6.0952582 0.50172615
-29.671968 6.1772561 0.4963429
-29.835083 6.3684978 0.49449992
-29.663748 6.3029809 0.48222041
-29.827641 6.4616756 0.48743987
-29.782902 6.4941978 0.5782001
-29.816565 6.7067471 0.44643736
-29.769403 6.7311382 0.52621889
-29.803501 6.8294973 0.42799997
-29.751568 6.900959 0.50205255
-29.719229 7.0866308 0.50847483
-29.672413 7.2468805 0.50229383
-29.619268 -0.47733319 0.64593339
-29.636 -0.37299985 0.72500008
-29.716543 -0.049837865 0.70162165
-29.819145 0.15914279 0.64900005
-29.754503 0.086666599 0.7182501
-29.85099 0.32340848 0.68823659
-29.786835 0.26383314 0.77349997
-29.898336 0.4925068 0.71137333
-30.016638 0.74827242 0.64409101
-29.956322 0.68696547 0.72100002
-30.02426 0.8496576 0.6843158
-29.937954 0.91930211 0.70454115
-29.851427 1.0955169 0.68853509
-29.781729 1.0894084 0.76713634
-30.216124 1.3655618 0.64768755
-30.166958 1.3168255 0.69060886
-29.864876 1.2159994 0.7552501
-29.639091 1.2809536 0.7057423
-30.241806 1.507708 0.69036472
-30.183903 1.4547995 0.76714987
-30.311289 1.7068684 0.69699997
-30.4125 1.9542494 0.634
-30.357283 1.8748685 0.7149567
-30.417002 2.0161984 0.6680001
-30.29118 2.0595441 0.69954562
-30.156998 2.134033 0.70386207
-30.432402 2.3785987 0.66159999
-30.238956 2.3262372 0.68100005
-30.158852 2.2876043 0.74003035
-29.949432 2.3808246 0.70095658
-30.42008 2.4828451 0.6505385
-30.372665 2.4606657 0.72966683
-29.887714 2.4867759 0.70742851
-30.406 2.6674988 0.62199992
-30.361042 2.7000427 0.70381421
-30.33338 2.8932161 0.70121741
-30.291573 3.0390372 0.70230782
-30.091963 3.1070948 0.69696784
-30 3.1419988 0.79900026
-30.238503 3.2239988 0.7401669
-30.1026 3.2661986 0.70319998
-29.884201 3.388999 0.69120014
-30.235432 3.571285 0.6910001
-30.200001 3.5929985 0.70000005
-29.743841 3.4277883 0.70647383
-30.220833 3.6766655 0.67066669
-30.188499 3.6714993 0.75300002
-30.136 3.9329987 0.75125027
-30.115448 4.0744972 0.73074996
-29.886715 4.1958551 0.70714307
-30.074005 4.3572569 0.72114813
-29.868616 4.2922325 0.71511769
-29.683937 4.3439159 0.71208084
-30.069332 4.5204644 0.70583558
-29.69758 4.4212384 0.7003448
-30.046719 4.6898403 0.69685411
-29.99325 4.7437472 0.79250002
-30.027592 4.8865051 0.67591286
-29.987108 4.9309969 0.75282145
-30.018648 5.0309544 0.65400004
-29.952063 5.0717034 0.73868632
-29.722385 5.1607838 0.70131922
-30.238001 5.3939972 0.61800003
-30.193001 5.3829975 0.61799979
-29.718533 5.2827587 0.69398594
-30.293999 5.4113307 0.62333345
-30.054998 5.4467468 0.63275027
-29.903997 5.4903917 0.69736719
-29.730621 5.4293756 0.71408105
-30.365 5.678997 0.60299993
-29.883686 5.7060475 0.70855021
-30.31325 5.8724971 0.62275052
-29.852016 5.8820076 0.70083499
-29.827463 6.0798483 0.67668366
-29.737398 6.1470757 0.72944713
-29.806999 6.371664 0.6066668
-29.724253 6.3627977 0.69372463
-29.806 6.4079976 0.60800004
-29.74828 6.4888129 0.70514822
-29.710316 6.7213106 0.70118284
-29.677568 6.9033422 0.69836617
-29.646536 7.0844288 0.70263529
-29.623837 7.2044973 0.70066643
-29.645281 -0.033166654 0.87072241
-29.669851 0.096436307 0.90818179
-29.810999 0.37299988 0.82709992
-29.746 0.30728737 0.9065001
-29.8354 0.52148306 0.87280864
-29.779066 0.47958323 0.94940007
-29.875999 0.69131523 0.90307003
-30.0145 0.93849957 0.81524998
-29.931835 0.89981514 0.89821553
-29.847136 1.0347918 0.90316981
-29.750896 1.1187679 0.90851581
-30.134499 1.3856661 0.87366676
-29.820272 1.2213631 0.84145468
-29.662472 1.2803947 0.91246915
-30.2155 1.5535994 0.81950009
-30.150337 1.5195692 0.89973283
-29.650557 1.4154438 0.89844435
-30.23547 1.7135992 0.87368011
-30.177317 1.6637722 0.94747722
-30.27602 1.8857168 0.90730405
-30.291792 2.0736191 0.90224141
-30.114031 2.1527562 0.89790922
-30.095341 2.3030477 0.9003278
-29.950998 2.3793323 0.89006668
-30.283337 2.5916653 0.95433348
-29.896135 2.4772987 0.89534998
-30.287855 2.7068634 0.89724308
-30.260437 2.8920231 0.89529973
-30.227741 3.0511465 0.90911138
-30.079107 3.1230345 0.89221418
-29.945999 3.1679988 0.98999983
-30.21125 3.2878325 0.84800005
-30.1605 3.3044989 0.92069232
-29.907997 3.3894982 0.89624977
-29.731899 3.3319743 0.89839005
-30.211 3.5419989 0.80600023
-30.148111 3.5233879 0.91883373
-29.864 3.4294991 0.93425012
-29.758764 3.4267352 0.90257895
-30.150553 3.6677766 0.8751111
-30.082451 3.9379683 0.91175795
-30.067215 4.0677972 0.90493357
-29.9105 4.1967473 0.87950003
-30.021803 4.3688974 0.88709998
-29.860439 4.2905331 0.88963401
-29.714817 4.3246036 0.90683842
-30.022182 4.5020385 0.85404193
-29.983746 4.5369115 0.94131947
-29.717134 4.4187632 0.90653372
-30.016109 4.6709976 0.81799948
-29.9688 4.7140598 0.90794933
-29.941252 4.9097705 0.90060914
-29.912024 5.0682678 0.89889383
-29.683151 5.1680837 0.89253473
-29.640924 5.252593 0.90385723
-29.843899 5.5137639 0.88926172
-29.68252 5.4474077 0.90016127
-29.825281 5.6908202 0.87388015
-29.786272 5.7269173 0.95496798
-29.812399 5.8553314 0.83113337
-29.773174 5.8926201 0.92346549
-29.807499 6.0369968 0.80599999
-29.732244 6.103857 0.8979702
-29.697321 6.3718367 0.89045143
-29.681696 6.4978333 0.90645909
-29.647818 6.7123528 0.89665341
-29.626379 6.8909426 0.87112594
-29.624502 0.15937489 1.0557501
-29.658159 0.29925948 1.0957406
-29.729342 0.51737958 1.0924686
-29.824245 0.7233429 1.0443882
-29.766682 0.67990685 1.1244359
-29.853615 0.89855051 1.1007683
-29.789822 0.83418131 1.1759999
-29.8703 1.0398079 1.101851
-29.716242 1.1286691 1.0999267
-30.011002 1.3529992 1.1080002
-29.640488 1.2936451 1.1023855
-30.06806 1.5272899 1.0947258
-29.991333 1.4483327 1.1713333
-29.666882 1.4215877 1.1014118
-30.118988 1.6919339 1.1039261
-30.221422 1.9194205 1.054158
-30.165428 1.8794858 1.1290001
-30.238869 2.0572653 1.0708667
-30.104837 2.1212485 1.1067047
-30.038301 2.2980258 1.0617568
-29.968599 2.3485122 1.1251626
-30.248703 2.590399 1.0786004
-30.1005 2.578999 1.1915002
-29.900291 2.4774468 1.0931723
-30.232546 2.7013121 1.0845525
-30.191797 2.7248986 1.1673999
-30.215038 2.8786783 1.0442001
-30.176317 2.9023144 1.1323156
-30.201 3.0719988 1.0030001
-30.12356 3.0976925 1.1032739
-29.967997 3.1716652 1.0948889
-30.111378 3.315186 1.0922501
-29.847004 3.3376651 1.1362084
-29.749817 3.3457022 1.061704
-30.086063 3.5175295 1.0995001
-29.812399 3.4143987 1.0929999
-29.772707 3.4251168 1.0598239
-30.049841 3.6713674 1.1230528
-30.028999 3.8985844 1.0936793
-29.992002 3.9453988 1.1697
-30.021 4.0692778 1.0541599
-29.980001 4.1017113 1.145543
-29.907272 4.294518 1.1001043
-29.717304 4.3161087 1.0998336
-29.930998 4.516326 1.0998158
-29.726183 4.4116793 1.096
-29.907454 4.7031045 1.0979562
-29.875587 4.9124718 1.099228
-29.852276 5.0681534 1.0977919
-29.698868 5.1692972 1.0895667
-29.811203 5.4992642 1.0303333
-29.740131 5.518837 1.103327
-29.802999 5.6039972 1.0309999
-29.747564 5.6977115 1.0978792
-29.711981 5.8919706 1.1054037
-29.676233 6.1008158 1.1021731
-29.64053 6.3829975 1.0841577
-29.626934 6.4843349 1.0765734
-29.622097 0.35495225 1.2343335
-29.648651 0.52361137 1.2719319
-29.688103 0.6969797 1.2982845
-29.815948 0.94964963 1.2276502
-29.746389 0.89076704 1.3077325
-29.824711 1.0542358 1.2693946
-29.722807 1.1095078 1.3100421
-29.877798 1.2265992 1.2930001
-29.621008 1.3115435 1.2828988
-30.014372 1.5481242 1.2222502
-29.95141 1.5120428 1.3137391
-29.671749 1.4179995 1.2773752
-30.041031 1.6990577 1.2756811
-29.971716 1.639928 1.3529999
-30.090801 1.8972616 1.302246
-30.1129 2.0883141 1.2912633
-29.979002 2.1773319 1.3416668
-30.018286 2.2402844 1.2804288
-29.934717 2.3292427 1.2930002
-30.212 2.5824986 1.2155
-30.156834 2.5779986 1.3240001
-29.901016 2.4677081 1.3028908
-30.207001 2.7104988 1.2175001
-30.157675 2.6986611 1.3014816
-30.121119 2.9038944 1.3032559
-30.084421 3.1106339 1.3011081
-30.051908 3.3288171 1.2902725
-29.840895 3.3324471 1.2840691
-29.792252 3.3308115 1.3243127
-30.02804 3.5087762 1.2787409
-29.908791 3.4618933 1.3237896
-29.795 3.4149985 1.2189999
-30.02243 3.6749988 1.2400001
-29.971174 3.7362847 1.3277715
-30.007336 3.8293321 1.2290002
-29.955236 3.9055445 1.3067843
-29.928619 4.1038609 1.3044094
-29.885529 4.2853026 1.2953336
-29.678825 4.3212204 1.3010448
-29.868778 4.5201864 1.2971238
-29.696577 4.4261174 1.3079201
-29.840975 4.708097 1.2996836
-29.788 4.7549973 1.3609999
-29.824202 4.9007473 1.2725744
-29.780401 4.9305477 1.3617998
-29.817457 5.0619006 1.2323222
-29.756403 5.0963478 1.3158838
-29.693571 5.5313029 1.2959287
-29.677765 5.7008057 1.2981427
-29.646769 5.8882165 1.2997937
-29.626379 6.0798225 1.2766669
-29.625942 0.72437835 1.448409
-29.65834 0.90180099 1.4898186
-29.701944 1.0923193 1.4951627
-29.829126 1.3116243 1.4666253
-29.655317 1.3045192 1.4976001
-29.871944 1.5214652 1.4900173
-29.623278 1.426636 1.4798183
-30.008499 1.7554994 1.439
-29.929161 1.7033195 1.4921001
-30.030058 1.9078782 1.4466059
-29.974548 1.879166 1.5359048
-30.055399 2.0552788 1.4947202
-29.962999 2.1939986 1.4170001
-30.0105 2.2104988 1.4900001
-29.88343 2.3278127 1.5055937
-29.796499 2.3764989 1.5775001
-30.118093 2.5599079 1.4674547
-29.875763 2.4831028 1.5078057
-30.091009 2.7081141 1.5003079
-29.961666 2.6159987 1.5676668
-30.059027 2.893363 1.4982028
-30.028736 3.0833573 1.4928845
-29.990667 3.1204991 1.5770836
-30.004999 3.3689983 1.401
-29.914587 3.3461654 1.4792507
-29.754751 3.3310347 1.496393
-29.923082 3.4877491 1.4955275
-29.769375 3.4246235 1.5235
-29.913731 3.7245703 1.4999366
-29.887007 3.9059532 1.5009999
-29.86129 4.1001434 1.5047199
-29.843969 4.2425294 1.4974691
-29.648458 4.3176694 1.4746032
-29.820503 4.5032263 1.4467916
-29.703751 4.4804926 1.5118761
-29.8099 4.6595974 1.4319003
-29.766422 4.7069058 1.5115575
-29.802999 4.8134975 1.434
-29.736227 4.9115453 1.5066594
-29.707754 5.0900698 1.5046594
-29.644001 5.2014971 1.5474999
-29.638969 5.5480542 1.4916416
-29.623453 5.6877847 1.4647312
-29.617161 0.95516109 1.631871
-29.641479 1.1018953 1.6762782
-29.669018 1.2854776 1.6951302
-29.829666 1.5576664 1.6365004
-29.734171 1.4729992 1.727561
-29.851755 1.7178916 1.6780274
-29.784889 1.6604437 1.7532225
-29.90958 1.8894299 1.6993073
-30.013748 2.1032486 1.6262503
-29.96207 2.0691986 1.722067
-30.016333 2.2163322 1.6596669
-29.846331 2.3280351 1.7085295
-29.789373 2.3797481 1.6711251
-29.827692 2.5276654 1.651639
-29.767885 2.4817131 1.7308099
-30.025772 2.7378707 1.6770515
-29.929085 2.684427 1.731971
-30.016037 2.8769643 1.6443449
-29.97669 2.913192 1.7334042
-30.004 3.0474989 1.6115003
-29.958036 3.0884323 1.7018912
-29.886335 3.3553321 1.6559999
-29.678112 3.3463235 1.7004864
-29.872622 3.4907575 1.7052417
-29.704607 3.4449983 1.6987149
-29.852835 3.7028565 1.7002335
-29.829817 3.9000492 1.6839364
-29.791414 3.9421749 1.7732353
-29.817904 4.0791845 1.6539063
-29.780895 4.1147366 1.7372288
-29.810875 4.244997 1.6272503
-29.724274 4.2752328 1.7158387
-29.717377 4.5148063 1.7008766
-29.702513 4.7059879 1.7028445
-29.671919 4.9112773 1.7015609
-29.642799 5.0855627 1.7010462
-29.626301 1.2790993 1.8369002
-29.676395 1.5088103 1.8902978
-29.813999 1.7909994 1.8480002
-29.725019 1.6884686 1.9113675
-29.84236 1.9213991 1.88116
-29.776333 1.8687772 1.9532223
-29.883678 2.0990796 1.905757
-29.858053 2.3054583 1.8887842
-29.770102 2.3537831 1.8945687
-29.710497 2.5039213 1.904941
-29.904095 2.7253242 1.880744
-29.741644 2.6509273 1.9345001
-29.931698 2.8981459 1.8975899
-29.891745 3.1039994 1.9024937
-29.849998 3.2707043 1.9214119
-29.664686 3.3399701 1.8852003
-29.821932 3.5279632 1.8767862
-29.695782 3.4945123 1.9128654
-29.815111 3.6689637 1.842536
-29.776669 3.7163262 1.9307823
-29.802 3.8929987 1.8144999
-29.757952 3.9065433 1.9020669
-29.732555 4.0957637 1.9022963
-29.699226 4.2686558 1.9030125
-29.660011 4.523984 1.8969736
-29.639853 4.6987009 1.8990792
-29.622288 4.8966446 1.8643423
-29.623217 1.5371065 2.0419998
-29.644341 1.7149053 2.0987186
-29.812 1.9919993 2.0050001
-29.706465 1.88047 2.1086864
-29.822069 2.1165986 2.0562668
-29.764055 2.0692768 2.1335559
-29.8412 2.298142 2.0955143
-29.729031 2.3687172 2.1026254
-29.660656 2.4919086 2.0919664
-29.895443 2.7597764 2.041889
-29.675661 2.6831594 2.1084695
-29.861361 2.8979669 2.0960107
-29.833374 3.0979989 2.0870504
-29.790146 3.1546421 2.1645005
-29.817003 3.2556517 2.0683479
-29.733257 3.3138919 2.1182981
-29.738979 3.5312614 2.0913858
-29.721077 3.7018125 2.1001403
-29.689138 3.9087002 2.1012237
-29.66456 4.0976839 2.1002674
-29.64345 4.2671609 2.0947397
-29.634987 1.9199505 2.2753932
-29.674273 2.0951767 2.3136714
-29.817999 2.3351984 2.2154002
-29.744329 2.3105595 2.3063169
-29.63974 2.468538 2.2845995
-29.63867 2.757369 2.2668147
-29.818403 2.8993325 2.2442999
-29.762476 2.9011178 2.3264747
-29.805 3.0816655 2.2180007
-29.755993 3.1144543 2.3032277
-29.72377 3.2927744 2.297612
-29.681 3.5427365 2.2965479
-29.656757 3.6986752 2.3004136
-29.629553 3.907788 2.2843063
-29.620258 4.084362 2.2529762
-29.627102 2.1362653 2.4458003
-29.662859 2.3028221 2.4932644
-29.670578 2.4294987 2.5051537
-29.709536 2.9263802 2.4854445
-29.689611 3.1131542 2.5034363
-29.66572 3.2839484 2.5003338
-29.631479 3.5028563 2.477572
-29.629269 2.4470756 2.6559615
-29.650869 2.9615657 2.6640005
-29.628788 3.1004057 2.679642
