# .PCD v0.7 - Point Cloud Data file format
VERSION 0.7
FIELDS x y z
SIZE 4 4 4
TYPE F F F
COUNT 1 1 1
WIDTH 1591
HEIGHT 1
VIEWPOINT 0 0 0 1 0 0 0
POINTS 1591
DATA ascii
4.4312315 -7.0747294 -15.990574
4.4273324 -7.0254993 -16.0035
4.4673052 -7.0838361 -19.438986
4.4681726 -7.0715094 -22.742426
4.5539999 -7.0799985 -26.198
4.4922299 -7.0879779 -26.239676
4.4669986 -7.0539994 -26.408333
4.4665709 -7.1518555 -29.59457
4.4509234 -7.1468196 -29.684793
4.4940901 -7.0663075 -29.87439
4.5116658 -7.0366664 -37.496002
4.4784861 -6.8879995 -5.5110846
4.5122004 -6.8579421 -9.1066561
4.4217801 -6.892592 -12.505719
4.4417677 -6.855938 -15.940391
4.4652934 -6.8966279 -16.006577
4.4476957 -6.8527327 -19.340027
4.4866037 -6.8928308 -19.434408
4.5421119 -6.9071832 -22.755796
4.5869989 -6.8319998 -22.801001
4.5839987 -6.9869986 -26.198
4.5401058 -6.9114633 -26.269867
4.5457497 -6.9489999 -26.411249
4.5245414 -6.9089546 -29.905176
4.5663323 -6.881 -30.007332
4.4449987 -6.8269992 -36.856998
4.4792485 -6.8344989 -37.064751
4.509666 -6.8336663 -37.300835
4.5550709 -6.9369278 -37.537216
4.5525994 -6.8549986 -37.652802
4.4216676 -6.638999 -2.1233337
4.4727416 -6.6990552 -5.5403485
4.447217 -6.6950197 -5.6402607
4.5417395 -6.7126184 -9.1189785
4.4739995 -6.7774992 -12.3745
4.4632497 -6.7822485 -12.44
4.5959992 -6.6909986 -15.795
4.5198369 -6.7077975 -15.926601
4.5549994 -6.738379 -16.008501
4.5389705 -6.7094207 -19.343597
4.5493798 -6.7276292 -19.424957
4.5969996 -6.7949996 -22.725
4.5959988 -6.7938333 -26.264334
4.538331 -6.6912899 -29.972166
4.5606785 -6.7266393 -30.01436
4.4775 -6.4859118 -2.137017
4.5329995 -6.5325813 -5.5582905
4.5490251 -6.5101528 -5.6381545
4.5825 -6.5119987 -8.9980001
4.5753999 -6.5672989 -9.0872002
4.5927219 -6.5861101 -15.925389
4.5930004 -6.5829992 -16
4.5969992 -6.5936656 -19.341667
4.5403204 -6.5020227 -29.983704
4.5914989 -6.4254994 -30.012001
4.4837279 -6.2902589 -2.1610377
4.4317293 -6.2480922 -2.2773788
4.5889993 -6.3989992 -5.5910001
4.5403605 -6.2963691 -29.984339
4.5439992 -6.3219995 -30.003601
4.4455562 -6.1093321 1.0289997
4.535707 -6.124249 -2.1795003
4.5210886 -6.095695 -2.2669475
4.5400653 -6.1036048 -29.98107
4.5418992 -6.0350986 -30.008402
4.4987779 -5.8716655 1.0313331
4.5909996 -5.9806657 -2.1943336
4.5876865 -5.980113 -2.2677143
4.4798889 -5.8792214 -13.579778
4.4494739 -5.8551898 -13.669704
4.5560937 -5.8227658 -15.951514
4.5679059 -5.8162169 -16.027935
4.5031471 -5.8487244 -25.079443
4.579443 -5.8077035 -26.276924
4.473341 -5.8309464 -28.542263
4.5019135 -5.8509135 -28.65097
4.5409985 -5.8237848 -29.690575
4.5326419 -5.8917851 -29.983715
4.5262551 -5.9146032 -30.012346
4.4373522 -5.659411 4.4976468
4.4309802 -5.6464095 4.3522739
4.5068336 -5.780499 1.0323331
4.5697498 -5.6119976 -2.2175002
4.5130939 -5.6439433 -5.5818357
4.4963579 -5.6749244 -5.6589475
4.4257922 -5.7038517 -12.493442
4.4343886 -5.734971 -13.711362
4.5059638 -5.6706409 -14.71093
4.5382361 -5.6690326 -14.823899
4.464787 -5.7741728 -15.951576
4.5165057 -5.7445202 -16.039637
4.4182496 -5.6684995 -24.99575
4.4811363 -5.7387486 -25.017065
4.5206127 -5.694407 -26.195452
4.5124903 -5.7022285 -26.2185
4.460238 -5.7098265 -28.516039
4.4309993 -5.6161418 -28.653
4.464725 -5.7145386 -29.675602
4.5002627 -5.7690864 -29.948591
4.4985943 -5.4799685 4.4890137
4.4620862 -5.4936428 4.3353896
4.4935393 -5.5035615 -2.2282302
4.4635563 -5.4256654 -4.48
4.4809761 -5.5281167 -5.5814781
4.4520292 -5.4663215 -5.6447945
4.4132862 -5.5389991 -12.546144
4.4739995 -5.5739989 -14.677
4.5218081 -5.5721889 -14.833904
4.4209995 -5.5989995 -25.047001
4.4592485 -5.5723743 -26.196877
4.483984 -5.5624523 -26.243204
4.4099989 -5.5919995 -28.532
4.4200578 -5.5762925 -29.671824
4.5272298 -5.4310756 -29.969542
4.4849873 -5.3130922 4.454648
4.4682407 -5.3265343 4.3442817
4.4384999 -5.3496656 -2.2793128
4.4070005 -5.3989992 -2.4110003
4.4222865 -5.3727136 -4.4748573
4.4219999 -5.3959985 -5.7140002
4.5369349 -5.3094459 -29.987255
4.508832 -5.315165 -30.008389
4.5556774 -5.110127 4.4286127
4.5301151 -5.0565543 4.3489547
4.5082965 -5.0450444 3.278091
4.5283332 -5.0856657 3.1830001
4.4513636 -5.0450897 2.2082727
4.4653182 -5.0805898 2.1422272
4.5250001 -5.0094995 -13.585
4.4883842 -5.0096922 -13.65077
4.5874987 -5.1884995 -29.992001
4.5820003 -4.8109989 5.4720001
4.5143433 -4.9164591 4.4179311
4.445507 -4.9267931 4.2951307
4.4776134 -4.9165459 3.2980402
4.4557781 -4.9736657 2.2074442
4.4420781 -4.9478459 2.1926923
4.4789996 -4.9899993 -13.573144
4.4455905 -4.9862719 -13.67391
4.5705137 -4.8384228 -25.457426
4.5709996 -4.8219986 -26.195
4.5397592 -4.9084077 -26.246145
4.579999 -4.9403324 -26.409668
4.5128007 -4.6472001 7.6532679
4.5880008 -4.6114993 6.6280003
4.5056682 -4.7618322 5.4678893
4.4470005 -4.7959991 4.4050002
4.4280005 -4.7926655 4.3040004
4.4723473 -4.7456541 -15.959963
4.5081649 -4.7154822 -16.11669
4.4579992 -4.7769985 -22.157
4.5724993 -4.7559986 -22.7425
4.5765986 -4.7869983 -25.429899
4.4225011 -4.443749 11.1285
4.5311193 -4.5013671 7.6213012
4.5760012 -4.4224987 7.5999999
4.5891681 -4.5336671 6.6169167
4.5905008 -4.4434981 6.5985003
4.4971809 -4.4318471 -5.7284489
4.4969192 -4.4426384 -5.8634772
4.4923334 -4.4431663 -11.940001
4.4141994 -4.5352979 -13.3697
4.4581771 -4.4869404 -13.43057
4.5989995 -4.5904984 -16.1605
4.4659019 -4.2821302 11.118097
4.4419055 -4.2593799 10.982048
4.5428119 -4.2937021 7.6372833
4.5844293 -4.3674273 7.5975714
4.4200006 -4.2209992 -1.5830002
4.4283333 -4.2303314 -1.6870003
4.5625005 -4.2319994 -2.5840003
4.5590005 -4.2359991 -2.6030002
4.414 -4.2849984 -3.2430003
4.4982014 -4.3249602 -5.703824
4.4260011 -4.0029984 21.609669
4.4130011 -4.0019989 21.577
4.4450793 -4.0323067 21.124386
4.5395398 -4.038537 20.86981
4.414001 -4.0009985 20.149
4.4741344 -4.0938659 19.013201
4.4994488 -4.0835791 18.912647
4.4764881 -4.0823889 11.099593
4.4370008 -4.0928559 10.973952
4.4974227 -4.0515299 8.6993475
4.5320697 -4.1567907 7.6172762
4.4900007 -4.1489987 7.5949998
4.4915276 -4.0628161 4.2681174
4.4881306 -4.094955 4.1534352
4.4466667 -4.0563331 3.4211109
4.4955201 -4.0455661 3.2860405
4.5609999 -4.0278482 3.1858501
4.5755005 -4.0534987 1.7959998
4.4080005 -4.1511989 -1.6242003
4.4020004 -4.1909986 -3.3130002
4.4253345 -3.8171663 22.258503
4.500175 -3.833782 22.047695
4.4832163 -3.8739526 21.895565
4.4997454 -3.9009304 21.700895
4.5185843 -3.8936393 21.567026
4.5460014 -3.9443331 21.229502
4.5202489 -3.8989918 21.146465
4.5796494 -3.9676466 20.89562
4.584475 -3.9872625 20.731947
4.5950007 -3.9989996 20.599001
4.4872751 -3.9147873 20.221092
4.5005436 -3.9068339 20.155239
4.5854559 -3.9898179 18.949863
4.5251355 -3.9144468 11.067054
4.5379171 -3.9075274 10.974111
4.4634295 -3.8891425 9.8523579
4.4477839 -3.8587387 9.747262
4.4460011 -3.9654994 8.8024998
4.462513 -3.9251997 8.7142839
4.4110007 -3.9979994 8.5880003
4.4498754 -3.8453491 7.4131737
4.5920005 -3.8459995 5.0219998
4.5515909 -3.8344095 4.948
4.5281129 -3.9467547 4.2804341
4.4223337 -3.8303332 4.1080008
4.4748578 -3.9517329 3.2374547
4.5701499 -3.9510992 3.1858749
4.5250006 -3.6259997 23.023335
4.4839249 -3.6607282 22.876987
4.467833 -3.6909342 22.730516
4.5631018 -3.6866996 22.4853
4.4945226 -3.6861753 22.300188
4.5568132 -3.7436867 22.089813
4.5727882 -3.7771513 21.897604
4.5802016 -3.7949996 21.759199
4.48842 -3.6982472 21.279873
4.5424643 -3.7288058 21.176584
4.4391079 -3.6835709 14.492178
4.4337506 -3.6452498 14.317751
4.4810014 -3.7060614 11.060593
4.5190005 -3.7699997 9.8323746
4.4671774 -3.7708814 9.7457056
4.4145007 -3.7809992 8.7130003
4.4202008 -3.7835991 7.4054003
4.4442315 -3.755384 7.373385
4.5497999 -3.758919 4.9246402
4.4245014 -3.4044993 24.219
4.4417009 -3.4152994 24.126898
4.581501 -3.4149992 23.676376
4.4645791 -3.4776917 23.437923
4.5014458 -3.4972773 23.347279
4.5730009 -3.5474999 23.048416
4.55374 -3.5724759 22.909975
4.557168 -3.5951657 22.777
4.5276017 -3.4303994 22.4116
4.5207505 -3.5028903 22.292835
4.4143338 -3.5809996 14.471667
4.414001 -3.5779989 14.328667
4.4652228 -3.4980829 12.172168
4.4822102 -3.2797458 24.458147
4.4952168 -3.3296824 24.311344
4.4859014 -3.3486993 24.171103
4.5806684 -3.3666658 23.862
4.5830011 -3.3959992 23.781
4.4942427 -3.2961199 23.429914
4.5145016 -3.3208203 23.391178
4.5861692 -3.3924997 22.340668
4.4214001 -3.2983994 13.2276
4.5656123 -3.3148887 13.091055
4.530087 -3.3811421 7.4727721
4.5506673 -3.3615546 7.3858891
4.5713344 -3.3699996 6.6923332
4.4506674 -3.0230002 24.629169
4.4896817 -3.082366 24.463392
4.5970011 -3.1889992 24.393999
4.5771446 -3.1901424 23.465002
4.4266376 -3.0791357 17.662683
4.5575576 -3.119 8.4335451
4.5187125 -3.1748862 8.3142576
4.4686675 -3.190666 8.184
4.5761347 -2.9227996 24.867737
4.5271716 -2.9257174 24.646469
4.5534372 -2.9731531 24.512232
4.4170008 -2.9589994 17.809
4.4100013 -2.9463332 17.744333
4.5424128 -2.8806465 15.284176
4.5387506 -2.8752491 9.9514999
4.5720015 -2.6914999 25.164001
4.5687504 -2.7772493 15.294001
4.4195013 -2.4479995 21.018
4.4110012 -2.4089997 20.990999
4.5760007 -2.5519993 11.707
4.427547 -2.2175448 25.838726
4.4812922 -2.269541 20.973608
4.4363184 -2.3585446 18.733297
4.4430017 -2.029124 26.038
4.4986529 -2.1050761 25.906879
4.4325242 -2.0874994 21.053686
4.5090671 -2.0968618 20.953199
4.4430008 -2.1029992 18.707001
4.5240684 -1.9656001 26.041265
4.5286679 -1.8860888 25.960463
4.5762005 -1.8125999 22.078402
4.5084448 -1.9124085 20.918047
4.4660015 -1.6289998 26.479797
4.5940008 -1.7259996 26.23
4.53689 -1.6993331 26.053001
4.5320015 -1.7457576 25.950243
4.4966316 -1.7181649 22.041878
4.4676676 -1.6503327 21.996
4.4555011 -1.7817494 20.912251
4.4516087 -1.4660714 26.668573
4.4832783 -1.5321665 26.561111
4.4917006 -1.5135999 23.233
4.4617252 -1.4832929 23.105949
4.435751 -1.5771247 22.016747
4.420001 -1.5979997 21.997
4.4170008 -1.2039998 27.006001
4.4320011 -1.2097998 26.9638
4.5274181 -1.3079997 26.701666
4.4541888 -1.3393748 23.064747
4.4216681 -1.0193326 27.209
4.451026 -1.0945249 27.087372
4.4710016 -1.152083 26.946251
4.5240011 -1.1123495 26.67375
4.4070015 -1.0464998 25.8475
4.5233765 -1.0022501 20.704876
4.4090014 -1.0773333 19.951334
4.4095016 -0.82199973 27.429501
4.4242959 -0.93811756 27.291117
4.460001 -0.99299973 27.198
4.5860014 -0.99499995 20.809
4.5046864 -0.92889982 20.667175
4.5640016 -0.80300003 19.525
4.5660009 -0.91199976 18.851
4.4333858 -0.62546152 27.638617
4.4826536 -0.66469532 27.542694
4.5596018 -0.71219987 21.827002
4.5018778 -0.72953063 21.681513
4.4582906 -0.68566638 21.568199
4.5056744 -0.72299951 20.681261
4.5660009 -0.65499991 20.125999
4.5670013 -0.78933328 19.520584
4.4378014 -0.47269991 27.815403
4.4912601 -0.49444631 27.71615
4.5623908 -0.57561117 27.566669
4.4720011 -0.45466629 23.247501
4.4832201 -0.45014516 23.102312
4.4440012 -0.58949977 21.566
4.4716353 -0.3541334 27.686636
4.4562511 -0.35562494 23.076593
4.581501 -0.36950007 21.8745
4.5930009 -0.27049986 10.488
4.4937611 -0.027760023 27.904839
4.567585 -0.05033325 27.723167
4.5782514 -0.077500083 27.589001
4.550365 -0.053909052 23.486181
4.4348021 0.11899994 28.0128
4.5085402 0.060730685 27.955919
4.5990014 0.0020000928 27.771
4.4885898 0.14079399 27.437178
4.4860854 0.18766661 27.3895
4.4929061 0.30714288 27.887333
4.483644 0.32600012 27.446573
4.4534135 0.25285283 27.368204
4.4266677 0.46433309 28.087334
4.4060016 0.79300004 28.212999
4.5606265 0.75837523 28.141874
4.5760016 0.78599972 19.375
4.4680791 0.92271775 28.235312
4.5394683 0.86806625 28.177736
4.5560017 0.89924997 19.459999
4.5610008 0.89699954 19.379
4.4916272 1.1448747 28.31575
4.444036 1.1004997 28.096432
4.564002 1.1980001 27.891001
4.485002 1.2106662 28.135336
4.5866685 1.2210001 27.894333
4.4288344 1.3425552 25.447777
4.4181442 1.2444284 25.379429
4.4020014 1.3929999 20.552
4.4556003 1.3139995 3.6212001
4.5820003 1.3529999 0.42199978
4.5687504 1.3455001 0.35337478
4.5876689 1.4846661 28.372335
4.4352512 1.43575 20.532499
4.5601668 1.5746661 7.0463333
4.5565 1.5594997 6.9415002
4.5950003 1.5309995 6.7729998
4.5843339 1.4743329 5.5650001
4.4971666 1.4279996 3.6526666
4.4310002 1.4489995 3.5999997
4.4311261 1.6972497 26.091623
4.5630012 1.7658001 7.9150667
4.5474553 1.7015452 7.6675453
4.5597653 1.6768236 7.5124121
4.5574007 1.6366994 7.2960496
4.5692744 1.6446359 7.1322732
4.5720005 1.5999995 6.8990002
4.5224004 1.9851999 9.3412008
4.5618892 1.9147773 8.6822224
4.5742736 1.8855454 8.4914551
4.587501 1.8629997 8.3649998
4.5610003 1.8059999 7.9910002
4.5001512 1.9317527 7.0215487
4.4272008 1.9172995 6.9446001
4.4393339 2.178 23.811333
4.4390011 2.1723566 23.770433
4.5842233 2.1339996 10.053334
4.5513339 2.1046994 9.9032345
4.5488467 2.0655375 9.7031536
4.5520878 2.0328257 9.5044346
4.5510001 2.0124996 9.3759995
4.4986625 2.0532043 7.0076165
4.509315 2.1309083 6.9651513
4.469502 2.2049997 23.813999
4.5347795 2.2604437 23.765444
4.5320916 2.3870902 11.448123
4.5436573 2.363802 11.300503
4.548841 2.3342273 11.12593
4.5745006 2.2914994 10.82
4.5521774 2.2755287 10.743825
4.4215007 2.2217491 10.32475
4.5056319 2.2968743 6.9317551
4.48525 2.3597496 6.7749996
4.598 2.3429992 3.8719997
4.5540557 2.3701661 2.455333
4.5650001 2.3629997 1.3441818
4.4423347 2.586333 28.810333
4.5141449 2.5414996 28.75993
4.4923344 2.5806663 12.410002
4.527945 2.5561383 12.285057
4.5320005 2.5347998 12.178
4.5263267 2.4752247 11.8883
4.5395112 2.4401166 11.700824
4.5427451 2.4124868 11.526692
4.5866675 2.4989994 10.279667
4.5033345 2.4957674 6.9108205
4.4658465 2.5271533 6.7775393
4.4973059 2.5066628 2.4726276
4.5001669 2.4877355 1.506569
4.4968824 2.4795876 1.3529261
4.4810009 2.7181714 28.840141
4.5658908 2.6549995 28.776558
4.468668 2.7709997 26.157001
4.4536672 2.7896659 13.563334
4.530067 2.6579998 12.842668
4.5334868 2.6349137 12.722313
4.4870005 2.602999 12.578
4.4967809 2.6989377 6.8894067
4.4580007 2.7050791 6.76408
4.5338006 2.7744658 5.7308002
4.5949993 2.6379993 5.348
4.5970001 2.6019995 5.138
4.4050007 2.6061423 2.5031426
4.5395851 2.8409994 28.858837
4.465353 2.865941 26.26053
4.4500017 2.8219995 26.183332
4.5022092 2.8954995 13.615169
4.4951906 2.9136662 13.508048
4.4913144 2.8995798 6.8699017
4.4463716 2.9031708 6.7603421
4.5960007 2.8469994 6.4216666
4.4892507 2.8879993 5.8050003
4.4710412 2.9072464 5.7663102
4.523252 3.1201248 28.705439
4.526525 3.1478567 20.462236
4.4893031 3.1699233 20.336245
4.473001 3.0109994 13.603
4.4571819 3.089854 13.445564
4.4750004 3.1879995 13.398
4.5477662 3.1698587 7.9333129
4.5340009 3.1969991 7.7989998
4.4992518 3.0965657 6.8516941
4.444767 3.1049998 6.7501483
4.4227657 3.0161173 5.7285295
4.4410944 3.1670945 -6.2301435
4.4130001 3.1559999 -10.347
4.4356666 3.1589997 -10.443667
4.5769997 3.1299992 -15.375668
4.5401921 3.1526535 -15.454657
4.4367776 3.0558326 -16.16128
4.4247999 3.0551989 -16.222
4.4499168 3.125416 -16.977499
4.5034885 3.134536 -17.110806
4.5736189 3.160476 -17.214287
4.4229994 3.0684993 -19.650501
4.529573 3.3661423 28.880432
4.5271678 3.2815831 28.742918
4.485034 3.3828659 21.833136
4.4726801 3.3656595 21.749624
4.497581 3.3033676 20.32666
4.4873481 3.3008373 13.510163
4.5377593 3.3344846 9.028698
4.4646072 3.3643329 8.9353333
4.5570006 3.2549994 8.0030003
4.4912124 3.2923424 7.9614949
4.4946647 3.2977755 6.8308396
4.4347973 3.3081861 6.7353053
4.5800009 3.3599997 1.1605713
4.4806848 3.3384211 0.29342082
4.4595423 3.316242 -6.300982
4.4934154 3.3279812 -6.4538794
4.546278 3.2429438 -15.461722
4.5369625 3.2397773 -17.180889
4.576642 3.2497857 -17.215216
4.5357518 3.4699993 28.926748
4.4706888 3.5836246 23.041937
4.4749503 3.5738733 22.897562
4.476294 3.5407412 22.700611
4.4760246 3.5038085 22.500364
4.4683404 3.4759429 22.339264
4.5146675 3.4071655 21.847668
4.4826012 3.5009778 20.285288
4.4530673 3.5808666 17.103468
4.4726372 3.5903854 16.883162
4.4663091 3.5794611 16.756924
4.5067906 3.4999213 13.52421
4.4598699 3.4533043 9.0152178
4.4152226 3.4098876 8.877223
4.4380002 3.4275591 7.9367595
4.4771652 3.4858348 6.8117886
4.4488158 3.5128915 6.73943
4.4505 3.5384991 4.2135
4.4972005 3.4786999 3.5158
4.5772505 3.4267499 1.1722498
4.5642853 3.5911427 -26.305859
4.4510016 3.7679994 28.688999
4.468924 3.7013838 23.621002
4.4724722 3.6880581 23.540882
4.5127158 3.6849992 23.326574
4.4861946 3.616596 23.102627
4.4783344 3.6013329 22.988998
4.4823346 3.664428 20.243382
4.4460011 3.7959993 19.781
4.4735842 3.7914159 19.277252
4.5172701 3.7817307 19.101887
4.487093 3.7761271 18.890598
4.488143 3.760622 18.701262
4.4868212 3.7398524 18.503174
4.4876366 3.721139 18.302601
4.4916635 3.6979916 18.103674
4.4943342 3.6818912 17.927269
4.4410019 3.6569998 17.796
4.4917874 3.6480348 17.494221
4.4917183 3.6346188 17.302629
4.4976368 3.6207912 17.099291
4.5028687 3.644315 16.899212
4.5513344 3.6884992 16.712667
4.5039401 3.7039392 13.492302
4.550796 3.7242055 11.226001
4.418334 3.6079991 8.9250011
4.462667 3.6601665 6.8028331
4.4577603 3.7014105 6.7512569
4.4910007 3.7974999 5.6724997
4.5894704 3.7862937 4.8745885
4.5902667 3.7570665 4.7268662
4.5938005 3.6511996 4.1304002
4.5187044 3.6755469 -26.295361
4.5572028 3.9061003 28.630899
4.579752 3.8807499 28.591499
4.4753065 3.8966665 20.064453
4.4875226 3.8881752 19.900494
4.488965 3.861378 19.70056
4.486259 3.8390901 19.495674
4.4928913 3.8199165 19.316902
4.5610008 3.8010001 19.177
4.5000396 3.8644116 18.858883
4.4815154 3.8689182 16.821623
4.5342488 3.9024928 16.691702
4.5022011 3.8986247 13.468651
4.5400004 3.9399998 12.202
4.5508337 3.9601665 12.18425
4.5059247 3.8585002 11.237537
4.4865007 3.8754995 11.198999
4.4506025 3.8662395 6.7347274
4.5149837 3.9534256 6.5164094
4.4821877 3.9143534 5.8573966
4.4808974 3.8766205 5.7206206
4.5872865 3.9105709 5.4680004
4.5855999 3.8772995 5.3037
4.5876217 3.8326895 5.087862
4.5881 3.810199 4.9417
4.5285001 3.9150002 -11.875999
4.5658331 3.8080003 -26.287001
4.5725479 4.1299982 28.816818
4.5785012 4.0572491 28.721001
4.5089102 4.11938 26.96096
4.5086684 4.1290989 19.966068
4.4217792 4.0634437 18.85322
4.5622234 4.0253315 16.621777
4.5520015 4.1909986 16.577999
4.4960871 4.0974846 13.436257
4.5109587 4.0740857 12.173372
4.4884667 4.1657524 7.6512742
4.4807811 4.1534519 7.5373588
4.4979253 4.1114988 6.7182689
4.5046358 4.066874 6.5022225
4.5788951 4.0714197 6.3231058
4.577251 4.0129986 6.0405002
4.5727506 4.0062494 5.9754996
4.5060005 4.1709986 -2.1110003
4.3999996 4.1689982 -26.309
4.5905013 4.2104988 26.952
4.473001 4.3109984 23.287001
4.4800792 4.3240118 20.082134
4.4807801 4.2631931 19.959026
4.554287 4.3104277 16.556286
4.5682507 4.3344989 14.388334
4.4733796 4.2605162 13.419966
4.4616671 4.3623319 13.393333
4.4629292 4.3914275 9.0237865
4.517395 4.3813701 8.919816
4.4826837 4.249609 7.6579518
4.5042677 4.2467098 7.510067
4.4917431 4.2885447 6.699213
4.5440011 4.2059984 6.5900002
4.4302506 4.3802485 4.6329999
4.5370007 4.2659988 -2.0820003
4.4155993 4.2737989 -26.2978
4.5204988 4.3669987 -29.797501
4.5427699 4.3619413 -29.822544
4.426002 4.5729985 28.794001
4.5155015 4.5554986 23.4195
4.5110006 4.552999 23.391001
4.4790015 4.4014988 20.120001
4.5560012 4.4269986 16.534
4.5637507 4.4274983 14.39175
4.4501433 4.498713 13.382001
4.4471011 4.5291505 10.015677
4.4954848 4.4697981 9.8983812
4.5315647 4.4978161 9.7875261
4.4584703 4.4534883 9.0325089
4.4859223 4.4660397 8.8953161
4.4792385 4.5282836 6.6724629
4.4245009 4.5484986 6.5742502
4.4206672 4.5956655 5.573667
4.4338894 4.4669986 4.6297784
4.4751768 4.5363922 -29.790182
4.5209713 4.4786339 -29.823309
4.504612 4.7486091 28.537605
4.5203342 4.7806659 23.347334
4.4543343 4.652 13.426333
4.4460011 4.6049986 13.391
4.4924102 4.7573919 10.898246
4.4740005 4.7532139 10.745501
4.4269176 4.6324992 10.005249
4.4840117 4.6831508 9.9185467
4.5543208 4.6523986 9.7797194
4.473465 4.6990471 6.6554384
4.4168906 4.7059989 6.5715008
4.5250006 4.7429986 5.6009998
4.4923 4.7036333 5.5552688
4.5489988 4.7959991 -26.177999
4.5464988 4.6662993 -29.781
4.570785 4.6217842 -29.815145
4.5064807 4.9091234 28.705936
4.5350518 4.8305483 28.539051
4.4322238 4.8553324 23.288223
4.4326682 4.9639988 17.634335
4.5500011 4.8407493 16.45525
4.4882512 4.8262491 13.344751
4.4599004 4.9890985 12.2657
4.5140834 4.977499 12.113208
4.5037274 4.8609996 10.902982
4.4823518 4.8409443 10.753296
4.4530005 4.9689984 7.7880001
4.471643 4.8995094 6.6385493
4.4090695 4.9054117 6.5637584
4.5142231 4.8316426 5.5208669
4.5024481 5.1043911 28.690182
4.556601 5.1790991 18.842199
4.5077238 5.1260543 18.760557
4.4810019 5.1158137 17.695694
4.5400014 5.1363325 16.388668
4.4884291 5.110189 13.218573
4.4967484 5.1008501 13.11399
4.4560919 5.0754533 12.26491
4.4906673 5.070385 12.093424
4.5023012 5.1116385 7.7727075
4.4725218 5.0683599 6.6236286
4.4072504 5.0543327 6.5601668
4.4364285 5.143713 -6.3570004
4.4452491 5.1329994 -6.4524999
4.4505844 5.1477227 -29.778242
4.5016689 5.2894115 28.662804
4.4623013 5.2317986 18.844299
4.4490848 5.2259154 18.765085
4.5279999 5.3409986 14.204
4.4948759 5.327436 14.085251
4.4377503 5.3517489 13.984499
4.499126 5.2328739 13.029249
4.4864173 5.3105817 8.8326654
4.5840011 5.2974992 8.7865
4.5588903 5.2259436 7.7636662
4.4483342 5.3536663 6.6049995
4.4698343 5.3283319 6.5869999
4.4879999 5.3969989 3.4814999
4.4908581 5.3968558 3.2934287
4.5605001 5.3959985 3.03
4.546401 5.393898 2.9039998
4.5569291 5.3855 2.6886425
4.5419474 5.377511 2.5025129
4.5435843 5.3703604 2.3025827
4.5277505 5.3569984 2.1774998
4.5551362 5.3424535 1.6912267
4.5569601 5.3262386 1.2833997
4.5516005 5.3286982 1.1483997
4.5630913 5.3172731 0.82845438
4.5289998 5.3389993 0.78499985
4.5717502 5.3457484 0.23749982
4.5040808 5.3241992 0.086479805
4.5146666 5.3169985 -0.0470002
4.5920005 5.316999 -0.67140019
4.5695004 5.3097482 -1.1215003
4.5760002 5.2967486 -1.2865002
4.5775008 5.2994986 -1.4180002
4.4265008 5.2684994 -6.34025
4.4958739 5.3001285 -29.773409
4.490499 5.3544989 -29.804836
4.5225573 5.5208879 28.479776
4.5313449 5.5548568 28.35317
4.4847112 5.5336051 20.95195
4.5285006 5.5454988 16.3375
4.5104008 5.4459987 14.087
4.4406676 5.4299994 13.979
4.4220009 5.5739989 13.246
4.5572286 5.4841352 8.812273
4.5527506 5.5092487 8.7960005
4.4400015 5.4579992 6.6009998
4.4653339 5.5048571 6.558691
4.4050007 5.5649986 6.3759999
4.4333344 5.5468326 6.0386667
4.4456673 5.5485544 5.9731107
4.4200001 5.5569987 5.5500002
4.5124998 5.5129991 5.2325001
4.505847 5.5133061 5.0688467
4.489572 5.5009999 4.9128928
4.5240002 5.4862485 4.7554998
4.4641247 5.4677486 4.2907505
4.4874444 5.4745541 4.0992227
4.4881973 5.4403372 3.8844297
4.4803343 5.4308653 3.7157674
4.4832115 5.4124203 3.5096309
4.4919095 5.4055448 3.3455455
4.5375261 5.410893 3.0531576
4.5340009 5.4053845 2.941
4.4910002 5.4139986 2.6229997
4.5240002 5.4236655 0.12966648
4.474 5.5179987 -0.045500193
4.5058608 5.4995213 -29.765921
4.4137511 5.7604985 28.61025
4.4571691 5.7459984 28.519835
4.5074935 5.6755991 28.361271
4.5048194 5.6656904 22.06683
4.491394 5.7339244 21.984531
4.4060011 5.7829986 21.051001
4.4289193 5.6359997 20.933167
4.5310011 5.6309986 16.450001
4.5148187 5.6973629 16.300636
4.4784412 5.6906161 13.235706
4.4639864 5.7102962 11.093855
4.489563 5.7411246 10.982312
4.4659748 5.7015672 6.5513787
4.5020046 5.7032223 -29.73839
4.4123349 5.8323321 28.609001
4.5060978 5.9184327 28.56019
4.493001 5.8669224 22.065575
4.4566646 5.8484292 21.972467
4.5080004 5.8039985 16.294001
4.4726005 5.8237987 13.220401
4.4843335 5.9929986 12.082667
4.470366 5.8895335 11.092577
4.5049238 5.8449998 10.989154
4.4573035 5.9031615 6.5433264
4.4867921 5.8964167 -29.726368
4.5296912 6.0996537 28.524845
4.5258512 6.1371469 19.662851
4.4495449 6.1427598 19.560783
4.4270015 6.0732479 18.811127
4.4370008 6.0977654 18.675131
4.4893222 6.1553988 18.57884
4.5110002 6.0119987 12.08
4.4844761 6.1009488 11.0669
4.4687505 6.1059527 6.5256371
4.5207438 6.0410404 -29.740324
4.5025029 6.2717996 28.503723
4.4958348 6.35286 28.306747
4.4170008 6.2044992 19.824501
4.441102 6.2807999 19.5364
4.4471011 6.2057996 18.6947
4.5400009 6.395998 14.128
4.4450846 6.2916651 11.053917
4.5093803 6.2771549 6.5121236
4.5179992 6.290998 -29.788
4.5279989 6.3939991 -29.806
4.5012302 6.5485706 28.454285
4.5093737 6.4620457 28.312609
4.5705018 6.4729986 20.807999
4.5162473 6.462544 20.676514
4.4543424 6.4808769 20.566412
4.5606675 6.4339986 14.150333
4.4581861 6.511035 13.128038
4.4474053 6.5420246 11.025478
4.5140004 6.5949988 10.998
4.5660005 6.4152484 6.5004997
4.4886651 6.500999 -29.738003
4.5269985 6.4739981 -29.801001
4.5073576 6.7036328 28.4408
4.5740018 6.7539997 28.397335
4.5630016 6.7989988 23.002001
4.5163927 6.7865195 22.896912
4.4225006 6.7024989 22.056
4.4341679 6.7285824 21.860167
4.4080009 6.785748 17.497999
4.4563041 6.6968184 13.102544
4.4385505 6.6900649 11.016151
4.4601312 6.7297807 10.991825
4.4193339 6.726666 9.7160006
4.4654989 6.6244993 -29.7015
4.4947281 6.8712707 28.42123
4.5478249 6.9128523 28.382294
4.5466681 6.9873323 26.540665
4.5362873 6.8172855 23.039431
4.4855919 6.8540001 22.839909
4.4065013 6.8409982 22.0515
4.4140015 6.8184285 21.913002
4.4240007 6.9299984 18.608999
4.469017 6.937242 18.515034
4.4372878 6.8061428 17.522573
4.4426332 6.8779454 13.082475
4.4300003 6.8811569 11.012422
4.441977 6.9569669 10.900601
4.4515491 6.9504676 10.702892
4.4514003 6.9278226 10.500943
4.451046 6.9073787 10.290911
4.4584775 6.8941026 10.117852
4.4526076 6.8740339 9.9158926
4.5360007 6.9889984 9.658
4.5656009 6.9727988 8.4210005
4.5689998 6.9939985 8.3649998
4.4923353 7.0259991 28.405666
4.5123906 7.0448718 28.291332
4.5117273 7.1294174 28.161598
4.4887066 7.0770564 26.665648
4.5005703 7.1178455 26.507586
4.4990616 7.1377254 23.858866
4.4154181 7.1389151 23.792501
4.5202231 7.0579429 18.434498
4.493001 7.0467491 16.147001
4.4480009 7.1909986 12.500999
4.4020009 7.1509991 12.212
4.4454865 7.1489124 12.096997
4.4538341 7.1277208 11.947945
4.4442596 7.0645919 11.477592
4.4476385 7.0407495 11.297636
4.4560318 7.016151 11.103938
4.4740009 7.0009995 10.932
4.4140005 7.0189986 10.757
4.5540009 7.0059991 10.582
4.5660019 7.0648489 9.6599493
4.5626006 7.0754647 9.4984016
4.5599561 7.0561824 9.2992725
4.5550008 7.0428171 9.1481819
4.4232011 7.0315995 8.6578007
4.4298015 7.1007586 6.4300799
4.5166903 7.3419476 28.255697
4.5194616 7.2436204 28.135241
4.4980016 7.2168837 26.636423
4.5043859 7.2124381 26.530704
4.475605 7.3479385 25.043058
4.5266681 7.3535995 24.991335
4.5512519 7.2176242 24.021376
4.5215769 7.2078495 23.947151
4.423501 7.3814993 20.812
4.4190016 7.3841991 20.749401
4.4593639 7.2403617 12.826092
4.4421148 7.2385135 12.697372
4.4455247 7.2174263 12.536906
4.4274683 7.2777328 6.4116678
4.4295001 7.3684998 6.3972502
4.453052 7.4350495 28.227049
4.5075502 7.5155616 28.136736
4.4518352 7.4128327 25.216335
4.4796686 7.4068465 25.144518
4.4760017 7.4189992 20.817501
4.4133348 7.4889989 20.696001
4.4309998 7.4399996 6.3930001
4.495481 7.6439772 28.042631
4.526958 7.7066946 27.935175
4.5046268 7.7175112 27.648916
4.5737796 7.7806659 27.589001
4.479002 7.6609993 21.8055
4.4806066 7.7018614 21.697443
4.5880008 7.7914982 7.4949999
4.478312 7.909421 27.829403
4.5065022 7.8849874 27.715446
4.5610013 7.8179989 27.591803
4.4630008 7.8069987 21.672333
4.5530009 7.9737992 8.420001
4.5510001 7.9499984 8.3970003
4.4500012 7.9496055 7.8950005
4.4522586 7.9457078 7.7188706
4.52702 7.8558583 7.5242395
4.4373755 7.947166 7.2475834
4.4590011 7.9269986 7.1799998
4.4238348 7.9656668 6.3340006
4.4962058 8.0981226 27.678844
4.5768008 8.184598 27.585402
4.5812511 8.0299969 8.4230003
4.4301353 8.0962496 7.8921366
4.4337449 8.0789976 7.7043257
4.4349008 8.0762482 7.5652003
4.4665008 8.0134974 7.2740002
4.4316673 8.0454979 6.3175001
4.4285727 8.2172842 27.616573
4.4863048 8.2915335 27.539469
4.4834099 8.329999 27.244316
4.479722 8.3596478 27.152653
4.4580016 8.3419151 19.459667
4.4426265 8.3601217 19.384249
4.4675007 8.3979969 18.418499
4.457293 8.3812056 18.327831
4.4637508 8.3414984 18.1875
4.4502974 8.3199463 17.864979
4.4444809 8.3002243 17.74128
4.4160013 8.2079973 7.938333
4.4573674 8.2791986 7.5024004
4.4170008 8.3559971 6.2940001
4.4735408 8.4146128 27.445076
4.4629879 8.4963417 27.113955
4.5610013 8.4374428 19.450888
4.5232615 8.5178308 19.329576
4.441844 8.5335445 19.099312
4.4464388 8.498332 18.901175
4.4520006 8.4593782 18.69816
4.4488549 8.4305773 18.49362
4.4375672 8.4129114 18.362957
4.4232507 8.5009966 6.2702498
4.4498787 8.6760845 27.240389
4.5227427 8.7586422 27.168707
4.4400015 8.7896643 20.309334
4.4264011 8.6787977 19.8304
4.434001 8.6676645 19.768667
4.5716372 8.6479063 19.34791
4.4890676 8.7392635 6.2454667
4.5135007 8.7089968 6.18325
4.5126724 8.8773232 27.090736
4.5238347 8.9593325 26.922499
4.5277834 8.95152 26.77883
4.4190006 8.984498 21.5375
4.4240007 8.9824991 21.256874
4.4180918 8.9621801 21.149637
4.4368587 8.8571415 20.649429
4.4302511 8.8317471 20.489752
4.442668 8.807497 20.360334
4.4537797 8.874999 6.2461114
4.4817867 9.1172485 26.867359
4.4746885 9.0433722 26.765312
4.4917159 9.1459494 22.532238
4.4264011 9.1657982 22.346401
4.4276686 9.0675545 21.725443
4.426064 9.0202465 21.488813
4.4372511 9.008997 21.353249
4.4593639 9.25418 26.825274
4.498312 9.3357887 26.753996
4.4976416 9.3260555 24.829426
4.5126677 9.2800531 22.509722
4.4784293 9.3658543 9.4527149
4.530858 9.3594284 9.3852863
4.4343348 9.4206648 26.717916
4.5526028 9.5852652 26.292469
4.4832096 9.4277649 24.866163
4.4935017 9.480998 22.483665
4.4350009 9.4176645 9.444334
4.4906678 9.4965296 9.3721342
4.4996371 9.7070532 26.238157
4.5361967 9.6992149 26.184608
4.443501 9.6274977 9.3670006
4.498466 9.9009924 26.318876
4.5870013 9.9869986 25.900999
4.5730014 9.994998 12.549
4.4696732 10.03823 26.246981
4.4323759 10.139497 26.186499
4.5011034 10.111042 25.858501
4.5820007 10.194997 25.799
4.5740013 10.190998 22.375999
4.5490003 10.086997 12.572
4.5780005 10.182748 7.1396251
4.4960403 10.308875 25.875044
4.5500679 10.243598 25.795135
4.5283351 10.295331 22.360668
4.5960002 10.203998 7.1960001
4.4731674 10.423426 25.848455
4.4990916 10.495724 25.700043
4.4805765 10.573632 25.563938
4.4850011 10.406998 22.348
4.4633627 10.57927 3.629636
4.4452906 10.556325 3.5009811
4.4474287 10.528379 3.3359523
4.5144706 10.537938 2.7705884
4.5164995 10.586997 1.4372498
4.5353336 10.591998 1.3546665
4.4674997 10.586497 0.54499984
4.4317284 10.63521 25.479364
4.4795732 10.691283 25.366285
4.5015116 10.715197 24.889071
4.4352503 10.784997 4.8652506
4.4519997 10.716998 4.5100002
4.5356498 10.758299 3.6307492
4.4401827 10.753819 3.5743635
4.4795265 10.71226 2.8178945
4.4417005 10.772098 2.7742
4.4099998 10.708997 1.7519997
4.4692507 10.71708 0.50616652
4.4972067 10.905602 24.879696
4.5688009 10.987998 24.7938
4.4030008 10.856997 19.025
4.5799174 10.879996 10.226917
4.5801778 10.863351 10.147
4.4567151 10.969965 5.8642006
4.4335556 10.931554 5.7632227
4.4391546 10.823075 5.0714612
4.5166855 10.913368 4.8978949
4.5626669 10.933331 4.7683334
4.5452099 10.849925 3.6636276
4.4530621 10.826997 3.578125
4.4440002 10.799998 2.8059998
4.4160004 10.803998 2.7909999
4.4463339 10.833997 -0.53333354
4.4275007 11.008164 24.813665
4.4665823 11.051587 24.716436
4.4168577 11.138999 24.57943
4.4340019 11.191998 7.2925
4.4704003 11.084875 5.8329997
4.4636264 11.172997 5.7985001
4.5669994 11.059999 4.9229999
4.552434 11.289897 24.261505
4.4818716 11.361192 24.159935
4.4210014 11.348664 8.2446671
4.4345012 11.323497 8.1450005
4.4150004 11.247497 7.6149998
4.4120002 11.226248 7.5264997
4.4172006 11.209198 7.3518
4.5818748 11.382874 7.0488749
4.4913383 11.344253 5.9059029
4.4641356 11.274305 5.7873077
4.5798755 11.453749 7.0326252
4.5819998 11.492997 7
4.4989176 11.435462 6.0693846
4.4937282 11.408544 5.982728
4.4270015 11.736428 10.333571
4.5675006 11.621498 7.8990002
4.4085002 11.860499 10.2115
4.4151006 11.916997 10.101501
4.4030013 11.960998 9.9960003
4.4019995 11.987998 1.4979998
4.4143329 11.949998 0.45699984
4.5692277 11.963588 -9.9530001
4.5586667 11.95608 -10.041751
4.5735564 12.177329 5.8558888
4.5826683 12.182666 5.7976675
4.4089994 12.011997 1.5189998
4.5413451 12.030922 -9.9423084
4.5084996 12.017999 -10.032501
4.4188323 12.172832 -12.153502
4.4193339 12.180998 -12.275333
4.5798001 12.157197 -14.196199
4.5747495 12.156497 -14.205001
4.5389495 12.131996 -15.234099
4.4306655 12.086999 -18.444336
4.4970016 12.349397 22.028999
4.4902511 12.296468 5.8579993
4.5085778 12.319877 5.7725425
4.5710011 12.32157 3.653286
4.5233407 12.334626 3.540849
4.4669995 12.247664 -11.113667
4.4219999 12.206497 -12.169
4.4590001 12.213496 -12.264
4.5885 12.293998 -14.195
4.5840001 12.312371 -14.2195
4.5531597 12.259677 -15.240319
4.5236669 12.437665 22.011
4.5695014 12.531247 5.823
4.4750891 12.508337 5.7576952
4.5690002 12.454461 3.6350358
4.5458164 12.428523 3.5530765
4.4130001 12.414497 -9.9635
4.4438963 12.467003 -19.544518
4.4623594 12.503697 -19.642275
4.4790001 12.758574 18.027323
4.4970002 12.788999 6.9303336
4.5179486 12.641516 5.7599473
4.4461803 12.670878 -19.65209
4.5039506 12.731174 -25.877766
4.568336 12.950665 22.32
4.4020004 12.804997 18.023001
4.4000025 12.991998 17.625999
4.4309993 12.981219 7.9783335
4.4975734 12.882242 6.9189992
4.4642954 12.866156 -25.856556
4.4829988 12.865332 -26.002666
4.450501 13.0685 22.406
4.4981294 13.045899 22.328836
4.4320011 13.151998 17.806999
4.4020014 13.159997 17.794001
4.5830007 13.122996 9.0830002
4.4997029 13.127913 8.9394894
4.4646735 13.101764 7.9459839
4.5840015 13.003498 6.8855
4.4472389 13.04438 -25.822191
4.4868088 13.361651 22.268425
4.5029545 13.356 19.650545
4.4065018 13.369498 19.598
4.541286 13.275426 9.0270004
4.5454454 13.252035 8.9506664
4.4743538 13.450837 22.227785
4.4544024 13.506398 22.195997
4.4850006 13.459331 20.818335
4.5116343 13.542092 20.752892
4.546401 13.457198 19.824137
4.4931078 13.432666 19.712418
4.5836678 13.556996 18.621334
4.5620017 13.552999 18.596001
4.438251 13.557849 11.1712
4.5637145 13.545281 10.082715
4.5360017 13.614552 20.8578
4.5570011 13.604597 20.784
4.4530005 13.770497 13.267
4.4180002 13.754998 13.194
4.5100017 13.790998 12.255
4.5171127 13.629997 11.153667
4.5908017 13.981597 18.583801
4.4920001 13.826665 13.175501
4.5534081 13.865109 12.23963
4.5248113 13.954705 -30.053978
4.5820012 14.017497 18.577999
4.5213184 14.034772 -30.03059
4.421001 14.913692 19.521307
4.4430013 15.187498 21.559502
4.4418411 15.151917 20.646959
4.4145722 15.18257 20.589714
4.5002828 15.319459 21.543804
4.4954896 15.337152 20.648975
4.4970007 15.300368 20.582586
4.5142479 15.496205 21.51844
4.5642729 15.42168 20.662409
4.5720024 15.413712 20.588285
4.548645 15.63964 21.501499
4.48 15.978221 21.45789
4.5175719 16.101477 21.446596
4.6409221 -8.0429974 -29.991076
4.6578326 -7.9232497 -29.992416
4.7251105 -7.8995757 -30.011288
4.6194749 -7.6879525 -29.97781
4.7059989 -7.7969985 -30.003
4.6136236 -7.5270004 -29.970375
4.6186652 -7.2346649 -26.249664
4.619 -7.0180001 -19.424
4.6110001 -7.0663328 -22.725668
4.6234999 -7.0149999 -26.194
4.646523 -7.0701251 -26.222099
4.7056661 -7.008666 -29.974335
4.6084995 -6.8454986 -15.9945
4.6170001 -6.8079991 -16.007
4.6491137 -6.8679605 -19.435694
4.6451311 -6.8639989 -22.73868
4.6179991 -6.8149986 -22.801001
4.6731992 -6.9113994 -26.197401
4.6682615 -6.8900995 -26.221945
4.6090002 -6.8699985 -26.415001
4.6845145 -6.8835301 -29.973713
4.7142482 -6.9285817 -30.013332
4.6223321 -6.8723316 -37.529999
4.6633334 -6.649333 -5.5216665
4.6176362 -6.6883631 -9.123456
4.7340002 -6.6144986 -12.536
4.6304994 -6.688374 -15.929874
4.6396976 -6.6829762 -16.008766
4.6268139 -6.6304803 -19.300186
4.6755733 -6.6818404 -19.436737
4.6405001 -6.7674823 -22.756721
4.6401 -6.7585983 -22.806303
4.6881185 -6.7076969 -26.271675
4.726799 -6.6829987 -26.4072
4.6795287 -6.6930461 -29.982254
4.6844988 -6.7555604 -30.009188
4.6582494 -6.5832486 -5.5287499
4.621727 -6.4416356 -5.6879096
4.7663336 -6.46838 -8.983428
4.6239047 -6.4961419 -9.0811911
4.7592101 -6.488162 -12.528955
4.6342478 -6.5347199 -15.908694
4.6540627 -6.5654988 -16.010689
4.6635518 -6.5295992 -19.338177
4.6905665 -6.5397258 -19.42687
4.7719631 -6.5599065 -26.292217
4.7719998 -6.5774984 -26.402
4.66996 -6.5187378 -29.985676
4.7222657 -6.4557338 -30.010834
4.6479993 -6.2644153 -2.163167
4.6409998 -6.3269992 -2.3020003
4.6804996 -6.363811 -5.675313
4.7704992 -6.335999 -8.9936657
4.7770658 -6.2775984 -9.0117998
4.773643 -6.3484631 -12.51518
4.6773558 -6.307445 -29.985142
4.7154984 -6.2610717 -30.004076
4.6690578 -6.0859647 -2.1738141
4.6325011 -6.0474992 -2.3717501
4.7984996 -6.164999 -5.7080002
4.7920003 -6.1959996 -8.9989996
4.7939997 -6.1899991 -9.0369997
4.6628489 -6.1115494 -29.980503
4.7078748 -6.0782504 -30.017797
4.7053952 -5.9321165 -2.1899869
4.6575818 -5.8891292 -2.2693057
4.7758231 -5.8368225 -9.0294714
4.7485805 -5.8690643 -12.52597
4.7466044 -5.8280177 -14.745358
4.7309995 -5.8122983 -14.8119
4.700253 -5.8945584 -15.94896
4.7017064 -5.8593669 -16.035151
4.664999 -5.8089986 -24.996
4.7028685 -5.9103999 -25.063076
4.7171421 -5.9265709 -25.214001
4.6622496 -5.8284993 -26.195251
4.6979513 -5.8493109 -26.255577
4.7131782 -5.9245896 -27.317432
4.658999 -5.985714 -29.982002
4.6169991 -5.94525 -30.041082
4.7597508 -5.669332 1.1310833
4.7519999 -5.7809987 -2.1980002
4.7031226 -5.7111058 -2.224431
4.6514134 -5.7353439 -5.6897931
4.6971755 -5.6214099 -6.8804121
4.7859993 -5.7479987 -8.9960003
4.7641211 -5.7242417 -9.0115452
4.7517872 -5.710084 -10.099873
4.7295003 -5.7224989 -10.2
4.7808895 -5.7685542 -11.351888
4.7476373 -5.684381 -11.439168
4.7447815 -5.7415919 -12.539407
4.6549258 -5.7774873 -14.748363
4.6738524 -5.7039838 -14.828602
4.7616663 -5.7273316 -15.912001
4.6843634 -5.7484946 -16.038015
4.6565704 -5.7702017 -25.015169
4.6483464 -5.7304335 -26.196432
4.672719 -5.709136 -26.215561
4.6210003 -5.4109983 4.4549999
4.6110001 -5.4329987 4.3369999
4.7665 -5.4991102 1.1113331
4.6242285 -5.5341816 -2.2454548
4.6117501 -5.5539985 -5.5755
4.6549997 -5.5749984 -6.7979999
4.6555295 -5.5862927 -6.8519411
4.7449999 -5.4899983 -11.388
4.7300005 -5.5584998 -11.4399
4.7439995 -5.5574994 -14.7735
4.6484761 -5.5769506 -14.82738
4.6194992 -5.5847483 -26.292
4.6039987 -5.4029994 -29.996
4.6089993 -5.4244986 -30.017
4.6526666 -5.2860179 4.4598517
4.7579999 -5.2579989 4.381
4.78475 -5.335248 1.0557498
4.7989998 -5.3619986 0.98299974
4.684 -5.2177491 -1.1512502
4.7049999 -5.2539983 -1.2670002
4.6049991 -5.368999 -29.99
4.6049986 -5.2509985 -30.004999
4.656692 -5.101665 4.4404101
4.6150002 -5.0794277 4.3521433
4.6090007 -5.1139989 3.2169998
4.6325002 -5.1314998 3.1879997
4.7591825 -5.1224551 1.1067725
4.7670002 -5.1829991 0.99799985
4.6709442 -5.1050539 -1.1587224
4.7634764 -5.049427 -13.698571
4.7386603 -4.8474011 5.4798288
4.7687564 -4.8636084 5.3514628
4.6584754 -4.9454489 4.4243751
4.7173338 -4.9118886 4.3149443
4.7478747 -4.9917483 -13.692126
4.724402 -4.829124 -25.362312
4.684268 -4.8462653 -25.47554
4.6547494 -4.831749 -26.196251
4.6729922 -4.9023204 -26.267731
4.6911988 -4.9262986 -26.421402
4.7185416 -4.6435394 6.6264858
4.7390442 -4.6797924 6.5101757
4.7311559 -4.7518716 5.4864607
4.7653999 -4.7634978 5.3416495
4.7749996 -4.663713 -12.532144
4.7731996 -4.6599312 -12.6618
4.6170998 -4.6203985 -16.1644
4.720017 -4.7484169 -25.349504
4.6227884 -4.7642622 -25.412268
4.6469994 -4.7807984 -26.1952
4.6611805 -4.77209 -26.205002
4.7130423 -4.4406075 7.6812162
4.6310005 -4.4379988 7.5994997
4.6890817 -4.5414524 6.6164527
4.7147617 -4.5167603 6.5209527
4.6924672 -4.4302216 -5.7367549
4.6947203 -4.4388366 -5.863976
4.6499166 -4.5769982 -16.165001
4.6030016 -4.2689986 11.085
4.735435 -4.3140736 7.6909628
4.6895046 -4.273665 7.5878162
4.7235007 -4.2244987 -1.4730003
4.6712241 -4.3227572 -5.7024398
4.6130013 -4.0824275 11.101999
4.6232867 -4.1079135 8.6732855
4.7405567 -4.1082401 7.6909447
4.7444439 -4.1387587 7.5797048
4.6585174 -4.0478258 4.2800341
4.6969633 -4.0915909 4.1194811
4.6240592 -4.0499988 3.3024113
4.7124004 -4.1677995 -1.4436003
4.6514678 -3.8181114 21.676508
4.6583009 -3.8315997 21.576401
4.7118006 -3.8603995 21.243601
4.6884527 -3.8532364 21.097326
4.7012119 -3.9090636 20.890314
4.6224794 -3.8200438 20.142176
4.640501 -3.9574993 19.0035
4.6883063 -3.9200778 18.93119
4.602334 -3.9413331 11.093
4.6200008 -3.8204999 9.8409996
4.6193347 -3.9503331 8.6295557
4.7815886 -3.9784698 7.6806469
4.7622499 -3.8042495 5.2165003
4.7147899 -3.8235478 5.0920329
4.6230001 -3.8334279 4.9874287
4.656168 -3.9011333 4.2659168
4.7950001 -3.898999 4.0145001
4.7517657 -3.895752 3.8877273
4.7454448 -3.8970213 3.6952932
4.7639999 -3.9050906 3.5615907
4.6139998 -3.9241757 3.1697643
4.6316938 -3.6158462 22.674618
4.6420841 -3.6304166 22.501249
4.6578231 -3.6351063 22.296255
4.7058287 -3.680078 22.057318
4.6958385 -3.7201502 21.899149
4.7167788 -3.7401614 21.709244
4.7122812 -3.7537587 21.561998
4.6150017 -3.608124 21.242624
4.7008901 -3.6953695 21.152126
4.7383347 -3.7686667 20.232
4.718411 -3.7401078 20.154408
4.647501 -3.6134992 12.09725
4.6060004 -3.7929993 11.063
4.7861676 -3.6638329 10.9165
4.7599998 -3.6035993 5.4300003
4.7619991 -3.6871262 5.2619023
4.7400012 -3.7402668 5.0350227
4.712111 -3.7279582 4.9263058
4.7552729 -3.7531815 4.7804546
4.6844287 -3.7874284 4.2354288
4.601501 -3.4064987 23.686501
4.6130009 -3.4689994 23.419001
4.6850581 -3.431416 23.281725
4.6852064 -3.4692745 23.104172
4.6460481 -3.5217674 22.936163
4.7168894 -3.5246382 22.663389
4.7270761 -3.5331252 22.521374
4.6836972 -3.493696 22.278439
4.7965012 -3.5844991 22.053501
4.7940011 -3.5914993 21.9755
4.7160015 -3.5349734 21.266407
4.743372 -3.556685 21.161184
4.6666679 -3.4339998 13.210334
4.6378579 -3.4177139 13.136001
4.6452861 -3.5068567 12.024286
4.7975001 -3.5694993 10.923
4.7356677 -3.4129994 6.6140003
4.7875013 -3.418 6.5815001
4.7140007 -3.5501428 5.6471429
4.7402272 -3.5776765 5.5216451
4.7160001 -3.5924993 5.3762498
4.6066256 -3.2516241 24.469751
4.6051679 -3.2298329 24.369169
4.6794829 -3.2878516 23.839594
4.6943908 -3.302686 23.703077
4.6907163 -3.3288569 23.501574
4.7384295 -3.3422678 23.323553
4.7763815 -3.3610003 23.128191
4.7800016 -3.3869996 22.943001
4.6620011 -3.3339996 22.414431
4.715951 -3.3292322 22.298552
4.6000009 -3.3869991 13.256
4.6229181 -3.3184988 13.084333
4.6978736 -3.3755999 7.4738364
4.7070003 -3.3164985 7.3794441
4.6843338 -3.2733328 7.0173335
4.7068682 -3.2963665 6.8967013
4.7125463 -3.3426232 6.6924143
4.7568755 -3.3694994 6.5847497
4.6422014 -3.1038001 24.439314
4.6267509 -3.1922495 24.384501
4.6713581 -3.1371419 23.460106
4.7270608 -3.1521761 23.378708
4.6971617 -3.1077414 14.294064
4.6362681 -3.1072671 8.4548054
4.6654572 -3.1676307 8.351305
4.7345004 -3.0944996 8.007
4.6955066 -3.1146836 7.8933163
4.7000237 -3.1409767 7.7440686
4.6708202 -2.8491595 24.870441
4.659924 -2.8468459 24.638382
4.6627359 -2.9037642 24.504143
4.6650009 -2.9419992 24.393999
4.6675563 -2.8534813 9.2501116
4.6944222 -2.8787246 9.1032639
4.7130461 -2.9003179 8.9725466
4.6453347 -2.9976664 8.4486675
4.6310015 -2.6713328 25.122002
4.7510014 -2.7953327 24.860334
4.7167907 -2.779999 24.638159
4.76477 -2.649461 10.627154
4.7353339 -2.6199992 10.591001
4.7905011 -2.2512496 25.213999
4.7850008 -2.2424996 25.191502
4.7510014 -2.3219993 18.759001
4.6468339 -2.2943327 13.135333
4.6314678 -2.0263994 25.874067
4.7266111 -2.1597557 21.049047
4.707993 -2.0903599 20.954056
4.6308584 -1.9104286 26.008287
4.6786203 -1.9093238 25.9387
4.6300011 -1.8089995 22.212999
4.6765952 -1.8513125 22.090984
4.6970358 -1.9023793 20.920807
4.7266016 -1.6205996 26.2418
4.7070012 -1.6257997 26.106201
4.6791391 -1.7018456 25.924074
4.6513281 -1.7331955 22.028004
4.6542511 -1.7672501 21.012749
4.7348185 -1.7149794 20.913485
4.703001 -1.5989997 26.025999
4.7023344 -1.5916662 25.949667
4.7862511 -1.4604998 24.327
4.7880011 -1.577333 20.94389
4.6406097 -1.2732171 26.682739
4.7843342 -1.2313329 24.293667
4.6566124 -1.1069444 26.644419
4.7852154 -1.092214 24.256859
4.6420016 -1.0024996 20.701
4.6421676 -1.0263332 19.656
4.6512232 -0.96988899 26.633997
4.6910009 -0.98499995 26.6
4.7870007 -0.98100013 24.26
4.7229595 -0.9852497 20.844751
4.7013974 -0.93111092 20.677698
4.6432009 -0.97209984 19.649702
4.6250014 -0.90399998 18.9028
4.6475005 -0.83062488 7.2817507
4.6900001 -0.81599969 7.1869998
4.6562877 -0.61385685 27.453432
4.6961446 -0.69228536 27.32943
4.6525011 -0.70149988 21.8657
4.6113343 -0.72266656 21.761669
4.7040634 -0.70256621 20.677406
4.6468015 -0.77879971 19.631599
4.6220007 -0.78949994 19.5825
4.7046933 -0.76015359 7.2675385
4.6352515 -0.45243755 27.650185
4.6915689 -0.52354962 27.508986
4.7430015 -0.57799989 27.378
4.6010008 -0.43800011 23.263
4.6020012 -0.47099999 23.165001
4.789001 -0.59699994 20.671
4.6414013 -0.3757998 21.870201
4.6165009 -0.24250002 10.492001
4.6327291 -0.020636315 27.682817
4.666585 -0.069333293 27.571087
4.7647514 -0.13475008 24.005751
4.7550926 -0.11390922 23.980364
4.6200008 -0.058999766 23.476
4.6600857 0.060999859 27.882086
4.6682525 0.019083256 27.735584
4.6298018 0.083399989 27.476599
4.6329985 0.042000044 -29.910999
4.6550727 0.32257143 27.88236
4.6530013 0.38699999 27.791
4.7165012 0.23225017 23.901749
4.6862016 0.47559991 28.029999
4.7094636 0.45230761 27.86277
4.7586684 0.4469997 27.777
4.6962609 0.71851808 28.068335
4.7990017 0.62600023 27.989
4.7119012 0.86834985 28.109104
4.6885891 0.90376455 19.458057
4.6446009 0.86959976 19.3783
4.6963658 1.180636 27.928453
4.6669998 1.0859998 0.3369998
4.7695713 1.1594281 -6.3392859
4.773499 1.1528329 -6.7596664
4.7793336 1.1509167 -6.8838329
4.7443347 1.3653331 28.247
4.6762023 1.2348996 27.922699
4.7795019 1.2855003 25.646
4.7546682 1.3499998 25.536001
4.6050005 1.3990002 4.6700001
4.6660004 1.2979996 1.3989998
4.6686001 1.3029997 1.1115998
4.6224999 1.3149999 0.4299998
4.6079998 1.2729999 0.32299981
4.7118006 1.2939998 -0.87920016
4.6888003 1.2789999 -1.1394002
4.6924543 1.300818 -1.3046366
4.6989098 1.3061816 -1.4867276
4.7099237 1.3139228 -1.6725388
4.7712016 1.4633998 28.272598
4.6677508 1.5935 7.0427499
4.6644454 1.570722 6.9122224
4.633286 1.5394284 6.7377148
4.6413341 1.5326664 6.5576668
4.6420007 1.4923997 5.6258001
4.6440005 1.4772857 5.5564284
4.6129999 1.4169993 4.6240001
4.6557999 1.4253997 4.5198002
4.7494636 1.7434616 26.077694
4.6220012 1.7960001 8.0150003
4.6222863 1.7722852 7.9079995
4.6176009 1.6857998 7.4660006
4.6280007 1.6548569 7.3098574
4.7096887 1.7123772 7.0583544
4.6890006 1.6109997 6.9495001
4.7795024 1.9575996 28.4382
4.724309 1.9039999 26.227232
4.7171116 1.8827587 26.10465
4.6150007 1.9331427 8.7138577
4.6156006 1.8945999 8.5124006
4.6180005 1.8619995 8.3468008
4.6673431 1.8822284 7.0218863
4.7007661 1.9178821 6.9471173
4.7555022 2.0389993 28.474501
4.6400013 2.1447139 10.088142
4.6118894 2.1119988 9.8995552
4.6122518 2.0766242 9.6912498
4.6140008 2.0494995 9.5450001
4.6149096 2.0965445 6.9679098
4.7309999 2.1936662 2.4409997
4.7185001 2.1984992 2.3924997
4.7125998 2.1770992 1.9102497
4.7462502 2.1771247 1.3576247
4.7074184 2.3609161 28.617332
4.7315011 2.3205826 28.550873
4.7089448 2.291333 28.344215
4.6057506 2.3937492 11.4405
4.6060004 2.3594997 11.268667
4.6081829 2.3349993 11.113365
4.6390009 2.2279994 10.809
4.6050005 2.2627494 10.699249
4.7580004 2.2579992 10.201
4.7641544 2.3137305 10.184462
4.6110005 2.2684996 6.92875
4.6537514 2.3131993 3.8453505
4.6498933 2.3141062 3.7589998
4.6811199 2.2771189 3.2463999
4.6706152 2.2710142 3.0993381
4.6695504 2.2638495 2.9638498
4.702486 2.3013856 2.4662421
4.6559091 2.2332716 2.3710909
4.6710005 2.2029998 1.9139998
4.7779999 2.315999 1.6089997
4.715683 2.3567331 1.5135164
4.6818037 2.3101809 1.3561208
4.6904459 2.4899251 28.663223
4.7893343 2.489666 23.617332
4.6020012 2.4659994 11.831
4.6065011 2.4359989 11.681
4.6036677 2.4086664 11.504333
4.6430001 2.4899995 10.24
4.7476678 2.4086664 10.176001
4.6010003 2.5819991 6.8790002
4.6387062 2.5607052 5.1230588
4.7743583 2.498214 4.8300719
4.7806673 2.4506657 4.7703338
4.6729336 2.4384744 2.501754
4.6210628 2.4141872 1.4924372
4.6192007 2.4217994 1.3677999
4.6676269 2.7286246 28.755749
4.7641678 2.7411659 26.211668
4.7443013 2.7631996 26.192503
4.7575011 2.7784994 13.423
4.650001 2.7788742 6.3269997
4.6000004 2.694999 5.7740002
4.6453338 2.6389992 5.4216666
4.6587143 2.6241424 5.3571429
4.6059985 2.648999 -29.872999
4.6446128 2.8663325 28.83256
4.7405019 2.8693323 28.785002
