# .PCD v0.7 - Point Cloud Data file format
VERSION 0.7
FIELDS x y z
SIZE 4 4 4
TYPE F F F
COUNT 1 1 1
WIDTH 1515
HEIGHT 1
VIEWPOINT 0 0 0 1 0 0 0
POINTS 1515
DATA ascii
-1.0760674 -4.4692693 -26.304411
-1.1587846 -4.562283 -26.108784
-1.1093386 -4.5275726 -25.854122
-1.1338663 -4.4919963 -25.789984
-1.09799 -4.4117723 2.3888371
-1.0998589 -4.4185472 2.493521
-1.1223333 -4.4026637 2.6030002
-1.0832832 -4.4625101 5.5243473
-1.1046989 -4.5174108 5.707448
-1.1011277 -4.5491099 5.89644
-1.1031094 -4.4955945 6.1263022
-1.0436108 -4.4812846 6.2430687
-1.0060003 -4.5579972 8.7910004
-1.0881457 -4.5047479 8.9081955
-1.1014265 -4.4962602 9.103528
-1.0979937 -4.4787884 9.3013515
-1.1046015 -4.4935021 9.5033398
-1.0853918 -4.5185485 9.6725798
-1.0424237 -4.5659194 12.165462
-1.1006778 -4.562922 12.285685
-1.1067755 -4.5336356 12.520106
-1.1008915 -4.5244269 12.702796
-1.1176436 -4.5779548 12.928272
-1.0618242 -4.5855069 13.053962
-1.0931133 -4.5885606 15.718788
-1.1643759 -4.5945802 15.834166
-1.0416658 -4.2086644 -26.668667
-1.1123798 -4.3216643 -26.44681
-1.1547489 -4.3586636 -26.353958
-1.0838426 -4.3063083 -25.843657
-1.0933062 -4.3482709 -25.779974
-1.0896153 -4.2039595 -4.0267305
-1.0710608 -4.2321095 -1.0618762
-1.0996245 -4.2735925 -0.8941192
-1.0952944 -4.2490544 -0.71105677
-1.0391806 -4.2289968 -0.55734026
-1.0385112 -4.304997 2.163939
-1.0988466 -4.3340192 2.2990465
-1.0777652 -4.2286057 2.5091836
-1.0894736 -4.3285499 2.7066352
-1.0391521 -4.3118491 2.8401611
-1.079532 -4.3591638 5.5268927
-1.1030117 -4.3465362 5.6958389
-1.1038734 -4.3574181 5.9056797
-1.0946504 -4.3598213 6.0921817
-1.0492005 -4.372108 6.2388449
-1.0363321 -4.0756631 -26.806334
-1.0902706 -4.0930085 -26.710745
-1.1633321 -4.176414 -26.558752
-1.0083332 -4.0156636 -4.4083338
-1.1011491 -4.1016083 -4.257781
-1.1018101 -4.1674323 -4.0660315
-1.0906729 -4.073257 -3.9073672
-1.0685943 -4.0857711 -1.0620772
-1.1027076 -4.0845408 -0.89954907
-1.1011634 -4.0886049 -0.69565332
-1.0594194 -4.1174273 -0.54892695
-1.0264043 -4.1877418 2.1749146
-1.0900425 -4.1862416 2.3102548
-1.1157267 -4.1864557 2.4948201
-1.1036323 -4.1888385 2.6816502
-1.0486475 -4.1969967 2.8142941
-1.0548774 -3.8614831 -27.06197
-1.1340655 -3.8589323 -26.964205
-1.0962981 -3.9033751 -26.686588
-1.013692 -3.9480751 -4.4084616
-1.0837525 -3.9314721 -4.2862206
-1.1011488 -3.9556215 -4.1038704
-1.0827729 -3.9671109 -3.9215147
-1.080768 -3.6562297 -27.264946
-1.1342553 -3.7311778 -27.125669
-1.1015542 -3.7161095 -26.839891
-1.095276 -3.7363355 -26.71826
-1.1559988 -3.6104982 -24.610001
-1.1113112 -3.6676233 -24.512077
-1.0787172 -3.4650767 -27.478352
-1.1331509 -3.5384557 -27.338654
-1.0379988 -3.5509984 -24.622999
-1.0470221 -3.5653238 -24.51733
-1.0813329 -3.4603317 -7.6040001
-1.1041404 -3.4621308 -7.5317588
-1.1041361 -3.461663 -7.3130774
-1.0300552 -3.4407387 -7.1661472
-1.0839821 -3.2751653 -27.66972
-1.1445701 -3.355027 -27.535229
-1.0735676 -3.3034542 -7.6654239
-1.1099753 -3.2813518 -7.5191245
-1.1067184 -3.320051 -7.294313
-1.0377852 -3.3603842 -7.1660004
-1.0202489 -3.0207489 -28.03425
-1.0992486 -3.0328739 -27.944748
-1.0969083 -3.1133468 -27.656517
-1.0327132 -2.8154986 -28.226217
-1.0991838 -2.8752024 -28.105659
-1.1594534 -2.9451807 -27.977365
-1.0906353 -2.950362 -27.682821
-1.0143884 -2.8116095 -11.013278
-1.090266 -2.8515642 -10.878925
-1.1048839 -2.9055612 -10.70571
-1.0526533 -2.8712485 -10.522484
-1.0340655 -2.6215317 -28.424334
-1.0997305 -2.6900656 -28.297937
-1.1582987 -2.7640653 -28.165462
-1.0142426 -2.7623501 -11.011705
-1.0954862 -2.6961653 -10.901168
-1.100126 -2.6739902 -10.695786
-1.0726912 -2.7169912 -10.539152
-1.0363917 -2.4287128 -28.62929
-1.0952995 -2.5022316 -28.500179
-1.1631656 -2.5684316 -28.372965
-1.128749 -2.4159982 -24.45125
-1.0328988 -2.2496982 -28.811604
-1.0984985 -2.3123598 -28.696756
-1.1623739 -2.375457 -28.575996
-1.1577488 -2.3914983 -24.457001
-1.1066571 -2.2522743 -14.216752
-1.0996357 -2.2961364 -14.101877
-1.0784925 -2.2722015 -13.942288
-1.0706655 -2.0749984 -28.812668
-1.1042533 -2.1072805 -28.741735
-1.04959 -2.1231744 -14.256896
-1.1010617 -2.0749276 -14.103051
-1.0866305 -2.1058187 -13.933464
-1.0156654 -1.8156658 -29.014669
-1.0843672 -1.8710347 -28.91947
-1.0963583 -1.8893756 -28.697609
-1.1202846 -1.9049991 -28.595003
-1.0605639 -1.6833905 -29.033052
-1.1365212 -1.7305514 -28.969044
-1.1709989 -1.6989993 -26.614
-1.1087391 -1.6537204 -26.475504
-1.1015465 -1.6622896 -17.461735
-1.1059408 -1.6614298 -17.288265
-1.0262911 -1.6383049 -17.176266
-1.0971475 -1.6457808 4.1312218
-1.1026732 -1.666523 4.2424479
-1.110754 -1.5194689 -29.067879
-1.0139989 -1.4969991 -26.604
-1.0936941 -1.5443615 -26.466389
-1.0213323 -1.5789992 -26.391333
-1.1854991 -1.5772492 -24.293375
-1.0014993 -1.5434991 -17.608
-1.089793 -1.4338146 -17.463871
-1.105503 -1.4795804 -17.291801
-1.0290117 -1.5205582 -17.174942
-1.0961373 -1.5727919 4.1460319
-1.0968562 -1.5721953 4.2418618
-1.1073064 -1.3049995 -29.133612
-1.0385993 -1.3956491 -17.518951
-1.0930831 -1.2096121 -10.646096
-1.0967892 -1.2078333 -10.54098
-1.0896237 -1.1542492 -29.04425
-1.109749 -1.0428494 -28.945347
-1.1115544 -1.0281658 -27.648916
-1.0416656 -1.009666 -27.589834
-1.1136656 -1.0853325 -20.822386
-1.1082621 -1.0821663 -20.655161
-1.0894078 -1.0351421 -20.585758
-1.0927134 -1.1242231 -10.651646
-1.1016381 -1.102643 -10.537416
-1.0960641 -1.1651533 3.9406798
-1.0966281 -1.1793399 4.3670859
-1.1300004 -1.1989993 4.4089999
-1.100335 -0.88803607 -29.27426
-1.100713 -0.96971399 -29.069002
-1.1403987 -0.98899955 -28.940199
-1.1394987 -0.92149961 -27.809
-1.1096468 -0.90261078 -27.653355
-1.0402387 -0.95635945 -27.584921
-1.0944493 -0.84544969 -20.825003
-1.0960155 -0.8741973 -20.684973
-1.0960553 -0.94179857 -20.573765
-1.0791878 -0.80474961 4.1930623
-1.097167 -0.80708301 4.2250834
-1.0968345 -0.73348063 -29.328686
-1.1070464 -0.73449391 4.1913548
-1.0919422 -0.6981526 4.2339392
-1.0684987 -0.501333 -29.429502
-1.169332 -0.50999963 -29.373669
-1.1021968 -0.43519801 -27.845694
-1.1025517 -0.43752611 -24.086632
-1.0923073 -0.42974457 -23.978281
-1.0971457 -0.30182335 -29.459585
-1.0943913 -0.29263783 -27.869122
-1.0179989 -0.24399988 -24.204
-1.1017184 -0.22839041 -24.081348
-1.0985812 -0.31113493 -23.958879
-1.1121236 -0.13187496 -29.482437
-1.0918097 -0.081631072 -29.286079
-1.1869987 -0.017000007 -29.193251
-1.1354275 -0.16628559 -27.948002
-1.0940759 -0.089769252 -25.454695
-1.109249 -0.069883652 -25.292976
-1.0641528 -0.1914614 -24.079542
-1.1191524 0.081153817 -29.566132
-1.0991523 0.10523073 -29.23826
-1.1020793 0.12679027 -29.178692
-1.1051657 0.11769993 -25.438736
-1.0965936 0.067307241 -25.295801
-1.1789078 0.24436353 -29.589184
-1.0946351 0.20263635 -29.25609
-1.0947258 1.3303401 -29.583771
-1.1273323 1.579466 -27.041401
-1.0089989 1.5919994 -26.998501
-1.1146462 1.5572816 -26.646523
-1.1109989 1.5979993 -26.599001
-1.1151172 1.7030519 -27.041922
-1.0748763 1.6812441 -26.981016
-1.1081545 1.7170383 -26.641396
-1.0891204 1.6690719 -26.573755
-1.0953989 1.672666 -26.237736
-1.1041256 1.7217374 -26.090826
-1.0889988 1.9733068 -27.636387
-1.0202487 1.9912492 -27.592251
-1.0284989 1.8019992 -26.669001
-1.1014435 1.8651662 -26.238749
-1.1013005 1.8499891 -26.100092
-1.102646 1.9761165 -20.028353
-1.0929267 1.9834627 -19.979856
-1.1649988 2.0559986 -27.801001
-1.1017488 2.0621006 -27.660322
-1.0342846 2.0202842 -27.593861
-1.1015249 2.0973918 -20.049089
-1.0983692 2.053112 -19.967392
-1.1270002 2.9939983 3.2149999
-1.0813336 2.9931653 6.3205004
-1.1049236 2.9894602 6.5096927
-1.0060004 2.9939983 9.3809996
-1.1046603 2.9727709 9.5552263
-1.1010277 2.9554169 9.7035866
-1.0754266 2.987591 9.8861856
-1.0587257 2.9855483 12.743751
-1.1069914 2.9283016 12.889964
-1.1006805 2.942673 13.086802
-1.0324622 2.9776909 13.230462
-1.0953257 2.9494436 16.160976
-1.0997596 2.932946 16.304411
-1.0869964 2.9776242 16.471003
-1.0216374 2.990726 16.618546
-1.0746535 2.9845221 19.333364
-1.0960348 2.9401495 19.504602
-1.0978178 2.933033 19.662855
-1.1001129 2.953038 22.719301
-1.0971975 2.9563017 22.85417
-1.0985062 2.9673393 26.135273
-1.096774 2.9646311 26.279509
-1.0916015 2.9835985 29.395138
-1.0992984 2.9810269 29.482973
-1.1167486 3.0862486 -29.21125
-1.0974793 3.1343751 -29.099445
-1.1019677 3.1275334 -3.4760675
-1.0983627 3.1360884 -3.3121922
-1.1011604 3.1451776 -3.0808573
-1.0319752 3.1441739 -2.9420002
-1.0227499 3.1922483 -0.4232001
-1.0944541 3.1667361 -0.26472327
-1.099798 3.1249468 -0.098676242
-1.0530732 3.1614621 0.03795433
-1.0609533 3.149159 2.9552886
-1.1044902 3.0628843 3.0700469
-1.0870279 3.0638626 3.2639997
-1.0010002 3.1779983 3.4030001
-1.0543855 3.1326859 6.1512313
-1.1193907 3.0793602 6.2718248
-1.1068208 3.0436809 6.5009112
-1.0603904 3.1111207 6.659379
-1.0243827 3.0876603 9.3764877
-1.1089419 3.0901654 9.4820471
-1.0926306 3.1573384 9.7037096
-1.0866208 3.0957291 9.8965435
-1.0798372 3.0912192 12.734245
-1.113528 3.1323898 12.885839
-1.1165355 3.1021593 13.120912
-1.0428771 3.0834253 13.238418
-1.021251 3.0982487 15.980501
-1.0922771 3.1179793 16.096994
-1.0963399 3.1644959 16.29838
-1.1050965 3.1038163 16.511087
-1.0232539 3.0838535 16.623135
-1.011834 3.1289985 19.187834
-1.0886337 3.1186569 19.310799
-1.1001409 3.1515417 19.500572
-1.1022763 3.1161907 19.719748
-1.064248 3.10519 19.853935
-1.0765426 3.1195085 22.529703
-1.0976689 3.1462944 22.684393
-1.0895517 3.1394939 22.913219
-1.0670707 3.113517 23.067339
-1.0064628 3.0663064 25.791386
-1.0918418 3.0942795 25.899811
-1.0962148 3.1031272 26.078871
-1.0874574 3.1804943 26.307241
-1.0797501 3.0513356 26.492651
-1.0164013 3.051198 26.617498
-1.0492797 3.1196945 29.148214
-1.1094284 3.0668824 29.300295
-1.1190728 3.0285702 29.417856
-1.1036655 3.2231653 -29.242336
-1.1184826 3.2292564 -29.118673
-1.1389991 3.3904986 -27.710251
-1.1003549 3.3481052 -3.4875638
-1.0990645 3.2964666 -3.278496
-1.0982627 3.2597156 -3.0651588
-1.1036389 3.2768366 -2.9538784
-1.0247551 3.2631712 -0.41787753
-1.0866137 3.2785113 -0.30123943
-1.1024445 3.3244536 -0.098785713
-1.0841365 3.2918417 0.030909058
-1.0614353 3.2512469 2.94488
-1.1015497 3.2672398 3.0952067
-1.0774837 3.2612782 3.2693014
-1.0006667 3.2226651 3.4076667
-1.0420856 3.2278163 6.1646461
-1.1050119 3.2347777 6.290391
-1.0976981 3.2304201 6.4983559
-1.0511253 3.2278383 6.6424823
-1.1540778 3.2159989 9.5821543
-1.1460774 3.2129982 9.7136927
-1.1610008 3.1999984 16.141001
-1.1692601 3.220036 16.324112
-1.1830008 3.2409985 16.406
-1.1072316 3.2039983 22.535461
-1.1543086 3.2055886 22.719538
-1.1277218 3.2067235 22.911894
-1.0805681 3.20472 23.050779
-1.076185 3.2093053 25.930487
-1.1019235 3.2055118 26.098127
-1.1041597 3.2074208 26.297483
-1.0831516 3.2084732 26.477274
-1.0090011 3.2051983 26.6154
-1.0557598 3.2302301 27.132692
-1.1370097 3.2302713 27.265102
-1.1710012 3.2669985 27.402
-1.0091441 3.3134987 27.981859
-1.0751643 3.2523489 28.121603
-1.1042104 3.289691 28.276651
-1.140103 3.2552304 28.49625
-1.1447386 3.2608144 28.696203
-1.1527514 3.2663801 28.905987
-1.1220374 3.2446535 29.10284
-1.098231 3.2332289 29.276747
-1.0696938 3.214922 29.433617
-1.0887988 3.5907986 -28.8426
-1.0905191 3.4173982 -27.641079
-1.0979017 3.5076401 -27.518274
-1.0897003 3.4048991 -3.5069001
-1.0040923 3.5111802 27.985819
-1.0119241 3.5011525 28.041691
-1.1336161 3.5049276 28.276588
-1.0730011 3.5487983 28.4154
-1.0439987 3.7679985 -29.033001
-1.0964438 3.7165174 -28.832111
-1.0851238 3.7473733 -28.793877
-1.1989993 3.6289985 -27.628
-1.0737587 3.6266382 -27.53676
-1.0955513 3.7806103 -6.6728177
-1.1059948 3.7660334 -6.5258188
-1.0050012 3.668999 28.047668
-1.1250008 3.7010567 28.273993
-1.090839 3.810559 -28.867477
-1.0959398 3.9743516 -27.049942
-1.0961987 3.9792657 -26.9786
-1.0433165 3.9216568 -6.8356581
-1.1077152 3.9342473 -6.7125444
-1.1110766 3.914942 -6.4799609
-1.030342 3.8872077 -6.3739343
-1.1900001 3.9613993 -3.4729002
-1.1213543 3.8990726 28.265015
-1.0610013 3.8634987 28.403
-1.0973905 4.1735625 -27.055
-1.0952029 4.0992832 -26.967621
-1.1009997 4.1959968 -7.8889999
-1.0324284 4.0188065 -6.8205729
-1.1040872 4.0129294 -6.7318339
-1.0633634 4.0100884 -6.4818187
-1.1594462 4.1072102 -3.4598937
-1.0993099 4.1859012 26.107113
-1.102897 4.1773605 26.244482
-1.0854906 4.1737733 27.113886
-1.1546953 4.1622014 27.253447
-1.0634817 4.1546097 28.141535
-1.1226524 4.0861959 28.252308
-1.0623349 4.0553303 28.451002
-1.0638198 4.1488147 28.707455
-1.0718762 4.1559968 28.895996
-1.0886377 4.1558151 29.110544
-1.0955014 4.1833301 29.301334
-1.1085013 4.1857467 29.441
-1.1128321 4.2211633 -27.064667
-1.112856 4.2105684 -26.972643
-1.0973332 4.3695531 -10.006001
-1.0996487 4.3518839 -9.9164877
-1.097719 4.3508096 -9.7642012
-1.1869999 4.3959966 -8.4969997
-1.1003864 4.2929845 -7.8864117
-1.094538 4.3037863 -7.7944622
-1.1185002 4.3062782 -3.4392183
-1.099098 4.3149571 26.097954
-1.1021873 4.3635139 26.240679
-1.0643693 4.2045588 27.128977
-1.1547191 4.2059197 27.239594
-1.0488284 4.2097468 28.147005
-1.099144 4.2476411 28.278337
-1.1225866 4.2726412 28.498466
-1.1205127 4.2869663 28.694941
-1.1309725 4.30865 28.896734
-1.1362429 4.3181815 29.09309
-1.1417319 4.3261251 29.294659
-1.1448323 4.3354506 29.499641
-1.0456879 4.497601 -10.03638
-1.1221092 4.5118804 -9.9485798
-1.1003778 4.5093451 -9.7388611
-1.0620089 4.4565601 -8.6682816
-1.1394396 4.448667 -8.5424957
-1.1472497 4.4127469 -7.8650002
-1.0801158 4.4958549 -3.4191668
-1.0549998 4.5819969 -3.4000001
-1.0400012 4.4029965 26.132
-1.0241247 4.6032472 -10.047
-1.0576661 4.6133304 -9.9486666
-1.0498003 4.6453962 -3.4070499
-1.036294 4.7235656 -3.3922939
-1.0996522 4.9775414 -13.241168
-1.1004324 4.9598246 -13.101641
-1.0435827 4.9863305 -12.98175
-1.0063745 4.984622 -6.756125
-1.0079999 4.8459969 -3.401
-1.0120002 4.8609214 -3.3812816
-1.0954275 5.1871405 -29.576218
-1.0969793 5.0947661 -13.26942
-1.0989447 5.1619439 -13.070349
-1.0706075 5.1031041 -12.966488
-1.1261493 5.1906476 -8.4625998
-1.1704994 5.1853299 -8.373333
-1.104108 5.1532717 -7.8180976
-1.1093878 5.1234069 -7.7213531
-1.0325172 5.1764793 -7.5411377
-1.0716565 5.1670537 -7.2814565
-1.0736666 5.1285529 -7.0970955
-1.0685207 5.0977244 -6.8815513
-1.0750593 5.1221995 -6.7254233
-1.0099987 5.2307472 -29.612249
-1.1020232 5.3027644 -29.508989
-1.0701514 5.2107577 -13.241871
-1.1043295 5.2044921 -13.144958
-1.0186919 5.2379975 -8.6175375
-1.084811 5.2363605 -8.5109749
-1.1799995 5.2275519 -8.3803329
-1.0944998 5.2222538 -7.8101521
-1.1013312 5.2818861 -7.6784859
-1.0807532 5.3069806 -7.5181994
-1.0653384 5.2808995 -7.3060646
-1.0723468 5.3185968 -7.0947781
-1.0784994 5.3260756 -6.9104352
-1.1058173 5.296298 -6.7028952
-1.1000985 5.4453177 -29.501932
-1.1052976 5.5260086 -16.46611
-1.0946302 5.5165915 -16.307228
-1.0127132 5.5779977 -16.192286
-1.0910988 5.5343928 -9.8090076
-1.1023998 5.5090952 -9.7151775
-1.1157748 5.4259968 -7.60675
-1.1045128 5.4932961 -7.5295835
-1.076795 5.4183049 -7.2937703
-1.0852493 5.411622 -7.1707506
-1.1634936 5.4476051 -6.6934938
-1.0930555 5.7264867 -16.475822
-1.1040246 5.7025142 -16.296692
-1.0188282 5.6490827 -16.186115
-1.0724998 5.6158719 -9.8036251
-1.0990639 5.632669 -9.7300396
-1.1723701 5.6309314 -7.5241771
-1.1012489 6.1934609 -29.494646
-1.1614987 6.1949964 -29.397499
-1.0984699 6.050765 -19.682816
-1.1022512 6.0929208 -19.505816
-1.0883464 6.26507 -29.47049
-1.1026939 6.3155761 -29.363987
-1.0973829 6.2789798 -19.674904
-1.0971805 6.2532401 -19.517586
-1.1525983 6.5186529 -29.583336
-1.1779989 6.4059973 -29.392
-1.0502714 6.6513619 -29.611137
-1.1196147 6.7086339 -29.569157
-1.0981424 6.7364979 -23.03532
-1.1036022 6.7363777 -22.846498
-1.0599189 6.7827563 -22.789158
-1.1004173 6.900991 -29.541121
-1.0902262 6.9319968 -28.424906
-1.1013389 6.9561868 -28.316978
-1.1029987 6.9924974 -26.629002
-1.1050375 6.9860358 -26.502653
-1.0947373 6.9704008 -23.030144
-1.1028104 6.9222636 -22.88389
-1.0952723 6.8725429 -22.781429
-1.0976254 7.0897279 -29.503777
-1.1040655 7.1765089 -29.299383
-1.1017988 7.1047969 -28.429901
-1.104104 7.0597415 -28.305004
-1.0943489 7.1134477 -26.6387
-1.0973923 7.1025891 -26.490622
-1.0528735 7.3630595 -29.426188
-1.1045178 7.2873149 -29.259069
-1.0239986 7.3299966 -29.194
-1.1137993 7.2096972 -26.639704
-1.0943627 7.2137246 -26.505184
-1.0207487 7.4169965 -29.415751
-1.1047689 7.5138068 -29.294548
-1.175999 7.5944963 -29.195999
-1.0554367 7.6246219 -29.223249
-1.1047674 7.7076445 -29.130503
-1.0914365 7.79106 -28.860435
-1.1043068 7.7773309 -28.712591
-1.1179993 7.7755742 -28.267199
-1.0847037 7.7698832 -28.145441
-1.1016062 7.8281064 -29.034111
-1.0857815 7.9702573 -28.870089
-1.0965139 7.9062281 -28.667759
-1.1989992 7.8909965 -28.594999
-1.1206889 7.8990312 -28.275553
-1.0951679 7.8499489 -28.135073
-1.0841581 8.064805 -28.852062
-1.1107725 8.1541071 -28.768303
-1.088478 8.2888327 -28.667999
-1.1478319 8.3748293 -28.57947
-1.0357487 8.4072428 -28.607502
-1.1000378 8.4850683 -28.515072
-1.1969988 8.5724936 -28.3895
-1.0885899 8.5850849 -28.095226
-1.067076 8.6270704 -28.422848
-1.1122806 8.6594629 -28.340754
-1.109292 8.6434584 -28.069534
-1.097342 8.6875849 -27.969469
-1.0745542 8.8763275 -28.210337
-1.1217694 8.9541807 -28.141897
-1.0858405 9.0981874 -28.04808
-1.1377299 9.1679764 -27.973808
-1.1095988 9.1505938 -25.024872
-1.0971624 9.1546907 -24.877224
-1.098438 9.2806101 -27.902895
-1.0576658 9.3569937 -27.651501
-1.1091325 9.3704271 -27.556236
-1.1102482 9.3424921 -25.018169
-1.0991403 9.2723818 -24.869114
-1.045399 9.4167929 -27.820002
-1.1023691 9.5377455 -27.668837
-1.0984128 9.4726877 -27.529936
-1.055499 9.4059935 -24.9235
-1.0788934 9.6424704 -27.631317
-1.115258 9.7310648 -27.549595
-1.0904219 9.8739958 -27.458534
-1.1300399 9.9669104 -27.372278
-1.0379984 10.007995 -27.408001
-1.0910256 10.056468 -27.32913
-1.0685985 10.091193 -27.025
-1.1168668 10.130888 -26.950476
-1.0948322 10.100249 -26.040873
-1.0984681 10.112497 -25.983202
-1.104285 10.366527 -27.063559
-1.1062992 10.263511 -26.922337
-1.1069987 10.205493 -26.11875
-1.0978529 10.442666 -27.035156
-1.1361697 10.531142 -26.960165
-1.0481255 10.552414 -26.434904
-1.1279997 10.595993 -2.8010001
-1.0959586 10.580314 -2.692667
-1.0951027 10.584554 -2.5703235
-1.0935421 10.570045 0.52388519
-1.0969768 10.577353 0.63910025
-1.0486928 10.595454 3.5737691
-1.0764228 10.592161 3.7127738
-1.0973994 10.585517 3.8094926
-1.0365561 10.590882 6.9606662
-1.0476162 10.676141 -26.886995
-1.1217988 10.733893 -26.715702
-1.1007836 10.702891 -26.455198
-1.1185001 10.636828 -2.8036668
-1.1052397 10.738725 -2.7324865
-1.0986069 10.693157 -2.5624769
-1.1031947 10.743938 0.50517535
-1.0991931 10.718865 0.65989143
-1.0988451 10.687996 3.5661161
-1.1117202 10.635449 3.6997254
-1.0958105 10.728 3.8168409
-1.0995333 10.707074 6.7595758
-1.0991405 10.636733 6.9038715
-1.0987891 10.668897 7.00879
-1.0978928 10.721511 9.9242821
-1.1012335 10.691644 10.124701
-1.0822932 10.722848 13.145487
-1.1068908 10.70716 13.324966
-1.0305167 10.733544 13.422611
-1.0525839 10.788661 16.355709
-1.0930264 10.787787 16.485641
-1.0070012 10.795993 16.66
-1.0590008 10.797994 19.577
-1.0976871 10.698124 29.508009
-1.056999 10.984994 -26.603666
-1.1038654 10.88968 -26.472488
-1.1033324 10.802662 -2.7641668
-1.1620001 10.804994 -2.582
-1.1079531 10.803966 0.47507131
-1.1085882 10.816876 0.67688227
-1.1018893 10.815505 3.5828154
-1.117819 10.843503 3.6980014
-1.1339833 10.855939 3.8218067
-1.098201 10.824065 6.7755771
-1.0998315 10.837738 6.8963442
-1.0930003 10.82147 7.0081425
-1.0998783 10.839192 9.9300489
-1.1001101 10.853636 10.116653
-1.102326 10.873702 13.160087
-1.1070629 10.888679 13.366346
-1.0512005 10.837794 13.4266
-1.0976408 10.856133 16.330374
-1.1125081 10.845308 16.534622
-1.0720952 10.878531 16.628691
-1.0076674 10.873994 19.389002
-1.0848125 10.855443 19.522575
-1.103865 10.872665 19.710417
-1.0362519 10.902161 19.830103
-1.0693774 10.929042 22.551706
-1.0978222 10.934133 22.699305
-1.0685487 10.939645 22.862606
-1.0116674 10.996661 25.782667
-1.0518576 10.995467 25.907145
-1.1360962 10.986661 26.081762
-1.0417511 10.994744 26.24625
-1.1001648 10.900981 29.499584
-1.0870159 11.029805 -26.47492
-1.0956562 11.099625 -26.302937
-1.1156828 11.167436 -26.132812
-1.0667232 11.174718 -25.419312
-1.0848511 11.181726 -25.386732
-1.0951197 11.182733 -6.0722055
-1.0993078 11.146224 -5.8950167
-1.1015356 11.146014 -5.7388968
-1.1749884 11.103499 3.732723
-1.1757885 11.09885 3.8261881
-1.105334 11.015828 16.347332
-1.1175778 11.023109 16.565845
-1.0600002 11.014851 16.604
-1.109032 11.050122 19.514294
-1.1379794 11.041268 19.771116
-1.0447506 11.015995 19.82025
-1.1003227 11.065032 22.556967
-1.0817509 11.068744 22.656126
-1.0371152 11.053031 25.770628
-1.1131226 11.040123 25.894081
-1.0935204 11.016648 26.09663
-1.0416167 11.016483 26.234501
-1.015705 11.126365 28.982222
-1.0997556 11.107015 29.095722
-1.1007742 11.088796 29.267958
-1.096506 11.091615 29.488241
-1.0837152 11.215758 -26.04682
-1.1101067 11.270669 -25.91312
-1.1138905 11.345319 -25.738592
-1.0961016 11.236831 -25.438
-1.1049055 11.300929 -25.324074
-1.1013949 11.307281 -6.0938573
-1.101568 11.353328 -5.9108624
-1.1004608 11.267125 -5.7221627
-1.196 11.337661 -2.6815002
-1.1745416 11.299958 3.7445853
-1.1683913 11.308139 3.8262539
-1.1667502 11.283118 16.489374
-1.134845 11.222399 25.908657
-1.0870016 11.269494 26.067501
-1.0115012 11.223493 28.993999
-1.1231421 11.262154 29.119957
-1.0850018 11.335996 29.302
-1.0948023 11.302051 29.487114
-1.0982684 11.509044 -25.297873
-1.1398209 11.589171 -25.171717
-1.0922595 11.590663 -9.0429583
-1.0967466 11.577604 -8.9581137
-1.0857146 11.400851 -6.077857
-1.1965708 11.524245 -2.6649289
-1.1749994 11.495824 3.7517786
-1.1641823 11.505273 3.835366
-1.1015862 11.536139 29.473621
-1.0388993 11.604794 -25.226601
-1.0933408 11.643716 -25.086535
-1.0981196 11.726039 -24.899784
-1.1182169 11.781474 -24.760103
-1.0437497 11.775993 -24.217251
-1.0367187 11.789432 -24.159479
-1.0989109 11.682932 -9.129962
-1.0912377 11.70638 -8.9262505
-1.1959833 11.701894 -2.6421475
-1.1978277 11.713338 -2.5719998
-1.178064 11.695914 3.7662497
-1.1651388 11.693133 3.844533
-1.1685556 11.678105 7.0347776
-1.0991958 11.697582 29.459494
-1.0934666 11.831599 -24.670952
-1.1238288 11.899236 -24.515348
-1.1151055 11.920711 -24.322859
-1.0998052 11.887221 -24.07399
-1.1044832 11.81338 -9.0723534
-1.13051 11.907357 -8.9486256
-1.1934928 11.901169 -2.6279857
-1.1952471 11.915793 -2.563
-1.1799895 11.897289 3.7733905
-1.1576968 11.908568 3.8455834
-1.100818 11.900552 29.453674
-1.0639986 12.000995 -24.360001
-1.0954388 12.078862 -24.057468
-1.1071562 12.162766 -23.92222
-1.1849993 12.193995 -23.797501
-1.0986007 12.150476 -12.322082
-1.0988173 12.121524 -12.1664
-1.1273214 12.105008 -8.9240513
-1.1882766 12.097774 -2.6174264
-1.1919407 12.107209 -2.5422351
-1.1756626 12.0885 3.7809031
-1.1606108 12.109763 3.8453615
-1.1026996 12.099494 29.442648
-1.0719088 12.21392 -23.833582
-1.1003317 12.266465 -23.697004
-1.1090049 12.346053 -23.514091
-1.1354064 12.342326 -23.279444
-1.0965323 12.331403 -23.058237
-1.1489983 12.375327 -22.995834
-1.0972427 12.305362 -12.314266
-1.0710483 12.312074 -12.149078
-1.119783 12.300094 -8.8980427
-1.1843003 12.268544 -2.60725
-1.1869439 12.288903 -2.5248168
-1.1905352 12.287101 3.7888048
-1.1680404 12.303557 3.8503711
-1.1887504 12.324995 13.47925
-1.0973543 12.295583 29.434448
-1.0788454 12.409534 -23.424387
-1.1010617 12.428704 -23.34798
-1.096365 12.515965 -23.04916
-1.1073322 12.439788 -22.992796
-1.0460007 12.595565 -15.341144
-1.1346364 12.499923 -12.223504
-1.1028223 12.508769 -12.142529
-1.1257035 12.485963 -8.8906384
-1.1467096 12.529799 -8.7942572
-1.1901668 12.437329 -2.6061668
-1.1850489 12.502591 -2.5167403
-1.0627102 12.54029 -2.0628176
-1.0660599 12.558618 -1.9856752
-1.1913635 12.511424 3.79213
-1.167998 12.503455 3.8598111
-1.102157 12.424898 29.435562
-1.0915756 12.632432 -23.029799
-1.1030631 12.728251 -22.93313
-1.1003418 12.725296 -22.262075
-1.101398 12.756227 -22.184372
-1.0983436 12.676377 -15.504997
-1.097636 12.660848 -15.345438
-1.1381388 12.676929 -12.209541
-1.1053381 12.711273 -12.153994
-1.1177074 12.689204 -8.8767281
-1.1304995 12.705933 -8.7795935
-1.182546 12.700704 -2.4834883
-1.134447 12.651261 -2.0828919
-1.1193208 12.671443 -1.9658597
-1.1969161 12.732244 0.6941666
-1.1923348 12.641662 3.7956667
-1.1706654 12.702185 3.8771865
-1.0958309 12.835071 -22.834675
-1.0987072 12.922778 -22.748505
-1.0881591 12.987433 -22.549118
-1.0776443 12.897767 -22.229128
-1.0865154 12.846244 -22.169777
-1.1013243 12.844261 -15.489383
-1.0984848 12.825671 -15.346212
-1.1515994 12.819393 -12.2028
-1.1099119 12.90038 -12.154284
-1.1132914 12.902463 -8.8646841
-1.0981547 12.924123 -8.7675505
-1.1784729 12.889033 -2.4692166
-1.1959995 12.917327 -2.3976667
-1.1609997 12.840243 -2.066
-1.1544231 12.826646 -1.9463848
-1.1949682 12.874251 0.70529032
-1.1696936 12.901751 3.8924556
-1.1734997 12.983994 4.0035
-1.1029491 13.032296 -22.651949
-1.111999 13.067239 -22.470484
-1.0935063 13.127591 -22.320499
-1.0719997 13.147214 -18.802555
-1.0987741 13.114665 -18.696678
-1.0988675 13.127565 -18.560013
-1.1060357 13.104199 -12.128953
-1.1219393 13.069331 -8.8565712
-1.1128989 13.087728 -8.7498808
-1.0441005 13.154675 -6.2850718
-1.0576937 13.147323 -6.1666698
-1.0915459 13.114789 -3.4425564
-1.0880226 13.129062 -3.3652985
-1.175135 13.097075 -2.4902165
-1.1865 13.176494 -2.3934999
-1.1940002 13.124372 0.74475658
-1.1977501 13.185744 0.81424993
-1.1706921 13.099574 3.9079027
-1.1748415 13.122653 4.0087051
-1.0985153 13.169354 5.1374292
-1.1108882 13.159488 5.2803817
-1.0928664 13.30608 -22.289427
-1.1000787 13.309913 -18.667589
-1.0993558 13.245603 -18.542809
-1.1002789 13.299922 -12.107092
-1.1399984 13.328549 -11.995556
-1.0524994 13.351531 -8.8343592
-1.0825225 13.30915 -8.7375021
-1.0970614 13.301102 -6.2834053
-1.1088679 13.291891 -6.1430235
-1.1071943 13.249145 -3.4308612
-1.1363395 13.239141 -3.3648837
-1.1667875 13.318864 -2.4630272
-1.1791366 13.346431 -2.3769865
-1.1907501 13.291833 0.75552279
-1.1947241 13.323133 0.83496535
-1.172671 13.297187 3.918638
-1.1715981 13.323959 4.0083933
-1.0998404 13.242702 5.1510754
-1.1079676 13.276462 5.2660327
-1.1000509 13.489253 -22.265268
-1.0256419 13.596566 -21.849789
-1.091598 13.595395 -21.7348
-1.0922041 13.500075 -12.089293
-1.1131244 13.513906 -11.986199
-1.0339994 13.58516 -9.6081667
-1.0684291 13.520237 -9.4977856
-1.0960804 13.502896 -8.8300991
-1.0667573 13.499944 -8.7328062
-1.1570446 13.433949 -6.2501798
-1.1694758 13.423852 -6.1535711
-1.1568569 13.498244 -2.440917
-1.1756419 13.506856 -2.364646
-1.1845298 13.506583 0.76055878
-1.1893749 13.501145 0.84479994
-1.171888 13.493302 3.9380949
-1.1737882 13.502288 4.0189214
-1.1065706 13.587014 18.3468
-1.0862788 13.591383 18.408058
-1.0981908 13.692824 -22.223927
-1.1062098 13.76752 -22.196369
-1.1040363 13.626487 -21.88678
-1.0999942 13.680253 -21.730539
-1.0938096 13.698987 -12.073089
-1.0917635 13.707419 -11.973223
-1.1056032 13.6669 -9.6073399
-1.0897609 13.682734 -9.5191441
-1.0745002 13.714326 -9.3934994
-1.0882808 13.688506 -8.8160858
-1.0714828 13.714809 -8.7260361
-1.1517576 13.703799 -2.4366298
-1.16933 13.702323 -2.3479302
-1.1847882 13.69551 0.75899994
-1.1830759 13.700662 0.85951507
-1.1715614 13.692853 3.9559536
-1.1743098 13.705087 4.0257497
-1.1036061 13.669049 18.328449
-1.1043113 13.69453 18.488155
-1.1028661 13.734725 18.693645
-1.0926322 13.754192 18.822741
-1.1054096 13.815112 -22.205763
-1.0938025 13.843659 -22.162567
-1.0981965 13.895937 -21.698671
-1.0896487 13.900067 -12.055702
-1.0633907 13.907693 -11.962714
-1.1576114 13.828328 -9.5516672
-1.0709897 13.870767 -8.8067551
-1.0769912 13.906487 -8.7367887
-1.1559891 13.888412 -2.4286482
-1.1599101 13.905614 -2.3279407
-1.1803317 13.904771 0.76522213
-1.1019082 13.93942 0.90613222
-1.174389 13.897218 3.9670515
-1.176191 13.901845 4.0372014
-1.1962494 13.970494 7.1587501
-1.1936665 13.922328 10.347334
-1.1060361 13.891223 18.3363
-1.1382622 13.875821 18.40526
-1.1370014 13.870994 18.799
-1.0920676 13.826127 18.819998
-1.1004806 14.096543 -21.667997
-1.090415 14.098876 -12.038791
-1.0493383 14.103594 -11.95611
-1.036749 14.043618 -8.8032503
-1.072136 14.102312 -8.7349577
-1.1577176 14.07252 -2.4183586
-1.0980233 14.101758 -2.266547
-1.1830006 14.11052 0.77852637
-1.116374 14.063674 0.90545607
-1.1077642 14.114169 1.0037059
-1.1499425 14.116489 3.9687753
-1.1706215 14.106537 4.0426631
-1.0170006 14.198493 7.1520004
-1.0826769 14.143429 10.301066
-1.0840646 14.137704 13.482568
-1.003001 14.196328 16.566666
-1.0005009 14.197494 16.619499
-1.089002 14.087565 17.777763
-1.0918902 14.074418 17.853065
-1.0578579 14.096612 18.123619
-1.0631942 14.087995 18.280935
-1.0955452 14.08154 18.434185
-1.1062115 14.076625 18.758421
-1.1001552 14.081988 18.85689
-1.03769 14.174512 19.715246
-1.0515461 14.18463 22.682728
-1.1489997 14.344995 -21.805
-1.0990262 14.254159 -21.66647
-1.0110992 14.394296 -14.743401
-1.0874615 14.298028 -12.019432
-1.0409265 14.304494 -11.947103
-1.0732199 14.298779 -8.7243605
-1.1754001 14.294544 -2.4104502
-1.1452826 14.291038 -2.2859578
-1.1807332 14.286462 0.78633332
-1.1624708 14.288554 0.87302923
-1.1113659 14.289364 3.9745696
-1.1349441 14.271759 4.0425262
-1.0867385 14.317027 7.1286616
-1.0916551 14.316384 7.2314849
-1.1217842 14.256934 10.275578
-1.1790009 14.258994 10.416
-1.122058 14.252664 13.467173
-1.0958769 14.306788 16.531532
-1.0989077 14.295804 16.62594
-1.1204013 14.344128 18.279469
-1.1980003 14.204995 18.648001
-1.098286 14.218637 18.861286
-1.1158694 14.265006 19.733917
-1.111063 14.300916 22.663677
-1.063566 14.35994 25.962288
-1.0709045 14.359574 26.01997
-1.0229993 14.437994 -21.82
-1.1010466 14.509496 -21.764048
-1.0740932 14.515954 -14.82503
-1.0811943 14.525373 -14.705706
-1.0907545 14.456382 -12.006202
-1.0541139 14.516767 -11.960313
-1.0730993 14.494491 -8.7275743
-1.0744997 14.537923 -8.5946426
-1.0476048 14.565991 -5.6248956
-1.0606649 14.559222 -5.508853
-1.1569785 14.5003 -2.2934573
-1.1799998 14.461244 0.79374999
-1.1682067 14.509646 0.88720685
-1.1800008 14.536393 1.0048001
-1.1859776 14.48539 3.9835145
-1.1814324 14.508467 4.0578446
-1.1302065 14.437898 7.1345801
-1.1473931 14.461819 7.2340002
-1.148875 14.42937 16.541084
-1.1663344 14.446996 16.640667
-1.1046036 14.516261 18.283379
-1.1182369 14.527211 18.449198
-1.0953244 14.484694 18.755575
-1.0951923 14.501466 18.8325
-1.1570014 14.420994 19.767374
-1.1670017 14.429994 22.658834
-1.1273468 14.446256 25.950743
-1.1529515 14.432242 26.03775
-1.099731 14.700273 -21.737968
-1.0784029 14.665069 -14.811038
-1.1116108 14.683712 -14.717953
-1.0570126 14.702195 -11.94687
-1.0700527 14.698144 -8.715353
-1.0648285 14.726592 -8.5830851
-1.1012776 14.681731 -5.6166058
-1.1154926 14.68562 -5.4868565
-1.1536235 14.696639 -2.2721913
-1.1815709 14.756471 -2.1955714
-1.1658573 14.698474 0.8756904
-1.1680522 14.711574 1.0166843
-1.1877638 14.683566 3.991415
-1.1820179 14.701037 4.0641842
-1.1986006 14.685994 7.1739998
-1.197801 14.711793 7.2206001
-1.0938901 14.627142 18.276184
-1.0976954 14.912425 -21.696867
-1.099216 14.99054 -21.567284
-1.1989998 14.802995 -14.772
-1.0586567 14.89751 -11.922316
-1.0563331 14.899327 -11.797333
-1.0672456 14.900521 -8.695075
-1.0716382 14.896618 -8.5719347
-1.1829998 14.805993 -5.6020002
-1.1724761 14.813134 -5.5502386
-1.141559 14.892041 -2.2650628
-1.1732343 14.915663 -2.1842349
-1.1512823 14.896532 0.89710867
-1.1609588 14.898204 1.0357499
-1.1894532 14.86754 3.9943581
-1.1837841 14.897883 4.0675311
-1.1977509 14.901244 7.2362499
-1.1006393 15.006185 -21.657515
-1.1004415 15.093476 -21.530355
-1.0455337 15.098655 -11.899114
-1.0452509 15.117362 -11.791032
-1.062543 15.097671 -8.6769962
-1.0686694 15.102097 -8.5506907
-1.1332358 15.097088 -2.2705023
-1.1607622 15.099181 -2.1653106
-1.1347265 15.145356 0.91343272
-1.1521111 15.096141 1.0410371
-1.1915213 15.072553 3.9922798
-1.1839644 15.099767 4.0789814
-1.1989998 15.001995 7.1849999
-1.1971658 15.100995 7.2376671
-1.1014595 15.299127 -21.491697
-1.0225182 15.284184 -11.870597
-1.0275688 15.311989 -11.780318
-1.077509 15.310297 -8.653511
-1.0977398 15.310671 -8.5334225
-1.1123022 15.311326 -2.2577379
-1.126757 15.324741 -2.1063418
-1.1105137 15.325971 0.9294644
-1.1124701 15.343772 1.0543023
-1.1833636 15.381359 3.9819095
-1.1813318 15.29738 4.0813799
-1.194 15.327992 4.2080002
-1.1974992 15.288659 7.2324996
-1.1189986 15.235994 13.589
-1.1177497 15.517577 -21.611252
-1.0971813 15.451163 -21.494352
-1.0965387 15.555964 -18.423565
-1.0999891 15.547008 -18.333199
-1.0158768 15.439198 -11.832553
-1.0182252 15.487592 -11.765997
-1.0795857 15.485891 -8.635581
-1.103377 15.481978 -8.5278463
-1.1397207 15.561866 -5.4638934
-1.1301353 15.555335 -5.315043
-1.0959947 15.471105 4.0982428
-1.1930013 15.595992 10.197
-1.1912317 15.590227 10.290923
-1.1899996 15.597993 10.441
-1.0976644 15.645994 -21.606667
-1.101799 15.702789 -21.569229
-1.0845824 15.766248 -19.099636
-1.0908576 15.629994 -18.451857
-1.0952965 15.634547 -18.316792
-1.0839992 15.746394 -11.8498
-1.0666752 15.699181 -11.723785
-1.0519563 15.697702 -8.6241112
-1.0613595 15.70802 -8.5056658
-1.1979997 15.794995 -6.0869999
-1.1697776 15.786291 -5.8539996
-1.1550004 15.77052 -5.6922626
-1.0949819 15.693823 -5.4892735
-1.0947888 15.692719 -5.267242
-1.1716068 15.750516 -5.1189284
-1.1613638 15.739539 -4.889607
-1.1519649 15.747983 -4.7036152
-1.1925461 15.664177 -4.5126367
-1.1976669 15.649661 -4.3713336
-1.141449 15.71738 9.9282036
-1.0971398 15.712857 10.114649
-1.0932627 15.67319 10.281692
-1.1037407 15.699096 10.475535
-1.1351151 15.736781 10.681534
-1.1000447 15.898245 -21.543329
-1.1403323 15.827996 -19.207001
-1.0846654 15.820691 -19.128416
-1.0434985 15.895994 -11.829
-1.0910978 15.900004 -11.686082
-1.0546113 15.884461 -8.6124363
-1.051726 15.921545 -8.5512838
-1.186 15.993243 -7.4242501
-1.1762305 15.986571 -7.3246541
-1.1841527 15.988994 -7.0386157
-1.1639735 15.978567 -6.8881826
-1.1502078 15.956714 -6.6936646
-1.1479161 15.926377 -6.5038853
-1.1466181 15.89054 -6.3005052
-1.1339257 15.893609 -6.0832005
-1.0786951 15.906489 -5.9085932
-1.0710275 15.908898 -5.7474437
-1.0713995 15.873696 -5.4511147
-1.0665624 15.831514 -5.2248964
-1.0777967 15.868823 -5.1816244
-1.0435841 15.887175 -4.8547802
-1.0182323 15.860765 10.55923
-1.0130005 15.951993 22.205
-1.031199 16.180187 -22.0749
-1.0369987 16.149488 -21.959999
-1.1062589 16.092224 -21.513699
-1.050199 16.059187 -11.8114
-1.0773911 16.090441 -11.679192
-1.0575358 16.057501 -8.6055861
-1.0489255 16.10511 -8.5586185
-1.1806246 16.186613 -8.3512087
-1.1813341 16.186987 -8.057333
-1.1359493 16.152124 -7.6869488
-1.1118256 16.107445 -7.4475293
-1.0857674 16.08256 -7.3098626
-1.1435248 16.041592 -7.0938683
-1.1260549 16.020521 -6.9114804
-1.1201661 16.019987 -6.7114997
-1.1450667 16.160055 22.674469
-1.1890016 16.194986 23.014999
-1.0021653 16.265821 -22.260502
-1.0324516 16.281874 -22.147152
-1.0208535 16.321398 -21.66021
-1.0948024 16.306927 -21.497446
-1.0939984 16.206987 -11.801
-1.0668268 16.301413 -11.690377
-1.1892372 16.356272 -9.284811
-1.1842619 16.386724 -9.0573425
-1.1655637 16.370737 -8.893342
-1.120433 16.330004 -8.65695
-1.0877315 16.260798 -8.5399256
-1.1008593 16.258284 -8.2892389
-1.1031843 16.265007 -8.0782022
-1.1450005 16.235455 22.938803
-1.1842012 16.242388 23.0336
-1.163751 16.376822 28.958752
-1.1613077 16.373991 29.071693
-1.026999 16.422987 -22.096001
-1.0239992 16.430986 -21.996
-1.0192509 16.40674 -21.772251
-1.0985408 16.499569 -21.449841
-1.0601749 16.492117 -11.707891
-1.1841583 16.589071 -10.049632
-1.1725717 16.569281 -9.8939714
-1.172094 16.51553 -9.4982176
-1.0700701 16.446745 29.087826
-1.1000266 16.681417 -21.417925
-1.1046753 16.76615 -21.393288
-1.0682306 16.706141 -11.629769
-1.0108552 16.752989 -11.593715
-1.0861239 16.825613 -21.408625
-1.1095777 16.889942 -21.303299
-1.1934994 16.997488 -12.5035
-1.1198449 17.098665 -21.22332
-1.1809993 17.172987 -21.198
-1.185625 17.191988 -13.850626
-1.1752442 17.185253 -13.677897
-1.1693286 17.167023 -13.495229
-1.1717581 17.146814 -13.337275
-1.1704286 17.11706 -13.107357
-1.1734384 17.097364 -12.899249
-1.1744207 17.076563 -12.696475
-1.1834072 17.031174 -12.526633
-1.1434225 17.048948 -12.280153
-1.0983939 17.282089 -21.242712
-1.1237612 17.275129 -21.191572
-1.1905105 17.391689 -15.235913
-1.1718099 17.38343 -15.083751
-1.1452383 17.372478 -14.925819
-1.1458825 17.349516 -14.710139
-1.1476539 17.324368 -14.493361
-1.1147174 17.326826 -14.299252
-1.1421894 17.280767 -14.113213
-1.1589068 17.239651 -13.90759
-1.1551379 17.235651 -13.723021
-1.1483992 17.215387 -13.5235
-1.0885199 17.349134 -12.684126
-1.1073885 17.500904 -21.295883
-1.1556466 17.567522 -16.091545
-1.1443589 17.544044 -15.896574
-1.1404192 17.517399 -15.699524
-1.1232712 17.491074 -15.489418
-1.1073062 17.502993 -15.296548
-1.1283562 17.460117 -15.117954
-1.0571698 17.436586 -14.896476
-1.0254034 17.500523 -14.733145
-1.0513781 17.478483 -14.452412
-1.0357255 17.440008 -14.296659
-1.0683078 17.439913 -14.174767
-1.1037989 17.699326 -21.270638
-1.0359471 17.616306 -15.463106
-1.0355904 17.644472 -15.162296
-1.0350002 17.628988 -14.499201
-1.1003914 17.896299 -21.231127
-1.0789995 17.992987 -21.167
-1.1061574 17.86899 -20.230158
-1.0689975 17.836987 -20.177999
-1.0916662 18.042068 -21.207664
-1.117856 18.100147 -21.146749
-1.2164998 -10.811994 12.191999
-1.2229826 -10.820184 26.479315
-1.2370012 -10.808993 26.601999
-1.3572963 -10.761884 8.7583275
-1.3514575 -10.755494 8.9016275
-1.3242507 -10.716994 12.19
-1.3230435 -10.72955 12.288992
-1.3309246 -10.737921 12.476381
-1.3148087 -10.725821 19.327295
-1.3179373 -10.727536 19.453594
-1.3136659 -10.714736 22.791327
-1.2883201 -10.674598 22.89006
-1.2850485 -10.668575 23.025684
-1.3132446 -10.739518 26.481085
-1.3830011 -10.661994 26.601
-1.3108691 -10.723584 29.876328
-1.2845882 -10.691188 30.113232
-1.3850465 -10.582177 22.785366
-1.381041 -10.584428 22.896505
-1.3834257 -10.582845 23.019926
-1.297316 -10.502626 30.120869
-1.2989086 -10.302331 30.1222
-1.3002752 -10.098702 30.117498
-1.2030009 -10.001994 30.333
-1.2190017 -10.011994 30.601
-1.3121146 -9.9713106 30.138634
-1.2995914 -9.9635725 30.299404
-1.2975677 -9.9515009 30.501535
-1.3003057 -9.8773737 30.617748
-1.287001 -9.7964926 30.594999
-1.2974695 -9.7871323 30.660833
-1.3516678 -9.4220762 31.158087
-1.3540016 -9.4129934 36.594002
-1.2942942 -9.3146524 31.147289
-1.3198351 -9.2574949 31.223333
-1.3484688 -9.2295256 32.147537
-1.2478137 -9.0863771 -4.6423635
-1.3190203 -9.0714703 -4.5601058
-1.2150015 -9.1959934 31.167999
-1.2237514 -9.1952429 31.219749
-1.3020687 -9.1330118 32.1343
-1.30443 -9.0598526 32.249287
-1.3087513 -9.056077 33.341957
-1.3622016 -9.0711927 34.347603
-1.3365302 -8.9546423 -4.8550243
-1.3150125 -8.9442387 -4.7006359
-1.3515105 -8.9636087 -4.5880857
-1.2500012 -8.9729929 33.376999
-1.2345017 -8.9479933 34.359501
-1.2980019 -8.9614935 34.448997
-1.3090016 -8.9659929 35.445999
-1.3139234 -8.4686308 22.895353
-1.3390012 -8.536993 23.006001
-1.3359244 -8.4397268 26.357494
-1.3056729 -8.4700098 26.443375
-1.3007087 -8.5191145 31.092806
-1.2984459 -8.4753256 32.117668
-1.3516866 -8.2343321 2.1662064
-1.318875 -8.2513952 2.2308748
-1.338186 -8.2393751 5.5634971
-1.3376365 -8.2505083 5.6419096
-1.2818921 -8.3278971 22.881924
-1.2993274 -8.2966242 23.019611
-1.287348 -8.3150854 26.354147
-1.3156481 -8.2617121 26.452835
-1.3919994 -8.1934929 -8.1529999
-1.2864157 -8.1164284 2.1656995
-1.2920073 -8.0866308 2.2334948
-1.2803562 -8.1353588 5.5679235
-1.2811835 -8.1109819 5.6479349
-1.2144303 -8.1928511 26.378572
-1.2134011 -8.1920938 26.439901
-1.2190014 -8.0224943 30.591
-1.2914451 -8.0260382 30.645912
-1.303707 -8.0471697 31.069239
-1.2114695 -7.9921212 2.1859374
-1.2255436 -7.9841447 2.2243829
-1.2956265 -7.9942474 30.660501
-1.3036674 -7.994997 31.090668
-1.2636683 -7.7776647 31.784336
-1.2408018 -7.6977973 31.8538
-1.2009997 -7.4089975 -16.451
-1.3758335 -7.4171643 -4.6330004
-1.3620319 -7.4139314 -4.5397096
-1.2486682 -7.5033298 31.866333
-1.3012776 -7.3036265 -15.835829
-1.2064999 -7.2349963 -14.943
-1.2659198 -7.2828679 -14.693719
-1.3050067 -7.3021512 -4.6283751
-1.3031685 -7.2920308 -4.5106683
-1.2510015 -7.2047963 31.151001
-1.3020011 -7.2019973 31.311001
-1.3415282 -7.3673143 31.72768
-1.2628818 -7.0202327 -15.797825
-1.297133 -7.0385432 -15.036064
-1.2560345 -7.0431046 -14.902996
-1.2814554 -7.0723476 -14.686151
-1.3515152 -7.0873771 -14.538218
-1.2439995 -7.1999965 -4.619
-1.2356169 -7.1808114 -4.5301366
-1.2982253 -7.0836625 29.873646
-1.2996942 -7.1690736 30.039848
-1.2952539 -7.1137877 31.134893
-1.3683766 -7.1751227 31.269747
-1.3030019 -7.1287475 32.120441
-1.3329184 -7.0364976 33.326084
-1.3310018 -7.0535979 33.4664
-1.2058741 -6.8221211 -19.471251
-1.2173327 -6.8336635 -19.298111
-1.363018 -6.9560723 -15.063756
-1.3475467 -6.9604506 -14.889011
-1.3542956 -6.9677091 -14.738945
-1.3944994 -6.9994969 -14.592
-1.2897774 -6.9843078 29.909042
-1.2928947 -6.8604989 30.109665
-1.3052412 -6.8455167 30.30488
-1.290212 -6.8473649 30.500685
-1.3770014 -6.8329973 30.629
-1.3080015 -6.9933305 32.057667
-1.3680021 -6.9743304 34.381332
-1.3940016 -6.962997 34.401001
-1.2073323 -6.6213303 -20.431
-1.2291268 -6.6235838 -20.262156
-1.2553562 -6.632668 -20.093662
-1.2570385 -6.6581235 -19.930929
-1.281659 -6.6862159 -19.691082
-1.3043996 -6.7055984 -19.505127
-1.3090261 -6.7356725 -19.320702
-1.2951781 -6.68962 -19.125448
-1.294114 -6.7349777 -18.066746
-1.2950536 -6.6296296 -17.941936
-1.2839994 -6.7779965 -17.209333
-1.2989037 -6.7640529 -17.069046
-1.3130068 -6.6742063 -7.8439846
-1.3209862 -6.6765103 -7.7511625
-1.2350017 -6.6509972 29.995001
-1.2904888 -6.7197447 30.057684
-1.2339993 -6.4074974 -21.229
-1.2336659 -6.4149966 -21.095243
-1.24857 -6.4526763 -20.897894
-1.2933388 -6.4723821 -20.679508
-1.299257 -6.5063515 -20.512726
-1.2933978 -6.5100703 -20.30316
-1.3429095 -6.547668 -20.115408
-1.3591267 -6.561851 -19.92009
-1.3659996 -6.5841079 -19.735558
-1.2797061 -6.4641199 -19.260309
-1.3097464 -6.5065694 -19.124521
-1.3052989 -6.4404979 -18.423201
-1.2735864 -6.4458289 -18.296871
-1.2653223 -6.4549022 -18.066402
-1.3159505 -6.5045247 -17.909927
-1.37914 -6.4918199 -17.773176
-1.2513829 -6.5782485 -7.8317337
-1.2567137 -6.5695143 -7.7426968
-1.2259994 -6.2029972 -22.223
-1.2191989 -6.2195973 -22.128798
-1.3302491 -6.2542462 -21.619751
-1.2751114 -6.2712555 -21.48945
-1.2937512 -6.327724 -21.294001
-1.3126874 -6.3421054 -21.112118
-1.3381915 -6.3738818 -20.909845
-1.3509994 -6.3869977 -20.740749
-1.283934 -6.2680736 -20.435175
-1.3077344 -6.3069358 -20.327303
-1.3761591 -6.3857565 -19.249401
-1.384142 -6.3879495 -19.146858
-1.369259 -6.3480568 -18.438181
-1.3582388 -6.3640223 -18.306513
-1.3578275 -6.3681254 -18.101624
-1.3756665 -6.3825526 -17.991724
-1.2599995 -6.0759969 -22.645332
-1.2664807 -6.1106629 -22.47311
-1.2679994 -6.1313748 -22.293034
-1.2659993 -6.143681 -22.172104
-1.3016222 -6.1128244 -21.464153
-1.2459226 -6.0239191 -21.305075
-1.3795289 -6.1826439 -20.429766
-1.3840426 -6.1879525 -20.355175
-1.3104324 -6.0667663 -4.2701855
-1.3203225 -6.0420804 -4.1806855
-1.2349991 -5.8259978 -23.816
-1.245828 -5.815455 -23.648285
-1.2644197 -5.8369627 -23.505985
-1.293202 -5.86304 -23.303509
-1.2957129 -5.8931403 -23.162502
-1.2873323 -5.9746633 -22.607
-1.2734604 -5.8739591 -22.559385
-1.381999 -5.9969974 -22.368
-1.2059987 -5.8009973 -21.629999
-1.315999 -5.9333315 -21.439331
-1.2560108 -5.8857808 -21.281223
-1.3329043 -5.8804145 -21.12693
-1.2947605 -5.9083657 -4.2776766
-1.2827654 -5.9291148 -4.1754489
-1.2205986 -5.6095967 -24.6374
-1.2388104 -5.6223569 -24.489845
-1.2539021 -5.6587567 -24.290964
-1.2986437 -5.6610813 -24.108366
-1.3095847 -5.6982169 -23.933681
-1.2937289 -5.7018056 -23.69903
-1.3593372 -5.7543645 -23.502943
-1.3666302 -5.7846279 -23.333918
-1.2952938 -5.6936841 -22.662197
-1.3101892 -5.729394 -22.559143
-1.3243477 -5.6673217 -21.86116
-1.2940645 -5.7229247 -21.713005
-1.30229 -5.7090364 -21.484562
-1.3286276 -5.7482247 -21.350655
-1.3819463 -5.7896276 -21.110209
-1.274999 -5.5139976 -25.027
-1.307866 -5.5023298 -24.856703
-1.2869948 -5.4969878 -24.727966
-1.3293322 -5.5384398 -24.509867
-1.3414856 -5.5743074 -24.305271
-1.3590823 -5.5901637 -24.152668
-1.2839593 -5.488317 -23.826878
-1.3072702 -5.5071335 -23.705938
-1.3954992 -5.587997 -21.953499
-1.2479988 -5.2299972 -24.802
-1.295487 -5.295959 -24.74654
-1.393999 -5.3809972 -23.816999
-1.3892714 -5.3938155 -23.746
-1.3909988 -5.3174968 -22.035
-1.2518739 -5.0459466 -25.454351
-1.2731905 -5.1208482 -25.348894
-1.2331244 -5.0312476 -24.856251
-1.2993754 -5.0983167 -24.742331
-1.3096932 -5.0672059 -17.835993
-1.3261944 -5.0355687 -17.786131
-1.2972472 -5.0138173 26.295162
-1.2951678 -5.0081635 26.408081
-1.2245848 -5.0189137 29.370419
-1.304155 -5.0161195 29.488682
-1.1999989 -4.8079967 -25.802
-1.258297 -4.8589387 -25.667742
-1.2952921 -4.9371963 -25.5406
-1.2699988 -4.9729972 -25.007999
-1.2448395 -4.9481797 -24.863205
-1.3269355 -4.9038873 -24.738691
-1.306102 -4.9364991 -17.845812
-1.2723157 -4.9546227 -17.778116
-1.3013214 -4.8580995 12.534454
-1.3004079 -4.8536463 12.721206
-1.3003565 -4.8328595 15.972752
-1.3008529 -4.8424907 16.116224
-1.3137007 -4.8192973 16.2099
-1.2226326 -4.8056283 19.174477
-1.2799152 -4.8561568 19.325464
-1.2989882 -4.8985977 19.502068
-1.2847546 -4.840941 19.682451
-1.2243345 -4.8323884 19.82155
-1.2588487 -4.8632617 22.547916
-1.2978213 -4.8983769 22.707172
-1.2994747 -4.9416666 22.886713
-1.2758305 -4.8647208 23.088209
-1.220721 -4.8687978 23.220362
-1.2487308 -4.8838277 25.954535
-1.3282038 -4.9029469 26.067223
-1.2907693 -4.8772082 26.273584
-1.2950996 -4.8382449 26.512918
-1.2622367 -4.8597541 26.661402
-1.2354171 -4.9302897 29.366209
-1.3125265 -4.9016204 29.482878
-1.2664111 -4.6781135 -25.835356
-1.3153241 -4.7512507 -25.735336
-1.2672298 -4.7029967 -24.828539
-1.3270874 -4.7011266 -24.707939
-1.3019465 -4.6332135 9.1777563
-1.3059535 -4.649435 9.3154755
-1.2652613 -4.617084 9.47787
-1.275914 -4.6616635 12.342557
-1.3254374 -4.7274909 12.471449
-1.3235494 -4.7329974 12.756589
-1.2782284 -4.6674352 12.879536
-1.2312008 -4.7083364 15.76632
-1.2910738 -4.7003436 15.883307
-1.2934331 -4.6458564 16.11657
-1.2897122 -4.7015367 16.291632
-1.2045891 -4.7144084 16.405352
-1.242844 -4.7273355 19.163729
-1.2962831 -4.6955328 19.299494
-1.3061259 -4.6929736 19.493063
-1.2992389 -4.6938853 19.699511
-1.2375861 -4.7187037 19.828314
-1.2522984 -4.7322068 22.552406
-1.2969513 -4.7215123 22.700079
-1.3029 -4.7389665 22.901087
-1.2827644 -4.7280774 23.081266
-1.2209837 -4.7292256 23.219631
-1.2389323 -4.7855139 25.966965
-1.296304 -4.7855639 26.102282
-1.3046145 -4.7916803 26.290083
-1.3305285 -4.7968502 26.488396
-1.2763348 -4.7954969 26.658388
-1.2259988 -4.4029965 -26.234501
-1.2846371 -4.4808478 -26.092997
-1.2682298 -4.5281892 -25.825886
-1.291678 -4.4829345 -25.781597
-1.2719989 -4.5519977 -24.825001
-1.3235502 -4.5047417 -24.675428
-1.2863538 -4.4086127 2.3896461
-1.2943082 -4.4126601 2.4961364
-1.3155 -4.4019971 2.6185
-1.2000004 -4.4679971 5.598
-1.299512 -4.4844823 5.7159147
-1.3057678 -4.5363035 5.9070148
-1.2521474 -4.4562907 6.0604115
-1.216904 -4.5315127 8.9873857
-1.2948714 -4.4975386 9.0960541
-1.3052806 -4.4584961 9.3081942
-1.2860048 -4.5027432 9.4855576
-1.2618431 -4.567945 12.352088
-1.3063228 -4.5292854 12.503734
-1.3080081 -4.5190568 12.714328
-1.255592 -4.5814071 12.860135
-1.2120006 -4.5809975 15.791499
-1.2971566 -4.5855536 15.914866
-1.3614382 -4.5893302 16.074104
-1.2444987 -4.2222466 -26.431667
-1.3058113 -4.2849879 -26.295856
-1.3600941 -4.3604732 -26.164049
-1.286999 -4.3059511 -25.838587
-1.2891005 -4.3480172 -25.78108
-1.3256763 -4.3010488 -24.645691
-1.2564286 -4.203568 -4.0221429
-1.2049998 -4.2239966 -1.0039999
-1.2987392 -4.2731395 -0.88133073
-1.2966181 -4.2599525 -0.75467658
-1.3017157 -4.3096628 2.3707209
-1.3224566 -4.3200393 2.4838386
-1.2897913 -4.310966 2.6443505
-1.2926853 -4.3577809 5.7136884
