# .PCD v0.7 - Point Cloud Data file format
VERSION 0.7
FIELDS x y z
SIZE 4 4 4
TYPE F F F
COUNT 1 1 1
WIDTH 1562
HEIGHT 1
VIEWPOINT 0 0 0 1 0 0 0
POINTS 1562
DATA ascii
-28.328161 -1.5257696 2.5109606
-28.189001 -1.5989995 2.5793333
-17.481787 -1.4752388 2.4963806
-17.293055 -1.4726701 2.4990764
4.1331096 -1.5485184 2.4997492
4.229876 -1.5400496 2.5030499
-28.481834 -1.2411664 2.4121671
-28.283005 -1.3065138 2.5034494
-28.188999 -1.2319994 2.483
-17.435961 -1.3801309 2.5177543
-17.368864 -1.3108724 2.4653652
-10.641657 -1.2087631 2.4822371
-10.532763 -1.2055235 2.4864526
-28.614 -1.0214999 2.4380004
-28.508291 -1.1299787 2.4867084
-28.269196 -1.0916443 2.5118003
-28.157806 -1.0839812 2.4941456
-20.838036 -1.0423926 2.5099287
-20.668446 -1.0386264 2.4997697
-17.471771 -1.0912418 2.4920156
-17.331057 -1.0848401 2.4810114
-10.659265 -1.1202832 2.5011177
-10.544323 -1.1255095 2.5011418
-28.639318 -0.8779999 2.4777143
-28.583364 -0.9070909 2.5721822
-28.223751 -0.98924994 2.4902501
-28.172501 -0.99299997 2.4240003
-20.817154 -0.81607687 2.5329232
-20.648388 -0.89652598 2.505255
-20.59561 -0.90412873 2.4695807
-17.440598 -0.90610266 2.4960971
-17.341183 -0.91725081 2.517683
-28.6576 -0.69704139 2.4986534
-28.598 -0.79999977 2.598
-20.813999 -0.71799999 2.5661669
-20.687449 -0.6829136 2.4777193
-17.422626 -0.79187495 2.5926251
-17.38925 -0.79424995 2.5952501
4.1787615 -0.68028748 2.4977393
4.2553768 -0.64814359 2.5016856
-28.803669 -0.45466655 2.4190001
-28.690784 -0.49685705 2.4977622
-28.552284 -0.51834601 2.5121152
-28.034 -0.40199989 2.4480002
-27.904427 -0.40819216 2.4892309
-25.632713 -0.50057119 2.520143
-25.451395 -0.47983342 2.5016241
-24.23 -0.41149998 2.5910001
-24.058064 -0.41219604 2.5043139
-23.9995 -0.40999997 2.4405003
-20.816824 -0.48023522 2.4682064
-20.678999 -0.50683749 2.50524
4.1955004 -0.59824985 2.46175
4.2246156 -0.59730744 2.5180769
-28.827757 -0.26548457 2.4551673
-28.771072 -0.29773247 2.5318727
-27.879297 -0.3018986 2.5015848
-25.621428 -0.3032856 2.4855714
-25.480515 -0.33679092 2.4983997
-25.396311 -0.35087478 2.4420624
-24.217499 -0.38799989 2.5560002
-24.045801 -0.32839274 2.5085535
-23.978672 -0.29369283 2.4963641
-20.821167 -0.37066662 2.5805004
-20.718571 -0.37720823 2.579097
-28.855639 -0.098104209 2.4916444
-28.790003 -0.16557151 2.5752144
-28.015751 -0.1337499 2.4927502
-27.924995 -0.17729288 2.5030181
-24.095825 -0.12503928 2.4813528
-23.973 -0.19800001 2.5580003
-28.914774 0.093830794 2.5062902
-24.022535 0.098895043 2.4879398
-23.994143 0.16774541 2.490309
-29.0075 0.24124998 2.4315
-28.903502 0.30156231 2.5045161
-28.777731 0.3894999 2.4758186
-24.066599 0.29047298 2.5061936
-23.983925 0.27098572 2.5382023
-29.062246 0.54013515 2.4846764
-28.858734 0.51254153 2.4738193
-28.760584 0.48007405 2.5171833
-29.208 0.79799992 2.4110003
-29.111055 0.70865905 2.4968741
-29.21851 0.93161345 2.4396133
-29.160133 0.88686913 2.5219874
-27.03377 0.94015366 2.5259233
-26.972448 0.9653157 2.5219214
-29.252371 1.0922091 2.4808767
-29.182398 1.0310495 2.5634
-27.021778 1.1575553 2.5232224
-26.921785 1.0878013 2.4889469
-4.9180002 1.0279996 2.5100002
-29.309759 1.2948217 2.4991612
-27.41 1.3769996 2.5780001
-27.393999 1.3929998 2.5380001
-27.014999 1.2149997 2.4240003
-26.972429 1.2102852 2.4235718
24.493 1.2974994 2.4575
-29.445717 1.5802853 2.450429
-29.306479 1.451272 2.5047274
-29.144354 1.571548 2.4868066
-27.420063 1.5104544 2.5291815
-27.361149 1.4986436 2.4873769
-29.458235 1.7136118 2.4922652
-29.258924 1.6802996 2.4893
-29.161406 1.6731045 2.5392499
-26.230778 1.6913332 2.5014448
-26.084389 1.7287862 2.4994025
-29.511955 1.9029248 2.5010381
-28.08609 1.9848179 2.5147281
-26.242657 1.8869709 2.4956574
-26.092834 1.8616908 2.4990227
-29.627102 2.1362658 2.4458003
-29.56398 2.0802813 2.518641
-28.216499 2.059499 2.5505004
-28.061167 2.0810492 2.5043602
-27.997002 2.022999 2.4143336
-20.082312 2.1321094 2.4968424
-29.662859 2.3028226 2.4932644
-29.587715 2.2335708 2.5774286
-20.142223 2.2049992 2.5485556
-29.670578 2.4294991 2.5051537
-29.539909 2.5283563 2.5020454
-29.608 2.7869992 2.401
-29.482828 2.7002831 2.5035038
-3.60625 2.784749 2.58425
-3.5142827 2.7775671 2.5738509
-0.25855997 2.7797592 2.5790401
-0.19599999 2.7919989 2.586
2.977823 2.7912347 2.5931766
3.03332 2.7909997 2.5873599
6.2980003 2.7871866 2.5826564
9.5328836 2.7578101 2.5559285
9.6307287 2.7592878 2.5451353
12.793694 2.7622302 2.5577695
12.873744 2.7535706 2.5487473
16.16256 2.7635462 2.5541568
16.253315 2.7650452 2.5607355
19.399 2.772999 2.5920002
19.490007 2.7788126 2.5741851
22.697212 2.7679892 2.5691223
22.801001 2.7789993 2.5850003
26.127308 2.787307 2.5932314
-29.709536 2.9263806 2.4854445
-29.548889 2.8388507 2.5204074
-3.6094213 2.8433673 2.5376315
-3.48067 2.8917084 2.4968987
-3.3976667 2.9779994 2.4873335
-0.25888231 2.8997431 2.4652698
-0.16209197 2.935991 2.4640331
2.9697306 2.9111457 2.5153556
3.0510378 2.8873565 2.4957128
6.2829871 2.9092567 2.5107503
6.405293 2.9441755 2.5174706
9.5274258 2.8992324 2.5004776
9.6530209 2.8942747 2.4925241
12.795175 2.8836944 2.5336525
12.881819 2.8881233 2.4954603
13.040424 2.9814079 2.4953103
16.152166 2.8956206 2.4932599
16.292107 2.902797 2.4982049
16.404453 2.9837265 2.4962728
19.395 2.8009994 2.585
19.508003 2.8885641 2.492317
19.649181 2.9730065 2.4963179
22.689489 2.8740001 2.4816582
22.846712 2.9801447 2.4929223
26.103146 2.9119515 2.514282
26.275892 2.9630926 2.4829528
29.37586 2.9487016 2.5491929
-29.689611 3.1131546 2.5034363
-29.201 3.1609991 2.526
-29.089645 3.184 2.4956503
-28.411499 3.1244991 2.5895002
-28.289789 3.1686065 2.5103574
-28.183001 3.1947486 2.4879997
-3.4690032 3.1043885 2.4992223
-3.3389285 3.1591339 2.4924355
-0.26252851 3.105499 2.480886
-0.08253739 3.1525185 2.4954953
2.9817636 3.0802891 2.4982309
3.0801926 3.1091177 2.506412
3.2198451 3.1076798 2.4814026
6.2587328 3.0990858 2.4970007
6.4990001 3.1011693 2.5027022
9.5422668 3.0988178 2.5006106
9.7534962 3.0937076 2.5006723
12.797111 3.1631105 2.4631109
12.834867 3.1016898 2.5012562
13.059499 3.0988591 2.4968636
16.149521 3.0869575 2.501153
16.383207 3.0811284 2.5044954
16.403513 3.1059864 2.5005007
19.390999 3.1097491 2.4147499
19.442034 3.1011257 2.4983084
19.678091 3.1026082 2.4977837
22.582333 3.1446664 2.4288335
22.64329 3.0995228 2.4914148
22.873671 3.0260324 2.5076001
25.997 3.168999 2.4630005
26.071878 3.1006656 2.4963999
26.311869 3.0059018 2.4826777
28.306999 3.1959994 2.4590001
29.364195 3.1011653 2.5005348
-29.66572 3.2839489 2.5003338
-29.574999 3.3904996 2.4570003
-29.227001 3.2044992 2.5625002
-29.081299 3.273629 2.4978321
-28.406 3.2864995 2.5520003
-28.24048 3.3349595 2.5254004
-28.155922 3.2745867 2.4827309
-6.8153334 3.3906662 2.5933332
-6.709537 3.3862915 2.5827556
-3.5364237 3.3023727 2.5019832
-3.2793815 3.3145971 2.498734
-3.0652602 3.3071492 2.4924023
-2.9594498 3.3203504 2.5007765
-0.24814168 3.2993832 2.4996424
-0.039105609 3.3205283 2.5027354
0.0045000003 3.3429995 2.4250004
2.9807084 3.3227363 2.4745507
3.0489445 3.2862804 2.5231395
3.2354207 3.2725978 2.4869246
6.2629514 3.3007228 2.498523
6.4827857 3.2832816 2.4903042
9.5445223 3.2997031 2.4969115
9.6766834 3.3206096 2.4911265
12.792792 3.2939806 2.4865663
12.867908 3.3041875 2.4990315
13.025125 3.2098742 2.5137498
16.149935 3.3034046 2.496027
16.302313 3.2977383 2.4960063
16.403143 3.2035708 2.5118575
19.38489 3.3077767 2.4642217
19.515385 3.3076918 2.4891679
19.644552 3.2110589 2.4996579
22.593199 3.2185993 2.4386005
22.689291 3.3193045 2.4718997
22.846651 3.2262707 2.4977276
26.097136 3.2973354 2.5011487
26.274717 3.2644477 2.4657412
28.281319 3.2946572 2.4883163
28.430626 3.276999 2.4857504
29.359158 3.2696979 2.5064971
-29.631479 3.5028567 2.477572
-29.478168 3.5652497 2.467417
-29.368593 3.5294809 2.5274816
-28.214001 3.4089992 2.4700003
-28.16 3.408999 2.4030001
-6.8089046 3.4981768 2.5311425
-6.6960053 3.5030046 2.50264
-3.4743521 3.4622579 2.5006702
-3.3646393 3.4870222 2.4744914
-3.0616171 3.4059112 2.5020592
-2.9745588 3.4200284 2.4949708
-0.24117102 3.5320711 2.4652038
-0.094070189 3.5311885 2.4747436
2.9895988 3.4721589 2.5122504
3.0740814 3.525641 2.483125
6.2901349 3.4930336 2.5035727
6.4125576 3.5014408 2.5148277
9.5539856 3.4586866 2.5373461
9.6706352 3.4674296 2.5359378
12.790537 3.4399996 2.5567696
12.880582 3.4429057 2.5575166
16.162016 3.4539018 2.5459161
16.270758 3.4511082 2.5468616
19.3885 3.4252493 2.5762503
19.489819 3.4288893 2.5684564
22.695314 3.4442399 2.5531073
26.122154 3.426213 2.5717943
26.211617 3.4237688 2.5670769
28.282124 3.4027493 2.4945002
29.354275 3.4212263 2.5817726
-29.614304 3.674181 2.4414549
-29.538813 3.6825056 2.5226958
-29.379307 3.63223 2.5454617
-29.005501 3.7949994 2.5460005
-28.852528 3.7395616 2.4968266
-6.8027506 3.6304994 2.4608753
-6.6757927 3.6623228 2.4760096
-3.608 3.6499999 2.4430006
-3.4843607 3.717267 2.4835758
-3.3640373 3.6975226 2.5018497
-0.23308809 3.6741753 2.5124726
-0.12729479 3.6829624 2.5151892
2.9966667 3.621666 2.5833337
3.0761607 3.6266661 2.567749
6.3181291 3.6161656 2.5840187
6.4155002 3.6123743 2.5863752
-29.604 3.8119993 2.4010003
-29.553616 3.916465 2.4967949
-28.880318 3.8168654 2.5042443
-27.066389 3.9894609 2.4937692
-26.98 3.9933326 2.4972501
-10.046529 3.9613383 2.5530219
-9.955286 3.9558613 2.5485551
-6.7091775 3.8891029 2.4979076
-6.5006008 3.8934224 2.5009873
-3.4652505 3.8321981 2.5579703
-3.3679445 3.8298323 2.5690002
-0.20299999 3.8179996 2.5990002
-0.17966667 3.9419994 2.5750005
-29.528036 4.0992646 2.4996557
-27.084904 4.0087724 2.5082254
-26.965467 4.0936804 2.5025697
-10.045463 4.0909047 2.4937313
-9.9301977 4.0795989 2.4818256
-6.6865501 4.0686874 2.4914763
-6.5280004 4.0571928 2.4868157
26.146887 4.189127 2.5023129
26.241245 4.1914454 2.5109539
28.278202 4.1458073 2.4975872
28.443539 4.147768 2.5038464
-29.500261 4.2880259 2.5029502
-27.073294 4.2158322 2.4997916
-26.964077 4.2170506 2.5001838
-10.019938 4.2449594 2.4553244
-9.9228725 4.3552999 2.486881
-9.7748461 4.384778 2.492135
-7.8929825 4.3228903 2.4954002
-7.7901111 4.3477759 2.5233338
-6.699831 4.3090315 2.4921243
-6.5540571 4.3106985 2.4894657
26.116423 4.2952976 2.4979579
26.253523 4.3146524 2.4962695
28.2945 4.2767477 2.4929056
28.407999 4.3096137 2.5290771
-29.453609 4.5140715 2.4958334
-29.275597 4.5001621 2.4990687
-29.200001 4.5319982 2.5980003
-13.280502 4.5838704 2.5801928
-10.005705 4.4464393 2.506
-9.983408 4.501277 2.5008016
-9.7656994 4.5043201 2.4982045
-7.8929615 4.4187365 2.5030441
-6.6766529 4.4682541 2.5211539
-6.5540218 4.4596186 2.534652
28.366516 4.4469767 2.5513563
28.417572 4.4352837 2.5502858
-29.437675 4.7000074 2.493557
-29.389141 4.7464275 2.592
-13.28974 4.6801324 2.4951429
-13.184978 4.717926 2.4932909
-9.91712 4.6309834 2.5011976
-9.7806244 4.6026235 2.5000002
-29.422451 4.8928175 2.4619548
-29.383297 4.9179206 2.5469346
-13.29423 4.8735776 2.4848602
-13.135637 4.901546 2.4642019
-9.8985348 4.9233274 2.4786429
-9.7972002 4.9735985 2.5292006
-29.412857 5.0525222 2.4308574
-29.368925 5.0999613 2.5092978
-13.267198 5.0960698 2.5024757
-13.047256 5.0550241 2.4958766
-12.991774 5.1339641 2.4869354
-9.891284 5.0813203 2.5173554
-9.7945004 5.0356655 2.5690002
-7.8181181 5.1820555 2.4983234
-7.7347603 5.165875 2.4930346
28.386402 5.1899986 2.4196
28.440212 5.1779985 2.4143572
29.127001 5.1839981 2.4130001
-29.41 5.2129979 2.4410002
-29.313763 5.2598276 2.4998164
-29.093166 5.3409367 2.4996114
-16.601 5.2709985 2.5839996
-16.495539 5.3235145 2.5125568
-13.249374 5.2817755 2.4843779
-13.080338 5.2770662 2.4882181
-12.992636 5.2164078 2.5036371
-9.8645554 5.2057762 2.588778
-7.8192024 5.2524223 2.5016162
-7.7130032 5.2718401 2.5024137
-6.5999999 5.3989987 2.401
28.352577 5.3254766 2.4763937
28.477797 5.2727985 2.5101542
28.697721 5.3413091 2.5734138
28.912172 5.3552842 2.5865149
29.049408 5.3608222 2.5829997
29.319921 5.3474641 2.5334277
-29.270168 5.5928316 2.4675834
-29.090086 5.5020304 2.4981318
-19.817667 5.5896649 2.5896671
-19.747002 5.5858731 2.5847809
-16.489632 5.4701986 2.4911406
-16.345659 5.5519156 2.4921703
-13.226091 5.5090103 2.4898987
-13.087087 5.5246468 2.4780822
-9.7191563 5.5511608 2.5005584
-9.5869999 5.5569983 2.5560002
-6.6220894 5.5278935 2.4552274
-6.5726399 5.5306091 2.4581852
28.352352 5.4856648 2.514173
28.465303 5.5387926 2.4901824
28.728773 5.5262785 2.5624037
28.895824 5.4968429 2.5795865
29.059225 5.5060701 2.5865719
29.317209 5.4889498 2.5291343
-29.270817 5.7150779 2.4957273
-29.106056 5.6122417 2.5128648
-19.82069 5.6649394 2.5071177
-19.715384 5.700366 2.5080843
-16.518375 5.7022667 2.5126569
-16.287498 5.7009745 2.4961312
-13.210553 5.6501231 2.5388584
-13.124224 5.670754 2.5261536
-9.7265587 5.6584768 2.5004044
-9.5966673 5.6483321 2.5016675
-7.6146669 5.7516651 2.4100006
-7.5582633 5.7483206 2.4488087
-6.6120653 5.6525054 2.540803
-6.5665674 5.6660652 2.5438828
28.365833 5.6140809 2.582417
28.466352 5.6187334 2.5752945
28.703741 5.6085205 2.5766954
28.89856 5.6126785 2.5851197
29.054718 5.6091413 2.5938582
-29.242376 5.9019871 2.4935927
-29.190624 5.9759979 2.5679996
-19.674078 5.8527184 2.4682932
-16.50885 5.9200239 2.4812226
-16.35351 5.9278212 2.4723458
-7.5402069 5.8717461 2.5375495
-29.227846 6.0764194 2.4598997
-29.183863 6.1061106 2.5479443
-23.046 6.1778708 2.5745645
-22.995335 6.1953311 2.5770006
-19.684744 6.0863647 2.4999549
-19.527779 6.1151118 2.4996192
-16.453791 6.0922241 2.4999108
-16.352009 6.0947404 2.5163431
-29.2115 6.2173738 2.4463749
-29.124592 6.2419195 2.5015469
-28.958073 6.3088522 2.4997797
-23.042093 6.2584858 2.4983544
-22.981594 6.3279414 2.5105057
-19.638453 6.3219595 2.5106065
-19.527699 6.2806993 2.4984322
-16.427849 6.212882 2.5869617
-16.374302 6.2058983 2.5933003
-29.124214 6.5252748 2.4999714
-28.9723 6.411798 2.4975002
-23.052563 6.4998398 2.5193863
-22.961205 6.4708142 2.4743314
-19.639336 6.5209508 2.4822135
-19.585833 6.5545931 2.46416
-6.6040001 6.5919981 2.4414999
-6.5302105 6.5740499 2.4193683
-2.1040001 6.5329986 2.506
-29.105591 6.6875381 2.5001106
-23.033321 6.7648196 2.5111437
-22.866024 6.7598033 2.4972928
-19.664551 6.7436175 2.4559848
-19.570311 6.7051759 2.4976246
-7.4206052 6.7651033 2.4294739
-7.3432627 6.7567616 2.4438338
-7.0620008 6.7847595 2.5328798
-6.8850598 6.7704978 2.5358829
-6.6998944 6.7477088 2.5389209
-6.5087948 6.7235751 2.4774318
-2.072 6.6129975 2.493
-29.070019 6.9026446 2.5008655
-28.444683 6.9704204 2.4990525
-28.354481 6.9737673 2.4901783
-26.535 6.9969978 2.5940003
-23.022184 6.9904079 2.5450912
-22.855782 6.9171276 2.4998841
-22.790352 6.912003 2.4941227
-19.661072 6.8431292 2.5478108
-19.571514 6.8387589 2.5605998
-7.4092073 6.882308 2.4708605
-7.3303738 6.9062672 2.4929905
-7.0959492 6.8879757 2.5285919
-6.8977752 6.9112692 2.5301349
-6.703373 6.9274673 2.5371196
-6.5005226 6.8935442 2.5025673
-29.042871 7.0726347 2.4901485
-28.884638 7.1553259 2.4957495
-28.78594 7.1735873 2.5574715
-28.461334 7.125248 2.4997506
-28.329468 7.0744371 2.4959447
-26.633543 7.0585823 2.4920418
-26.494862 7.1016564 2.4973662
-23.039997 7.031209 2.5462112
-22.860891 7.1492519 2.4474068
-7.3336029 7.0827837 2.5168993
-7.097661 7.0425 2.5333235
-6.9083037 7.0205698 2.5391068
-6.7443333 7.0080814 2.5498335
-6.4948225 7.0308862 2.5741611
-29.007 7.3359985 2.4370003
-28.892788 7.3203897 2.4858704
-28.779221 7.2546058 2.5264714
-26.626688 7.2073736 2.4924371
-26.537458 7.2075109 2.5054855
-23.000999 7.2019987 2.4720006
-22.829546 7.298923 2.489614
-22.794523 7.3677793 2.4925418
-7.3269467 7.2107878 2.5881052
-28.85413 7.4668589 2.486342
-28.765055 7.5608163 2.5178308
-22.877785 7.4745402 2.5103254
-22.790741 7.4547787 2.5438774
-28.682692 7.6790299 2.4941633
-28.517092 7.7667489 2.5068123
-28.26376 7.7531013 2.5044773
-28.610001 7.8199978 2.4190004
-28.456291 7.9536891 2.4956179
-28.251915 7.8746481 2.4925363
-28.19105 7.8544493 2.5701001
-28.418516 8.0341816 2.4620373
-28.327108 8.1222353 2.5074046
-28.235506 8.2455082 2.4862883
-28.150465 8.3401899 2.5144775
-28.064823 8.4565763 2.4895432
-27.952002 8.5429955 2.5163808
-27.669601 8.5287399 2.4961159
-27.595837 8.5808306 2.5709999
-27.818001 8.7888546 2.466857
-27.666046 8.6953278 2.4975283
-27.588566 8.6215611 2.5532613
-27.811251 8.8342457 2.4175005
-27.712618 8.9130192 2.5026128
-27.630762 9.0369549 2.4749773
-27.553797 9.1224108 2.5077929
-27.257702 9.1843557 2.5052397
-24.895426 9.1845989 2.4952693
-4.6869998 9.0409966 2.5589998
-27.473995 9.2347145 2.4888437
-27.251913 9.2992496 2.4928067
-27.189505 9.2859535 2.5393326
-25.014999 9.211997 2.4800005
-24.856871 9.2905464 2.4996855
-27.280399 9.4982796 2.4938602
-27.191353 9.5776424 2.5598822
-24.868101 9.4052954 2.4839997
-27.216501 9.6167107 2.4376431
-27.123707 9.7059975 2.5029714
-27.033083 9.8436251 2.4786296
-26.978706 9.8949375 2.5217059
-26.662132 9.9320402 2.4932091
-26.588182 9.9852715 2.5626822
-26.809 10.175996 2.4389999
-26.681068 10.086657 2.4889343
-26.58852 10.015774 2.532593
-26.032574 10.109766 2.4952989
-25.980686 10.121296 2.4994864
-2.8370154 10.125128 2.5377669
-2.7424145 10.138208 2.5355065
0.37868515 10.160312 2.5058703
0.48153022 10.165567 2.5052645
3.5362453 10.137325 2.5398111
3.6398208 10.138737 2.5327482
6.7236099 10.180262 2.5796802
6.8211746 10.182823 2.576304
10.0145 10.175997 2.5855002
13.16125 10.155746 2.5842497
13.231 10.190996 2.5889997
-26.684902 10.307032 2.4977293
-26.590668 10.383829 2.5741673
-26.240202 10.387796 2.5486002
-26.094387 10.205383 2.5033083
-2.8380969 10.277512 2.4804347
-2.716897 10.279435 2.4789083
0.38501179 10.247046 2.4566
0.50875545 10.272705 2.4585726
3.5208724 10.286617 2.4865568
3.6550751 10.254969 2.457401
6.7061038 10.30509 2.5050046
6.8335781 10.294035 2.4934909
9.9173756 10.324692 2.52912
10.027925 10.329876 2.5247793
13.140131 10.320232 2.5220194
13.242566 10.326469 2.5211573
16.358 10.398996 2.5970004
-26.620655 10.41741 2.4489305
-26.586571 10.428177 2.5069997
-26.223551 10.486948 2.476963
-26.187244 10.535973 2.5394313
-6.0346889 10.547618 2.5473249
-5.9240732 10.545771 2.5406816
-2.8246553 10.430861 2.4332414
-2.6939898 10.51032 2.4952083
-2.586 10.598996 2.4620004
0.3888 10.418797 2.4556003
0.55629724 10.565666 2.4973145
0.62270832 10.585808 2.4970222
3.5300198 10.466121 2.4661441
3.6595523 10.459022 2.4761841
6.7004619 10.478056 2.4791203
6.8438773 10.475486 2.4725101
9.8983383 10.48673 2.5002577
10.035355 10.489025 2.4932094
13.128781 10.483367 2.4888585
13.257965 10.490534 2.4913945
16.351068 10.516537 2.5124063
16.464539 10.519593 2.5226827
19.537998 10.545444 2.5492594
19.626265 10.556524 2.5555
22.577677 10.575024 2.5743206
22.658836 10.575336 2.576623
25.92581 10.586229 2.5900369
-26.270407 10.738544 2.4959095
-26.177782 10.676592 2.5137429
-6.0300231 10.689453 2.4902296
-5.8939714 10.681961 2.4880021
-2.8072059 10.742469 2.4703834
-2.7156973 10.656481 2.5016806
-2.5531318 10.699078 2.4971623
0.39428574 10.770283 2.464715
0.49449998 10.699276 2.4989231
0.63869059 10.709003 2.4980602
3.5542867 10.699763 2.5054212
3.7480299 10.675455 2.5040874
3.8195336 10.682329 2.4760668
6.7319307 10.711203 2.5004349
6.9179997 10.689635 2.5116074
9.9160166 10.72603 2.5059412
10.101488 10.704224 2.5003958
13.159231 10.724377 2.4931524
13.3157 10.718351 2.5005119
13.413 10.706996 2.5740001
16.330307 10.68169 2.4835534
16.482412 10.680343 2.4862375
19.53372 10.669258 2.4668231
19.635332 10.692103 2.4925661
22.576813 10.684931 2.4870493
22.667484 10.678562 2.4830828
25.909973 10.705559 2.5054729
26.007534 10.680497 2.5193212
29.134439 10.747873 2.5482724
29.237785 10.745234 2.5457861
29.489836 10.697838 2.5017397
-26.230251 10.812331 2.4289165
-26.08872 10.848984 2.4914656
-25.904871 10.935198 2.4995456
-25.769838 10.982801 2.5491397
-25.256001 10.997997 2.5910001
-25.15715 10.986188 2.5397022
-6.014565 10.831779 2.4434354
-5.8817725 10.85154 2.4505999
-2.8241303 10.830519 2.5226963
-2.7103057 10.837509 2.514971
-2.5677209 10.807068 2.5072219
0.38272581 10.926741 2.4992254
0.51398319 10.927399 2.4891798
0.62803912 10.808744 2.5098042
3.5583005 10.906645 2.4910905
3.6894853 10.943955 2.4529834
3.8083332 10.822741 2.5092564
6.7372074 10.901114 2.4977632
6.8884077 10.94381 2.4624164
9.9168444 10.897449 2.5094361
10.103294 10.892914 2.5022261
13.167247 10.898041 2.4964528
13.353909 10.885475 2.498672
16.339516 10.897404 2.507194
16.547396 10.880944 2.501719
18.965 10.889997 2.4090002
19.520725 10.90839 2.5034168
19.705774 10.890987 2.4984078
22.57571 10.885127 2.4746778
22.761566 10.941803 2.4981894
22.810528 10.95253 2.5057552
25.864082 10.88171 2.4784749
26.04825 10.874749 2.4367502
29.121721 10.89481 2.4920173
29.25403 10.858454 2.448314
29.478125 10.884408 2.4888928
-25.811998 11.005246 2.4372501
-25.688639 11.04179 2.4912577
-25.521534 11.123111 2.5050573
-25.259838 11.021132 2.4917033
-25.133619 11.095461 2.4985745
-9.2647533 11.136219 2.5323644
-9.1615343 11.133155 2.5241504
-6.0358181 11.194906 2.5023637
-5.9036026 11.109006 2.5054963
-5.7524066 11.133549 2.5130234
0.39325002 11.004996 2.5922506
0.47632831 11.010793 2.5742671
3.5756352 11.012998 2.5226831
3.6628349 11.020049 2.5103273
6.7561097 11.032265 2.5345199
6.8649454 11.035622 2.5322909
9.9215498 11.065157 2.5279627
10.039223 11.057043 2.526067
13.163771 11.081503 2.5108082
13.290378 11.093554 2.5085795
16.32766 11.084915 2.5140162
16.540052 11.061947 2.5186338
16.601 11.000998 2.4029999
19.508717 11.103619 2.4957566
19.713642 11.085363 2.495183
22.561632 11.089031 2.4900844
22.6015 11.097496 2.4755001
25.881216 11.104833 2.5032315
26.100115 11.024267 2.4931152
29.124029 11.113224 2.4911513
29.227093 11.105452 2.5689096
29.478092 11.064905 2.4712954
-25.212824 11.274172 2.4502354
-25.102943 11.304124 2.4968634
-24.957067 11.378895 2.5220113
-9.269062 11.290422 2.4884548
-9.1462736 11.290777 2.487443
-6.092916 11.27411 2.5018606
-5.8565826 11.320641 2.5206041
-5.7509747 11.265635 2.5224938
13.176 11.199998 2.5980008
13.257999 11.20433 2.5860002
19.513031 11.250157 2.5194192
19.648214 11.256354 2.515234
22.562727 11.235723 2.5664544
22.626999 11.223997 2.4830003
25.875364 11.27801 2.5145688
29.10844 11.29179 2.5036273
29.474834 11.274662 2.4258337
-24.875378 11.432425 2.4824944
-24.698339 11.510632 2.4982162
-24.547388 11.575397 2.5179338
-23.964001 11.598997 2.533
-12.46586 11.558479 2.556828
-12.373843 11.560732 2.5487189
-9.2435732 11.427998 2.4291143
-9.0971203 11.555716 2.4901695
-8.9646502 11.586438 2.5216508
-6.0924344 11.414998 2.4948702
-5.8336463 11.414762 2.5727654
29.110369 11.416736 2.5568953
29.456949 11.55358 2.4686589
-24.465141 11.62854 2.4821124
-24.327505 11.691744 2.4959874
-24.064709 11.650558 2.5037308
-23.921883 11.696988 2.5037842
-12.473636 11.695448 2.4952955
-12.351578 11.679483 2.4866991
-9.2089996 11.640311 2.5809999
-9.1526413 11.693309 2.5022173
-8.9440441 11.684945 2.4967999
3.8438029 11.726656 2.4241066
29.43701 11.69913 2.4977922
-24.016666 11.850665 2.5110006
-23.895079 11.892822 2.4947143
-23.744661 11.970747 2.5094371
-15.63 11.996996 2.579
-15.577 11.991497 2.5912509
-12.44769 11.860732 2.4709358
-12.342884 11.867067 2.4684892
-9.1181221 11.871313 2.5115523
-8.9723043 11.810604 2.4616528
3.8653212 11.913739 2.4729018
29.428328 11.905024 2.4978213
-23.650982 12.025773 2.4854803
-23.500336 12.096288 2.4978523
-23.347441 12.166506 2.5035129
-23.075512 12.114227 2.4996133
-22.97282 12.143476 2.504642
-18.890875 12.186872 2.589251
-15.648728 12.081985 2.5031791
-15.546567 12.121128 2.5112429
-12.433263 12.172536 2.5007253
-12.30923 12.155847 2.4999609
-12.174002 12.162306 2.5051847
3.8842025 12.087858 2.5243087
29.421225 12.099374 2.4956837
-23.270821 12.223322 2.4763675
-23.038393 12.357327 2.5050926
-22.967833 12.243381 2.4918747
-18.850033 12.282537 2.5127888
-18.787008 12.357222 2.519145
-15.6465 12.241497 2.5729995
-15.52323 12.260665 2.4870892
-12.418303 12.263981 2.5065112
-12.332724 12.343552 2.4817653
-12.165929 12.311686 2.4972739
3.9011605 12.268068 2.5629468
29.3985 12.317997 2.5864997
29.415915 12.296948 2.4952579
-23.013067 12.418119 2.4764309
-22.929653 12.512382 2.5019336
-22.413376 12.548623 2.4992499
-22.278528 12.539017 2.5040312
-18.8512 12.503871 2.4996958
-18.769142 12.46699 2.4668031
-15.374715 12.583283 2.5339999
-12.403601 12.428596 2.5042
-12.333672 12.455877 2.5205426
29.437054 12.437841 2.5119205
-22.834579 12.643386 2.4922862
-22.766577 12.728832 2.4990125
-22.246141 12.648515 2.4933658
-22.200001 12.640997 2.4130001
-15.605542 12.694625 2.4570589
-15.534725 12.689163 2.4668121
-15.356879 12.711596 2.5093822
-22.657745 12.880384 2.4958191
-22.552597 12.9757 2.513001
-22.367252 12.974716 2.5071521
-22.053339 12.977385 2.5760345
-21.977505 12.980444 2.5746832
-15.612786 12.926155 2.47258
-15.503416 12.925491 2.4854107
-15.357767 12.852338 2.4992795
-22.480175 13.092219 2.4952488
-22.344456 13.04491 2.4878383
-22.048965 13.069063 2.4802003
-21.941856 13.116053 2.5057359
-18.813677 13.140614 2.460794
-18.710812 13.124157 2.4538422
-18.565928 13.154871 2.4905572
-15.6035 13.011997 2.5734997
-15.502974 13.033482 2.5499787
5.1717916 13.184873 2.5025015
5.2598276 13.180919 2.493001
-22.410336 13.216871 2.4498763
-22.345745 13.293199 2.4925566
-22.05225 13.290247 2.5072508
-21.915148 13.262017 2.466826
-18.838001 13.372747 2.4327502
-18.657793 13.354141 2.4809451
-18.558659 13.265096 2.4888153
5.1435304 13.259405 2.4978571
5.2921386 13.277927 2.4995513
-22.263474 13.429622 2.4863925
-22.144627 13.585875 2.5798755
-21.840168 13.591663 2.5716662
-18.82275 13.438121 2.5186248
-18.697414 13.451969 2.5290956
-1.8519249 13.501375 2.4936113
-1.749791 13.512094 2.4879804
-22.084333 13.66622 2.5175767
-21.892084 13.642029 2.4986024
-21.76115 13.700657 2.5021405
-3.3050001 13.796995 2.4080005
-1.8523934 13.690226 2.521606
-1.7170089 13.658449 2.5248594
18.324499 13.684776 2.4982586
18.409475 13.707912 2.4965558
-21.717253 13.893197 2.4994717
-3.4134998 13.915997 2.5355005
-3.2999458 13.916073 2.4884286
18.33325 13.821621 2.4794998
-21.685764 14.099167 2.4986634
-3.3044231 14.026758 2.5452228
-2.3435717 14.191568 2.5942855
0.7533859 14.162682 2.5679832
0.82953125 14.169245 2.5727501
3.8900585 14.16498 2.5697989
-21.659121 14.300237 2.4963779
-6.2227411 14.363886 2.4309626
-6.1391454 14.340878 2.4657364
-2.4521451 14.310635 2.5312181
-2.3186505 14.320076 2.5231771
0.75067544 14.297993 2.4791384
0.85653919 14.313042 2.5047016
3.8951604 14.29491 2.4865723
4.0019999 14.384996 2.4750009
6.987462 14.314074 2.5652776
7.0693374 14.319991 2.5440164
10.123772 14.359543 2.5562668
10.221929 14.359283 2.5649996
-21.807501 14.459997 2.447001
-21.695974 14.504696 2.5081644
-21.598 14.580997 2.5879998
-6.2145958 14.481785 2.5047064
-6.1538858 14.510057 2.5001826
-5.6245785 14.574575 2.5818939
-5.5172949 14.572455 2.575377
-2.444226 14.473671 2.4825592
-2.2616737 14.469692 2.4840569
3.8660293 14.475719 2.4742756
6.9950757 14.479586 2.5401807
7.0717392 14.482931 2.4704576
7.217 14.525997 2.4580011
10.096029 14.496147 2.5041442
10.226825 14.492407 2.4847851
13.3312 14.588198 2.5932002
13.4185 14.585496 2.5849996
18.332722 14.537517 2.5016303
18.403091 14.560362 2.498455
-21.706684 14.693712 2.4979043
-21.588953 14.742904 2.559443
-9.4801865 14.72303 2.4819856
-9.3863745 14.765998 2.4483752
-6.1601677 14.626896 2.5666676
-5.6166396 14.710268 2.5213289
-5.4828048 14.676935 2.4947958
-5.3925843 14.753078 2.4784718
10.272698 14.70153 2.4995804
13.339207 14.696924 2.5218253
13.427386 14.733267 2.526557
16.4524 14.779997 2.5860004
18.364809 14.646231 2.5011554
18.406334 14.627999 2.5266671
-21.686432 14.860434 2.455153
-21.565483 14.907953 2.504807
-9.5065327 14.8923 2.5067
-9.3755445 14.869125 2.5166864
-8.8257141 14.99014 2.5898576
-8.7248278 14.97815 2.5828609
16.391666 14.932329 2.5577769
16.460215 14.900089 2.5128808
19.559263 14.925432 2.5400004
19.65449 14.916534 2.5416431
22.549665 14.963913 2.5728326
22.626669 14.975498 2.570334
-21.533165 15.101608 2.4964147
-9.4685631 15.027246 2.5696249
-9.3934994 15.013997 2.5769997
-8.8130093 15.114973 2.5335531
-8.7188892 15.108341 2.4994659
19.554005 15.075773 2.4718471
19.713879 15.076516 2.4879322
22.540915 15.104552 2.4820356
22.672804 15.077767 2.4723864
25.885967 15.163198 2.5467086
26.028826 15.181583 2.4377646
-21.501652 15.304512 2.4989009
-8.8069267 15.237516 2.4471488
-8.7510195 15.30238 2.4965038
25.882772 15.297562 2.4916806
26.036501 15.269802 2.513555
28.976475 15.344701 2.5150242
29.066185 15.320126 2.5120988
-21.474257 15.499666 2.5004139
-18.442951 15.498744 2.5041213
-18.368845 15.517246 2.498054
-14.6165 15.587497 2.4112511
-14.547239 15.580276 2.42592
28.967384 15.497921 2.46842
29.085373 15.451788 2.4281402
-21.606752 15.768747 2.4222507
-21.450779 15.700212 2.500814
-18.403 15.600997 2.4415007
-18.395666 15.601997 2.4353347
-14.61718 15.69388 2.4848542
-14.530951 15.681974 2.5115418
-11.892497 15.731417 2.5416055
-11.791 15.767748 2.5670838
-21.615999 15.810997 2.4240003
-21.490341 15.898663 2.4987569
-21.395037 15.958317 2.5604792
-14.60575 15.804996 2.5729995
-14.505976 15.843534 2.5419488
-11.90459 15.874054 2.4764037
-11.770391 15.907843 2.5040321
-21.510313 16.098597 2.4913335
-21.380777 16.107836 2.5663095
-15.087627 16.129265 2.5449867
-14.987599 16.184595 2.5786004
-21.493767 16.297232 2.4843068
-21.359604 16.307642 2.558485
-15.085717 16.263985 2.4646745
-14.985413 16.323906 2.4901786
-21.465023 16.490089 2.4660501
-21.335464 16.511082 2.5242872
-18.251631 16.580822 2.584609
-18.191515 16.579681 2.5820699
-15.092622 16.500721 2.5084085
-21.440996 16.640963 2.4255667
-21.307983 16.695549 2.4923692
-18.263836 16.697443 2.5067973
-18.168633 16.72213 2.5215173
-21.275496 16.90086 2.5003872
-18.262634 16.829521 2.4228778
-21.242313 17.099129 2.4992113
-21.214937 17.269543 2.4945564
-21.192455 17.353178 2.5046496
-21.205143 17.430565 2.4552846
29.887802 -9.6273232 2.6330001
12.169333 -9.4889965 2.742667
12.308906 -9.5115566 2.7116692
12.472503 -9.5278778 2.7253964
15.78153 -9.5023718 2.7597175
15.901523 -9.5130329 2.7341156
19.332335 -9.5156631 2.7086906
19.463953 -9.522646 2.709801
22.910395 -9.5463562 2.654768
23.02446 -9.5404015 2.6867573
26.456137 -9.5404902 2.7473528
29.766687 -9.5565071 2.7441096
29.880562 -9.5388794 2.7266772
30.082104 -9.5033331 2.7022712
5.5285606 -9.2352123 2.7572269
12.312634 -9.3770304 2.7846344
12.412 -9.3784428 2.7880003
15.7945 -9.3979959 2.7950003
15.900913 -9.3802948 2.7861063
22.895727 -9.2729378 2.7016137
23.008249 -9.2389965 2.7357502
26.370796 -9.2812252 2.7066731
26.449808 -9.2825117 2.7224941
29.991014 -9.2836905 2.6959383
30.047489 -9.2858391 2.6743751
2.2204447 -9.0940437 2.6852384
5.527751 -9.1221428 2.6772723
5.6096845 -9.1229954 2.6800001
22.91783 -9.1461086 2.6929934
23.009777 -9.1468849 2.6726665
26.38135 -9.1730499 2.6423678
26.444195 -9.1535311 2.6729131
29.988861 -9.1544724 2.760596
30.076485 -9.0958424 2.6893454
30.306614 -9.0463905 2.631078
30.491903 -9.0570679 2.6461678
30.638393 -9.0989265 2.6849999
1.9717062 -8.9474077 2.7718234
2.082098 -8.965538 2.7262297
2.214 -8.989996 2.6020002
5.5380001 -8.9979973 2.5999997
30.103758 -8.9190931 2.7304981
30.300564 -8.9184313 2.7193205
30.460436 -8.9346447 2.7224081
30.625835 -8.9808302 2.7823334
31.066999 -8.4639969 2.7455006
32.112202 -8.4797974 2.7667997
33.31086 -8.5438547 2.7577143
35.384998 -8.5502472 2.7775006
35.431252 -8.5499973 2.7577496
-1.3253913 -8.3506699 2.7665219
31.091633 -8.29883 2.7803667
31.2155 -8.2834969 2.7749999
32.134083 -8.2557669 2.7726154
32.235001 -8.229496 2.7370005
33.318249 -8.3294964 2.7590001
35.379002 -8.3549957 2.7739997
35.484001 -8.3394966 2.7635
30.9935 -8.0134964 2.7038341
31.060295 -8.0885954 2.7504547
32.151543 -8.1079607 2.7647722
32.235332 -8.1279964 2.7446668
33.30442 -8.0329142 2.7623336
30.993376 -7.9691229 2.7190001
31.039171 -7.9192386 2.7490215
31.366146 -7.8127127 2.7262866
31.443399 -7.8107986 2.6773994
32.170135 -7.8805981 2.765733
32.200001 -7.8569984 2.7479999
33.303772 -7.9238439 2.7536542
29.9505 -7.6694984 2.7925005
30.994335 -7.690999 2.7823336
31.038103 -7.7038593 2.7733455
31.35919 -7.7342567 2.7188363
31.413591 -7.7145295 2.7119696
32.181286 -7.6999288 2.7751434
32.216999 -7.663599 2.7516
33.306904 -7.7295656 2.7480335
35.389168 -7.6443324 2.7845006
35.437668 -7.6416655 2.7516665
29.874533 -7.4779329 2.7398009
30.004 -7.5199986 2.723
30.989473 -7.4991169 2.7779417
31.054161 -7.5216236 2.7645636
31.378824 -7.5093374 2.7414205
31.401499 -7.5519991 2.7302499
32.196625 -7.5234985 2.7832506
32.219414 -7.4924202 2.768579
33.30019 -7.4949169 2.7326219
33.417 -7.4099979 2.654
35.38567 -7.5233316 2.7823327
35.431202 -7.5191994 2.7504003
36.505501 -7.4694986 2.7990005
36.643337 -7.4739981 2.7900004
-7.8988609 -7.2632685 2.6836057
29.875193 -7.3244982 2.7041667
30.977457 -7.3504539 2.7752726
31.070919 -7.3484144 2.7558339
31.301003 -7.3798571 2.6923571
32.199001 -7.3999982 2.7929997
32.235096 -7.3100948 2.7772853
33.294327 -7.3152399 2.695879
33.434998 -7.2124977 2.7055004
35.387768 -7.3036928 2.7851546
35.425877 -7.2899981 2.7532496
36.465649 -7.2639275 2.7622142
-8.0529232 -7.1165886 2.7337143
-7.9458351 -7.104291 2.7328932
29.861391 -7.0439215 2.698952
30.145144 -7.0197535 2.6764143
30.289576 -7.0150313 2.665813
30.478731 -7.0138674 2.6564782
30.615 -7.0459991 2.7459998
30.971001 -7.1559982 2.7870004
31.171 -7.0149984 2.7269998
31.907499 -7.0637484 2.6440001
32.147408 -7.0763683 2.6977403
32.240295 -7.1344695 2.7448232
32.987999 -7.0274987 2.6185007
33.057999 -7.0179987 2.6650004
33.296616 -7.0537715 2.7259994
33.426498 -7.0294981 2.6524999
33.695499 -7.007998 2.6430001
35.38686 -7.1497126 2.7862859
35.423126 -7.1293726 2.756125
36.518337 -7.1136651 2.771667
36.637997 -7.0737996 2.7887995
-8.0283127 -6.9821858 2.7881255
-7.9508328 -6.9892764 2.7926669
-4.4326296 -6.8605547 2.7190006
-4.3177485 -6.852006 2.7165704
29.911739 -6.9586363 2.7039587
30.068192 -6.9633198 2.693774
30.280867 -6.9695997 2.6738675
30.474998 -6.9952621 2.6613693
30.74 -6.980999 2.6800008
30.943001 -6.934248 2.7405002
31.3085 -6.9499979 2.6715002
32.276001 -6.895998 2.7650006
33.284801 -6.9763985 2.7578003
33.9925 -6.9959984 2.6304996
34.021999 -6.9919982 2.6595006
34.29475 -6.9832487 2.6660008
34.505249 -6.9572487 2.7507503
35.762501 -6.9434981 2.6494994
36.123501 -6.9314976 2.7014999
36.201 -6.921999 2.7550001
36.518501 -6.9164982 2.7579999
36.672249 -6.9494982 2.7867501
37.083 -6.9169984 2.6139998
-4.4289641 -6.7152328 2.691309
-4.3089108 -6.7224236 2.6873379
30.100529 -6.6793547 2.7201507
30.221098 -6.777998 2.6715
-11.304608 -6.5042152 2.7319484
-11.313481 -6.3842945 2.7893341
-14.808798 -5.9511323 2.6950665
-14.68885 -5.8846421 2.6687388
-14.586303 -5.9454985 2.7388005
-20.103891 -5.6154423 2.6247778
-19.906233 -5.6301527 2.6340771
-14.809999 -5.7439985 2.7160001
-14.696005 -5.7200217 2.742065
-14.597667 -5.7679987 2.778667
-21.223 -5.402998 2.612
-21.087 -5.4258652 2.6151338
-20.877394 -5.4374719 2.6483161
-20.69618 -5.4499297 2.6719313
-20.506227 -5.4709535 2.6792431
-20.22105 -5.505949 2.6816497
-20.101116 -5.5144978 2.7206402
-19.903322 -5.5223589 2.7435007
-19.680916 -5.5540724 2.7589402
-19.2796 -5.5438986 2.7210002
-19.04067 -5.5150261 2.6782036
-18.990927 -5.5137568 2.6450558
-18.136574 -5.4895701 2.6781437
-17.907137 -5.4901524 2.6885324
-22.072802 -5.2197986 2.6042004
-21.933113 -5.2295547 2.6098895
-21.68556 -5.2333732 2.6509378
-21.414749 -5.2866488 2.6839006
-21.311642 -5.2738156 2.6975837
-21.105791 -5.3134394 2.7159586
-20.912128 -5.3508849 2.7187462
-20.723831 -5.3581705 2.7502003
-20.518187 -5.3676233 2.7780006
-20.286726 -5.2668238 2.6835222
-19.919001 -5.2793326 2.616334
-19.548183 -5.282877 2.6496778
-19.216 -5.3869982 2.7029996
-19.085571 -5.3546696 2.7594261
-18.986799 -5.3654971 2.7774997
-18.053362 -5.2726679 2.6451917
-17.943161 -5.3117676 2.7078505
-22.842249 -5.0039983 2.6367502
-22.73382 -5.0079989 2.6461821
-22.466896 -5.0592251 2.6682668
-22.295284 -5.0728912 2.691474
-22.097841 -5.1080828 2.7022779
-21.955242 -5.1407552 2.6926937
-21.6745 -5.1496983 2.7520003
-21.403999 -5.1743317 2.738667
-21.351862 -5.1046991 2.6999071
-20.295706 -5.1848221 2.7645292
-20.016001 -5.0309987 2.7280002
-19.86261 -5.061986 2.6870608
-19.703505 -5.0804486 2.6979623
-19.500221 -5.0998859 2.7353959
-19.384621 -5.1079297 2.7864828
-18.040033 -5.1313219 2.7395034
-17.965128 -5.1373596 2.7590647
26.2635 -5.0014982 2.7985001
-23.862 -4.8164988 2.6080008
-23.636333 -4.809165 2.6273334
-23.532501 -4.8544979 2.6285
-23.263647 -4.8810496 2.6769004
-23.09376 -4.893796 2.6973391
-22.908249 -4.9281521 2.6983232
-22.726431 -4.9277601 2.7308099
-22.455841 -4.9005442 2.697247
-22.369734 -4.9917984 2.7628002
-21.5315 -4.829998 2.6215
-21.282074 -4.9034767 2.6862926
-20.039936 -4.9457483 2.7822499
-19.906231 -4.9757938 2.7706578
-19.794334 -4.9899979 2.7793329
12.520989 -4.8335247 2.7357039
12.612026 -4.828867 2.7563682
15.958542 -4.8716288 2.7061396
16.057959 -4.8645983 2.7130103
19.351049 -4.9002008 2.7078381
19.505125 -4.8716955 2.7000268
19.601749 -4.818624 2.7187505
22.742243 -4.8726931 2.7060633
22.881033 -4.9013095 2.7002931
26.193256 -4.8365722 2.6595957
26.235224 -4.914093 2.7041521
26.418314 -4.9829702 2.7075143
-24.664499 -4.6160979 2.6183999
-24.48003 -4.6404848 2.6281824
-24.279469 -4.6411648 2.6664689
-24.102442 -4.6666017 2.685123
-23.947123 -4.6973066 2.6965694
-23.671349 -4.7301712 2.7167239
-23.561987 -4.6841364 2.6954927
-23.29775 -4.7857485 2.7795005
-23.011499 -4.6544981 2.6280003
-22.89855 -4.6277723 2.6527505
-22.617638 -4.7080898 2.6840911
-22.489815 -4.7215524 2.7091665
-21.457956 -4.6611795 2.6359
-21.315674 -4.7085824 2.6977835
2.3699486 -4.6123261 2.7791901
2.4404361 -4.6142216 2.774437
5.7231417 -4.6445594 2.7257028
5.8299346 -4.6398125 2.7081873
9.1348858 -4.6699629 2.7178202
9.2545872 -4.6770272 2.711338
12.490419 -4.708416 2.6894906
12.691312 -4.6958132 2.6978538
15.95088 -4.7016339 2.6972699
16.17057 -4.7187042 2.6990087
16.203129 -4.6699657 2.7071939
19.3381 -4.7003713 2.6997204
19.547558 -4.6867085 2.6965141
19.602146 -4.7335339 2.7121432
22.732594 -4.6916623 2.6856208
22.923819 -4.6705217 2.6671119
26.190762 -4.7036991 2.7273326
26.247999 -4.7025928 2.6869364
26.432213 -4.7693901 2.6653528
-24.634031 -4.4775853 2.6835225
-24.50075 -4.5417776 2.7172508
-24.323992 -4.5561109 2.7370791
-24.125299 -4.5625157 2.7796302
-23.9652 -4.5893979 2.7870002
-23.646261 -4.4948258 2.6923804
-23.56719 -4.5356202 2.6678653
-23.244635 -4.4200439 2.6678183
-23.129383 -4.4544001 2.6638327
-22.866709 -4.498435 2.6706448
-22.738928 -4.4845562 2.7407861
-21.440639 -4.5137491 2.7348502
-21.344877 -4.5149565 2.7549598
2.359292 -4.5064688 2.7023621
2.46104 -4.5414591 2.6845803
5.7027965 -4.5051284 2.6970692
5.9000325 -4.5065994 2.6949189
9.1428213 -4.5009279 2.700604
9.3583775 -4.4989653 2.6998937
9.4029999 -4.4474983 2.6500001
12.497689 -4.5074444 2.6998386
12.683992 -4.5045843 2.6969302
15.953802 -4.5002379 2.688992
16.124207 -4.5044208 2.6951323
16.204668 -4.5821648 2.7063336
19.34691 -4.4927444 2.6923187
19.448996 -4.5076923 2.7065983
22.746964 -4.5448875 2.6899858
22.84721 -4.5483022 2.6658096
26.186935 -4.5803981 2.7874007
26.266169 -4.5646605 2.7686238
-24.816999 -4.2313328 2.6540003
-24.636093 -4.2990375 2.6930752
-24.590237 -4.2980762 2.7202353
-23.449001 -4.2802706 2.7583635
-23.29052 -4.3393416 2.7200828
-23.185644 -4.3910694 2.6891429
-22.820999 -4.3914981 2.7740002
-22.771503 -4.3906651 2.7874999
-4.2173338 -4.2036653 2.7910004
-4.1702499 -4.2059994 2.7872505
-1.005 -4.2494984 2.7495005
-0.8992101 -4.2635984 2.7059431
-0.76955974 -4.2256427 2.6966183
2.3732193 -4.2978668 2.6974101
2.5531867 -4.3482375 2.6875734
2.615144 -4.2927508 2.6833091
5.7311468 -4.313899 2.689796
5.9205327 -4.3101072 2.6991882
9.1516027 -4.2944207 2.6936893
9.2885427 -4.2932749 2.6974485
12.504191 -4.2989039 2.6969724
12.643162 -4.3106556 2.7059164
15.965353 -4.317791 2.7068453
16.097948 -4.3145108 2.7153101
19.347578 -4.3839436 2.7814445
19.426062 -4.3848562 2.7822452
22.7605 -4.3919983 2.7845001
22.872999 -4.3869982 2.7896671
-25.312017 -4.0541945 2.656414
-24.8214 -4.1633987 2.7508001
-24.624302 -4.096509 2.690371
-24.596334 -4.0379992 2.7611117
-4.2524242 -4.1042972 2.718926
-4.0581684 -4.1033692 2.7025146
-1.01 -4.1844978 2.6790001
-0.94712096 -4.0980768 2.701031
-0.75748682 -4.0874224 2.7003331
2.3871641 -4.1343093 2.6856623
2.4492571 -4.1176357 2.6993196
2.6273675 -4.180202 2.6986737
5.733788 -4.0990114 2.6950123
5.8702164 -4.0804319 2.6820397
9.1573305 -4.1216655 2.7250586
9.2747946 -4.1107826 2.714304
12.522353 -4.1603498 2.76475
12.634448 -4.1690588 2.7686327
15.979877 -4.1918731 2.7928753
16.08604 -4.1869974 2.7869616
-25.609144 -3.8301423 2.6208572
-25.497616 -3.8763118 2.6771448
-25.350622 -3.9580994 2.734
-24.8395 -3.8209994 2.6120002
-24.663431 -3.9057157 2.6915269
-24.598001 -3.9573746 2.7631249
-4.2391682 -3.9417417 2.7218671
-4.0766897 -3.9455314 2.6974597
-3.9955001 -3.9604993 2.6590004
-0.89307499 -3.8622618 2.6716754
-0.77967042 -3.8631725 2.6769195
2.3960938 -3.9486928 2.6607733
2.4462652 -3.8748264 2.6849556
5.7442398 -3.9473476 2.7435153
5.8552289 -3.9361081 2.7390099
9.1800003 -3.999999 2.7880003
9.272625 -3.9927492 2.7902503
-25.840294 -3.6246462 2.6293528
-25.701447 -3.6962211 2.6632228
-25.565632 -3.6966376 2.6991322
-24.838776 -3.7039993 2.7048888
-24.690426 -3.7136791 2.7216978
-4.2189813 -3.6742067 2.6952341
-4.0946608 -3.6794267 2.6806879
-0.87484133 -3.6777399 2.672725
-0.77634555 -3.6988702 2.6997499
2.4694965 -3.7281814 2.7320733
-26.045368 -3.4416316 2.6492252
-25.914841 -3.5043962 2.7004814
-25.648581 -3.5059993 2.6880574
-25.559752 -3.5349789 2.7128124
-24.819 -3.592999 2.7839999
-24.723181 -3.579 2.7856364
-7.6040001 -3.4099996 2.6490002
-7.511548 -3.4220164 2.7078054
-7.3733406 -3.4264002 2.7074361
-4.2172861 -3.515686 2.7125432
-4.1111307 -3.5080409 2.7119665
-0.85494173 -3.5670493 2.7629163
-0.77845883 -3.5644746 2.7653368
-26.406 -3.2089989 2.6139998
-26.266233 -3.2571168 2.6561179
-26.112221 -3.3402438 2.7066224
-25.988001 -3.3889997 2.7689998
-7.6036248 -3.3589995 2.7177501
-7.5394645 -3.2794802 2.6997457
-7.3546143 -3.3099689 2.708595
-4.2137499 -3.3902493 2.7875004
-4.1354055 -3.3902962 2.789027
-26.621 -3.0099993 2.6010001
-26.455637 -3.0764532 2.6674542
-26.336786 -3.1178565 2.7019999
-7.5314298 -3.0434296 2.6394148
-26.816202 -2.8155992 2.6112003
-26.687187 -2.8699152 2.6814353
-26.518648 -2.8828914 2.7242703
-26.344511 -2.8923018 2.7024419
-10.87047 -2.850774 2.7138994
-10.703754 -2.8548894 2.6970682
-10.582144 -2.8350706 2.7082143
-7.5073695 -2.8946826 2.6839631
-7.3904204 -2.8571179 2.7112765
-27.017876 -2.6191239 2.6262503
-26.886574 -2.6789925 2.6907473
-26.753027 -2.7535074 2.7391145
-26.412251 -2.7884994 2.7255001
-26.342146 -2.7698278 2.7670856
-10.874426 -2.6980734 2.6967492
-10.67747 -2.6814795 2.707284
-10.595391 -2.6885207 2.7163048
-7.4919353 -2.7255235 2.721235
-7.3901892 -2.7382448 2.760849
-27.225821 -2.4192722 2.6347277
-27.090349 -2.4867451 2.6966548
-26.946819 -2.5663919 2.7547846
-10.831427 -2.4476864 2.6416776
-10.727189 -2.4510839 2.6425529
-7.543941 -2.5567641 2.7500587
-27.462749 -2.2082491 2.6212499
-27.234369 -2.3051214 2.6804421
-27.175535 -2.3015957 2.7432261
-14.216495 -2.253731 2.7241375
-14.105577 -2.2655945 2.702769
-13.986346 -2.2323947 2.6968141
-10.825401 -2.2919703 2.6893725
-10.707434 -2.2805164 2.678911
-27.652184 -2.0287855 2.6506784
-27.514874 -2.1020761 2.7079237
-27.2535 -2.1042132 2.6692498
-27.121284 -2.0961888 2.7090578
-26.997 -2.0039992 2.6140003
-14.213582 -2.1454623 2.6938372
-14.158073 -2.0363336 2.7063468
-13.96719 -2.1056504 2.6955864
-10.814851 -2.1411226 2.7378736
-10.726933 -2.1214964 2.7300856
-27.858677 -1.8428748 2.6571381
-27.722595 -1.9162587 2.709785
-27.5865 -1.9804999 2.7698336
-27.080526 -1.9496573 2.6867015
-26.993999 -1.9849997 2.605
-14.123311 -1.8774214 2.6579614
-28.062559 -1.6572108 2.6665597
-27.925911 -1.7312406 2.7186213
-27.792 -1.7849996 2.7876668
-17.463093 -1.6845528 2.7060294
-17.344257 -1.6288674 2.6987591
-14.09732 -1.6725709 2.6558039
4.1309271 -1.6260312 2.6977978
4.2184153 -1.6375827 2.6858666
-28.270279 -1.4661632 2.6774843
-28.133053 -1.5412469 2.7280815
-17.510263 -1.4851762 2.6737652
-17.293798 -1.4763533 2.697669
-14.060508 -1.5606766 2.7177539
-13.993 -1.5039998 2.7970004
4.1305404 -1.5467312 2.7001932
4.2280712 -1.5418739 2.7014332
-28.272795 -1.3072383 2.7003522
-28.190275 -1.2167268 2.7510908
-17.457945 -1.3770196 2.703702
-17.368189 -1.3903408 2.7236342
-10.646524 -1.2135746 2.7040505
-10.558 -1.2046872 2.6684375
-28.472473 -1.0625787 2.676316
-28.26828 -1.0678186 2.675735
-28.179981 -1.0926151 2.7095292
-20.862818 -1.074846 2.6674619
-20.699821 -1.0576091 2.6951127
-17.443501 -1.0372267 2.641046
-17.340631 -1.0288832 2.63065
-10.664272 -1.1165714 2.6993928
-10.548159 -1.1253102 2.6926084
-28.608 -0.82199985 2.6129999
-28.530146 -0.87957335 2.6978855
-28.265173 -0.98347032 2.7478237
-28.166668 -0.99066657 2.7786672
-20.828325 -0.8080498 2.6935751
-20.659794 -0.88330925 2.6970346
-20.597 -0.89724982 2.6521254
-17.453093 -0.8712647 2.6741619
-17.316002 -0.90344453 2.6759491
-28.621403 -0.68367988 2.6339204
-28.562605 -0.70999956 2.7254479
-25.490856 -0.60871428 2.7560005
-20.837091 -0.79299968 2.7078638
-20.729334 -0.63983315 2.6306667
-17.431032 -0.75053674 2.6609397
-17.326727 -0.72800857 2.720489
4.1784678 -0.67280191 2.699533
4.2569685 -0.66241968 2.6989527
-28.640524 -0.50599992 2.6703334
-28.533701 -0.49393404 2.7042639
-27.939615 -0.41107655 2.6929231
-25.634298 -0.52929974 2.7228
-25.463995 -0.49662483 2.7077563
-24.228773 -0.46815372 2.7094622
-24.10302 -0.45401347 2.7141566
-24 -0.40799975 2.7520001
-20.820999 -0.57599974 2.6389999
-20.656139 -0.48086143 2.6597834
-17.4135 -0.59349978 2.7955
4.1853528 -0.59576446 2.7064705
4.2307491 -0.59596384 2.7187324
-28.71221 -0.2695204 2.6867142
-28.506577 -0.36828566 2.7277503
-27.884268 -0.3048867 2.6994343
-25.620222 -0.37399995 2.6964445
-25.507038 -0.37632656 2.6702039
-24.016157 -0.34773469 2.7131562
-23.98283 -0.28269386 2.6992943
-20.825638 -0.27868176 2.6767731
-20.661551 -0.3024106 2.6964703
-20.595873 -0.25412488 2.778625
-28.814602 -0.041133389 2.6316004
-28.744675 -0.11747262 2.7097399
-28.011002 -0.13599998 2.7118001
-27.929998 -0.16803282 2.7021966
-24.221001 -0.18900007 2.783
-24.096081 -0.17943853 2.7051921
-23.987648 -0.18858832 2.7455883
-20.839001 -0.19699985 2.7709999
-20.696371 -0.17330772 2.7768135
-28.841171 0.11578831 2.6769619
-28.776711 0.066666692 2.7577109
-24.020166 0.15994447 2.6308064
-23.995401 0.18293339 2.6539335
-28.86792 0.30003285 2.7032373
-28.791199 0.39159989 2.6366005
-24.031063 0.27363622 2.6848183
-23.976784 0.31388271 2.6893039
-29.0175 0.57774997 2.6237502
-28.913321 0.53299975 2.698864
-28.708878 0.51502943 2.6969569
-24.05575 0.48999 2.6987379
-23.958344 0.46868229 2.7320786
-29.036083 0.72578061 2.6718512
-28.965872 0.67330158 2.7397361
-28.726017 0.62655747 2.7357502
-24.041 0.60549963 2.7825
-23.976 0.60299981 2.7920003
-29.079296 0.89805943 2.695436
-28.994665 0.81499982 2.7926669
-27.031162 0.87955081 2.7187755
-26.967421 0.94588184 2.7028356
-29.212 1.1559997 2.638
-29.132967 1.0760105 2.6998
-27.044401 1.0762498 2.7155936
-26.957905 1.0491158 2.6563716
-29.236141 1.3358392 2.6794939
-29.180841 1.3061993 2.7579203
-27.469614 1.378055 2.7293887
-29.255596 1.4350725 2.7013457
-29.104252 1.5904167 2.6861668
-27.441574 1.4822031 2.7149818
-27.387842 1.4794219 2.6654668
-29.41486 1.7618568 2.6145713
-29.34041 1.7288022 2.6945522
-29.094921 1.69946 2.7058663
-26.239429 1.6945711 2.7048576
-26.084284 1.7265834 2.6996865
-29.436644 1.9222817 2.6751831
-29.37215 1.8705354 2.7571075
-29.1175 1.8064997 2.7540004
-28.161572 1.9785712 2.6872859
-26.239725 1.8815279 2.6952782
-26.088713 1.860049 2.6997266
-29.481844 2.0958796 2.6971459
-28.249308 2.0865381 2.7237694
-28.115419 2.0853455 2.6974459
-20.2052 2.173599 2.7038
-20.086386 2.1370659 2.6939704
-29.616293 2.3376462 2.6319418
-29.547617 2.2868307 2.7137129
-20.201 2.2009993 2.6930001
-20.15111 2.2074432 2.7157049
-29.629269 2.4470761 2.6559615
-29.511961 2.5180759 2.7092183
