# .PCD v0.7 - Point Cloud Data file format
VERSION 0.7
FIELDS x y z
SIZE 4 4 4
TYPE F F F
COUNT 1 1 1
WIDTH 1457
HEIGHT 1
VIEWPOINT 0 0 0 1 0 0 0
POINTS 1457
DATA ascii
-30.715668 -0.6839996 -2.0983334
-30.738535 -0.54033285 -2.0774667
-30.26025 -0.087249815 -2.0960002
-30.747749 0.24275005 -2.0107501
-30.6905 2.7169981 -2.0040002
-29.7055 -4.341496 -1.8410002
-30.034002 -4.0530806 -1.8573335
-29.93375 -4.1404963 -1.8239999
-30.021999 -3.9899983 -1.8880002
-29.991501 -3.9919982 -1.8415003
-30.105335 -2.6429985 -1.8220001
-30.03186 -2.5479982 -1.8291429
-29.961834 -2.466665 -1.8258332
-30.377399 -1.2257991 -1.8926001
-30.309418 -1.1176659 -1.8537503
-30.174669 -1.0294436 -1.9033334
-30.3325 -0.91691643 -1.8369169
-30.111376 -0.94974959 -1.9010001
-30.632401 -0.64199942 -1.9775999
-30.581001 -0.64733279 -1.9463336
-30.697248 -0.58524954 -1.9915
-30.091999 -0.52149951 -1.8724999
-30.777145 0.17514265 -1.8978572
-30.720139 0.27046645 -1.9049001
-30.585499 0.36849982 -1.9205002
-30.986334 2.586998 -1.859
-30.951416 2.6570814 -1.8787501
-29.686716 -4.2247105 -1.7052861
-29.544836 -4.2943296 -1.6574167
-29.381001 -4.3789964 -1.608
-30.018 -4.0469961 -1.7999997
-29.88479 -4.0716748 -1.7163931
-29.725958 -4.1255617 -1.6546959
-30.009251 -3.9794984 -1.7452501
-29.949429 -3.9648559 -1.6870005
-29.520834 -3.8691652 -1.7590003
-30.09841 -3.7000575 -1.6997063
-29.703796 -3.6707575 -1.6596398
-30.123501 -3.498498 -1.6245003
-29.702 -3.5814986 -1.6065005
-29.479052 -3.5314593 -1.6724362
-30.312716 -3.0259981 -1.7091428
-30.376333 -2.6389978 -1.7256669
-30.111668 -2.6416652 -1.7933336
-30.11508 -2.4919183 -1.7421998
-30.030401 -2.2916982 -1.7347001
-29.954165 -2.3053703 -1.6850702
-30.063 -2.1809981 -1.658
-29.945667 -2.1769984 -1.7323338
-30.3118 -1.0903652 -1.7002685
-30.285868 -0.95346618 -1.7289336
-30.1905 -0.92649961 -1.7615001
-30.739393 0.24687982 -1.7099599
-30.98925 2.5884981 -1.7422498
-29.468086 -4.2542458 -1.5593332
-29.351143 -4.317996 -1.5240002
-29.677515 -4.0617404 -1.5399487
-29.546799 -4.1066465 -1.4782002
-29.847591 -3.9294987 -1.5481368
-29.721003 -3.9466772 -1.4647863
-29.875168 -3.7059979 -1.5065
-29.736801 -3.6796982 -1.5743999
-30.028 -3.4848313 -1.4876668
-29.972101 -3.5264978 -1.4358001
-29.761501 -3.5739985 -1.5900003
-30.011 -3.3819983 -1.415
-30.145229 -3.0557678 -1.4450001
-29.538834 -3.1683323 -1.5681667
-29.919104 -2.2621014 -1.5266553
-30.045 -2.1549981 -1.5980002
-29.9755 -2.1839979 -1.5755
-30.272499 -1.0597492 -1.5806251
-30.223 -0.98749959 -1.5180001
-29.618 4.324996 -1.567
-29.522999 4.3544793 -1.5000691
-29.495432 4.4237823 -1.5175003
-29.446453 7.9227819 -1.493238
-29.484632 8.0376225 -1.4836578
-29.393999 8.0089931 -1.4190001
-29.056 9.0184917 -1.4150002
-28.913834 9.0106611 -1.4605
-29.0166 9.255393 -1.5347004
-28.92552 9.3278446 -1.475426
-29.258572 -4.2197108 -1.3418572
-29.1 -4.2799969 -1.2791111
-29.437201 -4.0695963 -1.3478001
-29.295481 -4.1217585 -1.2840955
-29.171333 -4.1663294 -1.224667
-29.667999 -3.8534985 -1.30825
-29.511278 -3.8906651 -1.2372776
-29.347 -3.9989982 -1.2170001
-29.821234 -3.6985283 -1.3595883
-29.75 -3.692512 -1.2802572
-29.916126 -3.4792483 -1.3169498
-29.749378 -3.5681233 -1.2495003
-29.950602 -3.3893981 -1.324
-29.4594 -3.2251983 -1.3462002
-29.348801 -3.2383981 -1.2588
-29.482716 -3.1588552 -1.2671431
-29.372 -3.1944981 -1.2370001
-29.912868 -2.2562318 -1.3068666
-29.862875 -2.1229248 -1.2869755
-29.795 -2.0879979 -1.217
-29.936001 -1.9979993 -1.2450002
-30.30883 -1.0269992 -1.3291668
-30.234386 -0.98353803 -1.2929232
-30.141315 -0.92287445 -1.2897501
-30.193001 -0.69599956 -1.2270002
-29.607 4.3139963 -1.2384995
-29.533333 4.3511629 -1.2368332
-29.405333 7.9649963 -1.3923335
-29.389668 7.9809976 -1.3763328
-29.481777 8.0455484 -1.3496673
-29.384501 8.016243 -1.3445001
-29.523331 8.4776592 -1.2933338
-29.011 8.9921932 -1.3162003
-29.034462 9.0180712 -1.3113072
-28.966888 9.0072145 -1.3092227
-28.889839 9.3146725 -1.3237858
-29.089001 -4.206996 -1.192
-29.202999 -4.0919962 -1.188
-29.141335 -4.1003299 -1.1326671
-28.918999 -4.1644964 -1.0095
-29.461479 -3.8438675 -1.152522
-29.319017 -3.9006357 -1.0871276
-29.195999 -3.9329984 -1.0220002
-29.667664 -3.6564422 -1.1344997
-29.509632 -3.7291455 -1.0755556
-29.379 -3.796998 -1.0450001
-29.833 -3.4329984 -1.1709999
-29.68668 -3.5200422 -1.0921307
-29.314352 -3.2218215 -1.109647
-29.439554 -3.0579979 -1.0843332
-29.312164 -3.142415 -1.0813334
-29.955 -2.9088218 -1.1055293
-29.930752 -2.223248 -1.1312501
-29.845774 -2.1512711 -1.1091821
-29.774538 -2.0682983 -1.0856668
-29.862667 -1.9532216 -1.1058892
-29.755249 -1.969749 -1.02475
-30.140844 -0.90192288 -1.1061924
-30.098444 -0.66633296 -1.0583334
-29.688999 3.2889981 -1.007
-29.503 3.3589988 -1.0160003
-29.512875 3.4726231 -1.042375
-29.625 4.3209968 -1.0577503
-29.561859 4.3322105 -1.1406431
-29.313572 7.8993349 -1.072787
-29.302002 8.0139923 -1.0220001
-29.016251 9.0344925 -1.1802506
-28.968616 9.0276852 -1.0958462
-29.234615 -3.8488443 -0.9683075
-29.465252 -3.6566648 -0.96741664
-29.304457 -3.7115126 -0.89282858
-29.149572 -3.7777123 -0.82899988
-29.636003 -3.4877126 -0.95635736
-29.505798 -3.5329981 -0.88135993
-29.373001 -3.5862479 -0.83025014
-29.743999 -3.2759981 -0.94499993
-29.46125 -3.2562482 -0.83950007
-29.33893 -3.2166412 -0.93185711
-29.7085 -3.1119981 -0.80299985
-29.431999 -3.1664982 -0.81500006
-29.268478 -3.1246536 -0.90437722
-29.399 -2.8319983 -0.94399995
-29.741312 -2.0412481 -0.90812504
-29.814999 -1.8599993 -0.92400002
-29.709158 -1.9220518 -0.87973696
-30.028353 -0.65823483 -0.91841185
-30.13275 0.74974948 -0.80275011
-30.0665 0.82199961 -0.80149996
-29.853252 1.049499 -0.80099994
-29.755337 1.1396658 -0.80166674
-30.083 1.2409992 -0.84400004
-29.887201 1.2561991 -0.83539999
-29.911167 2.3754983 -0.85983336
-29.838337 2.4937387 -0.86170363
-29.78911 2.4627757 -0.85855579
-29.633802 3.3057981 -0.87280011
-29.513168 3.3609982 -0.88816667
-29.525286 3.4637127 -0.8942858
-29.629499 4.3072462 -0.95300007
-29.262884 7.9071436 -0.89529777
-29.512852 8.0955925 -0.86844969
-29.302437 8.0267735 -0.89678121
-29.493 8.2099924 -0.8179996
-29.259888 -3.631443 -0.76977801
-29.42775 -3.4892483 -0.77399993
-29.298738 -3.5381041 -0.71468401
-29.49971 -3.2583733 -0.68866682
-29.639782 -3.1026068 -0.70747817
-29.529646 -3.1471162 -0.66247058
-29.239248 -3.0860605 -0.7134372
-29.699778 -2.8357759 -0.68244439
-29.739096 -2.6725469 -0.65729022
-29.739201 -2.0221982 -0.73640007
-29.675827 -1.9101517 -0.70947468
-29.593498 -1.8486658 -0.63283354
-29.706598 -1.7777991 -0.6809001
-30.138811 0.73867589 -0.70030886
-30.039494 0.83633947 -0.7061401
-29.932974 0.9365871 -0.70442259
-29.834246 1.037288 -0.69353342
-29.733707 1.1357081 -0.69948852
-29.63797 1.2365874 -0.68758833
-29.902056 2.3818808 -0.69458818
-29.827978 2.4680686 -0.7126047
-29.7922 2.4609985 -0.6906001
-29.624001 3.3093314 -0.69116676
-29.533667 3.3649981 -0.68999994
-29.548822 3.4644098 -0.69935274
-29.224268 7.8720951 -0.7340734
-29.181383 7.9271631 -0.6716857
-29.612429 8.0519924 -0.75357151
-29.51981 8.1160212 -0.69637752
-29.309658 8.0308895 -0.69796562
-29.18989 8.0085478 -0.7004447
-29.434427 8.2407799 -0.71521425
-29.367853 8.2839918 -0.64659977
-29.245901 8.4692936 -0.69939995
-29.187 8.5299931 -0.67000008
-29.447618 -3.2475367 -0.55161548
-29.316118 -3.2881174 -0.47816658
-29.463001 -3.1145835 -0.51562262
-29.323471 -3.0662336 -0.47752953
-29.639 -2.8049982 -0.579
-29.52607 -2.9635987 -0.47406673
-29.248888 -2.8966651 -0.51333344
-29.587803 -2.6954985 -0.43419981
-29.241001 -2.770998 -0.4356668
-29.76965 -2.1041722 -0.45378262
-29.803001 -1.990499 -0.44900006
-29.709547 -1.9259992 -0.49104083
-29.580082 -1.8390392 -0.50008011
-29.601 -1.776999 -0.57400006
-29.553198 -1.7883991 -0.48699987
-29.795502 -0.53749955 -0.44433334
-30.032288 0.85771382 -0.58842874
-29.935598 0.93819958 -0.59060013
-30.105953 1.089249 -0.55397725
-29.902464 1.1025376 -0.57823074
-29.743876 1.146624 -0.59025002
-29.912872 1.2537382 -0.55052161
-29.64595 1.2772425 -0.49864873
-29.628 1.4797134 -0.52614278
-29.906355 2.3843513 -0.52052933
-29.853556 2.4213314 -0.51550001
-29.792334 2.4593313 -0.56366658
-29.623167 3.3111649 -0.4920001
-29.543167 3.3676646 -0.49166656
-29.607 3.5144987 -0.48675025
-29.567801 3.453198 -0.48820007
-29.222 7.7949963 -0.48449993
-29.218 7.8059964 -0.5599997
-29.143812 7.9018693 -0.51705384
-29.455656 8.1001396 -0.52303195
-29.32752 8.0951185 -0.50550008
-29.159214 8.0069218 -0.51699996
-29.41 8.2029934 -0.58499956
-29.317326 8.2731457 -0.51438928
-29.216249 8.4132423 -0.54949999
-29.131811 8.5001183 -0.50806236
-29.243896 -3.2349987 -0.37160003
-29.094788 -3.2915609 -0.3039999
-28.972752 -3.3324986 -0.23599994
-29.409 -3.0809984 -0.36199999
-29.31093 -3.0963635 -0.3028537
-29.160374 -3.1649985 -0.2385
-29.449295 -2.8914099 -0.32752919
-29.325878 -2.9507067 -0.27154171
-29.524246 -2.6546707 -0.30850911
-29.219936 -2.7065315 -0.32700002
-29.130161 -2.7173312 -0.26754904
-29.54722 -2.5129137 -0.27909636
-29.57645 -2.3296108 -0.24512887
-29.674191 -2.1032066 -0.29400009
-29.690428 -1.9186287 -0.2978704
-29.579666 -1.8189991 -0.36499989
-29.559 -1.5899992 -0.25200015
-29.822651 -0.46195629 -0.3453913
-29.756901 -0.48551205 -0.292878
-29.778666 -0.38188869 -0.23111114
-29.63271 1.2841572 -0.30355269
-29.56661 1.3521078 -0.29723918
-29.625998 1.4425824 -0.27675003
-29.583643 1.4209991 -0.28088236
-30.141048 2.1420891 -0.27695453
-30.050167 2.2651649 -0.2676667
-29.934618 2.323921 -0.28811538
-29.240002 2.9959981 -0.31200004
-29.632801 3.3129978 -0.31200004
-29.5672 3.3737984 -0.31239986
-29.627144 3.4857125 -0.31371439
-29.5818 3.4275982 -0.31359982
-29.4175 7.9797468 -0.26474977
-29.135 7.8099961 -0.37799954
-29.434 8.0299921 -0.36199975
-29.338293 8.1039925 -0.29205871
-29.250166 8.2186613 -0.30383301
-29.195 8.2599926 -0.25799966
-29.033501 -3.2099984 -0.16100025
-29.236856 -3.0409982 -0.16771412
-29.097799 -3.0887313 -0.11296666
-28.945156 -3.1518929 -0.04526329
-29.261902 -2.9289985 -0.11099994
-29.151625 -2.9563732 -0.056625247
-29.42967 -2.6461649 -0.15858328
-29.314819 -2.7023618 -0.1170001
-29.074377 -2.661557 -0.10236061
-29.44978 -2.4896927 -0.12045872
-29.380411 -2.5202923 -0.037999988
-29.11421 -2.5714469 -0.048344851
-29.490883 -2.3075528 -0.10163641
-29.618601 -2.0691984 -0.17360002
-29.537956 -2.1091115 -0.087727308
-29.629004 -1.925384 -0.14461535
-29.570288 -1.9339994 -0.064142823
-29.440001 -1.627666 -0.060333371
-29.396999 -1.618999 -0.088999987
-29.009998 -1.7969991 -0.029499948
-29.758532 -1.4409993 -0.13323528
-29.47353 -1.5444727 -0.084842086
-29.384399 -1.581799 -0.025600135
-29.761492 -1.3112453 -0.069307745
-29.683064 -0.43736345 -0.11539395
-29.715206 -0.36031085 -0.088311121
-29.238512 0.13264433 -0.10353334
-29.27887 0.22771043 -0.089921065
-29.63513 1.2806659 -0.1080668
-29.567883 1.3529458 -0.10549998
-29.627069 1.4381993 -0.095533371
-29.588415 1.4188323 -0.12725008
-30.138502 2.1545537 -0.12911105
-30.04409 2.2368164 -0.13845444
-29.965702 2.2969985 -0.1164999
-29.628889 3.3308871 -0.11300004
-29.580002 3.3643317 -0.14600003
-29.639925 3.4539213 -0.10761535
-29.702501 4.3124962 -0.072749853
-29.581501 7.6552467 -0.023999691
-29.037859 7.7921395 -0.085999727
-29.378 7.9939966 -0.18599987
-29.026361 7.9012489 -0.1151495
-28.986189 7.9183531 -0.042119265
-29.272289 8.093606 -0.10011864
-29.155228 8.0811348 -0.062571526
-29.216 8.2169924 -0.17100024
-29.109964 8.2986183 -0.089817524
-28.997002 8.3954926 -0.0095005035
-29.016998 8.4494925 -0.14400005
-28.939716 8.5059938 -0.073857784
-29.016668 -3.0256648 0.019000053
-29.235001 -2.8309984 0.016000032
-29.074501 -2.9242482 0.077000022
-28.94578 -2.9654427 0.15172219
-29.210501 -2.7904983 0.079000115
-29.06876 -2.6921496 0.098666787
-28.989798 -2.6293983 0.11069989
-29.321398 -2.4636521 0.085527301
-29.059217 -2.5174875 0.098076105
-28.978531 -2.5614691 0.16111767
-29.421583 -2.2687483 0.03595829
-29.3503 -2.3156197 0.11976659
-29.455595 -2.1087251 0.058727384
-29.373335 -2.1655817 0.14641654
-29.491714 -1.858999 0.13585711
-29.018 -1.8039991 0.012999952
-29.452921 -1.672076 0.10423082
-29.394001 -1.6129993 0.15250003
-29.011999 -1.7979991 0.042000055
-29.676001 -1.401999 0.014999926
-29.439999 -1.4786913 0.093692303
-29.363285 -1.5338907 0.11643481
-29.674925 -1.279036 0.087716043
-29.591999 -1.3349991 0.18499994
-29.6238 -0.43399978 0.071999997
-29.596668 -0.41199979 0.16233334
-29.641212 -0.33043617 0.07583636
-29.581354 -0.34994096 0.15676472
-29.23868 0.13168074 0.098638326
-29.18877 0.16099989 0.12707692
-29.273529 0.22065294 0.10230613
-29.640388 1.2772332 0.1069361
-29.572384 1.3547771 0.095650852
-29.647001 1.4418814 0.087764621
-29.594002 1.4192848 0.079714358
-29.930504 2.3850696 0.099642992
-29.894707 2.5454102 0.14376462
-29.243376 3.0167484 0.080250144
-29.630573 3.34057 0.095142961
-29.59 3.3649983 0.0099998713
-29.656 3.4436982 0.094900012
-29.665497 4.3360963 0.12120008
-29.647457 4.4354515 0.1485455
-29.910002 5.1454964 0.15749979
-29.902748 5.2666211 0.17162514
-29.427 5.291996 0.16699982
-29.310165 5.3466625 0.15983319
-29.319334 5.465663 0.17166686
-29.245499 6.3408957 0.14910007
-29.259001 6.4339962 0.11599994
-29.594 7.1924963 0.18999982
-29.585999 7.3116622 0.17433357
-29.095762 7.2581139 0.15229416
-29.580545 7.5732689 0.14872742
-29.530594 7.6547394 0.11766672
-29.024 7.7759962 0.066000462
-28.955999 7.7901635 0.14466643
-29.399 7.8059969 0.18300033
-29.027748 7.899621 0.092749834
-28.948978 7.9064188 0.11172628
-29.229048 8.0557356 0.082846165
-29.132242 8.1014977 0.11534452
-29.057487 8.2716904 0.089214325
-28.970116 8.3595524 0.12047052
-28.896093 8.4632778 0.11276197
-29.019001 -2.8034978 0.25749993
-29.073124 -2.6820273 0.29667139
-28.956264 -2.730042 0.33982611
-29.24357 -2.4265697 0.22942865
-29.044838 -2.4671583 0.2781601
-28.94525 -2.4986775 0.29756308
-29.25795 -2.3044741 0.27431738
-29.10652 -2.3403316 0.34722209
-28.966564 -2.3794982 0.36512518
-29.297331 -2.0677066 0.32170838
-29.417252 -1.8599989 0.22899997
-29.345997 -1.9133784 0.32100004
-29.052999 -1.8809993 0.27300006
-29.428585 -1.6209992 0.29266673
-29.380001 -1.6326656 0.38966674
-29.411169 -1.5724993 0.34983325
-29.325871 -1.4963545 0.29867107
-29.60825 -1.227999 0.22900003
-29.544834 -1.257916 0.28916666
-29.321428 -1.3725708 0.32914293
-29.639515 -1.0769024 0.25041938
-29.567396 -1.1175824 0.33570841
-29.589001 -0.97349954 0.39000005
-29.621334 -0.27533311 0.27066672
-29.548315 -0.30386639 0.29443333
-29.5795 -0.17599994 0.36550006
-29.235426 0.13418634 0.30167791
-29.190594 0.15849987 0.30263638
-29.270201 0.22159988 0.30068573
-29.640938 1.271646 0.30013734
-29.574984 1.3488586 0.29764912
-29.649925 1.4326916 0.27676916
-29.591574 1.4049993 0.30771422
-29.945374 2.3839986 0.30262506
-29.876724 2.4954567 0.31318724
-29.652502 3.3569982 0.29983354
-29.683401 3.4474983 0.29829967
-29.65563 4.3521547 0.32194734
-29.662901 4.4277964 0.29445004
-29.86396 5.1482582 0.3144784
-29.859192 5.3008204 0.3093648
-29.437 5.2923298 0.30816674
-29.450251 5.4454966 0.33949995
-29.895201 5.9838629 0.30313349
-29.275743 6.2997189 0.31260014
-29.309999 6.4054966 0.28550029
-29.561592 7.1879969 0.33111763
-29.174999 7.1939964 0.36300039
-29.538874 7.2714725 0.30145907
-29.242798 7.2165966 0.36099958
-29.110342 7.2602048 0.31058216
-29.548016 7.5415058 0.30865216
-29.452614 7.6594229 0.30819154
-29.364241 7.7507567 0.34876013
-28.929216 7.7895174 0.31943512
-29.303617 7.8302279 0.33946157
-29.063789 7.822854 0.31964302
-28.895252 7.9034805 0.30932236
-29.2075 8.014492 0.2099998
-29.092712 8.095438 0.30203676
-28.965 8.1242418 0.35187483
-29.021463 8.2275639 0.25892854
-28.926998 8.3193855 0.30363584
-29.032724 -2.6264529 0.42654562
-29.031702 -2.5461836 0.47937024
-28.928778 -2.4932368 0.50061905
-29.12261 -2.2707126 0.4806428
-28.913004 -2.3271506 0.49966091
-29.227413 -2.0390892 0.45681822
-29.160721 -2.06587 0.55133331
-29.243433 -1.9243129 0.48647046
-29.178688 -1.9494991 0.57712501
-29.319811 -1.6493325 0.50942838
-29.403999 -1.5289991 0.43699998
-29.315502 -1.494168 0.49098724
-29.462 -1.2265992 0.45240009
-29.250517 -1.3524818 0.49103454
-29.193249 -1.3329991 0.56400013
-29.500341 -1.0714552 0.49564701
-29.5439 -0.91532004 0.51385909
-29.065273 -0.97763604 0.49581832
-29.575994 -0.76684952 0.55215007
-29.477293 -0.25013614 0.48677289
-29.490862 -0.16522716 0.51209092
-29.304001 -0.01099997 0.52499998
-29.231865 0.12312159 0.50059468
-29.187483 0.14845701 0.51211429
-29.263968 0.2137142 0.50396436
-29.645605 1.2746816 0.50350797
-29.581287 1.3462027 0.49257645
-29.628544 1.41609 0.51227283
-29.597 1.411999 0.40599999
-29.943602 2.3813982 0.52120012
-29.881563 2.4869409 0.50323927
-29.67827 3.3411345 0.51818192
-29.851667 3.4083319 0.54233348
-29.721472 3.4418805 0.5057646
-29.929602 4.1969967 0.52879965
-29.669737 4.3450685 0.50773823
-29.68325 4.4323711 0.49450004
-29.847925 5.1389961 0.47692323
-29.767738 5.1649094 0.53334761
-29.848867 5.3288565 0.45683694
-29.774467 5.2956095 0.52682233
-29.445107 5.2934709 0.50573683
-29.34767 5.3520088 0.51578069
-29.774004 5.4175682 0.54885697
-29.457275 5.456274 0.52755547
-29.361755 5.446774 0.51079392
-29.589333 6.1836643 0.58266711
-29.544003 6.2847462 0.56743765
-29.29917 6.3067226 0.50636339
-29.31743 6.4219961 0.49457192
-29.523291 7.1839619 0.50557089
-29.223499 7.1914964 0.51699972
-29.483 7.2719965 0.503654
-29.229946 7.2521081 0.51316643
-29.13714 7.2747555 0.49855947
-29.489712 7.532342 0.4972856
-29.41976 7.6332388 0.46939421
-29.350042 7.6957827 0.51178646
-29.013 7.7964969 0.46650028
-29.253401 7.8257475 0.49004984
-29.073166 7.8463564 0.51483965
-29.052515 8.0686312 0.4892199
-28.964983 8.1610117 0.51529431
-29.069 -2.2099981 0.6419999
-29.091339 -2.0671649 0.69376689
-28.908737 -2.1685243 0.74457878
-29.210669 -1.8206658 0.63300014
-29.122957 -1.9145477 0.70948768
-29.234213 -1.6763096 0.66841388
-29.163595 -1.7220788 0.75483984
-29.272572 -1.5001724 0.68072009
-29.196751 -1.5587492 0.78525007
-29.232126 -1.3261241 0.66812491
-29.156429 -1.2863562 0.70635712
-29.42976 -1.0409991 0.67207992
-29.368778 -1.0552212 0.75355566
-29.018002 -1.0079992 0.71649998
-28.957666 -1.0754063 0.70092595
-29.454855 -0.9075802 0.70259285
-29.387857 -0.9565711 0.77985722
-28.989777 -0.97966635 0.70000011
-29.610668 -0.64899963 0.61066675
-29.519854 -0.72593391 0.70252454
-29.570786 -0.51510668 0.72489297
-29.50153 -0.28341156 0.72064716
-29.392668 -0.21699989 0.671
-29.429934 -0.10374996 0.70071429
-29.374441 -0.15311101 0.73137045
-29.240503 0.11698759 0.70034581
-29.18317 0.14204994 0.70410013
-29.251862 0.20981809 0.6892727
-29.582298 1.3469141 0.70261705
-29.646524 1.4143035 0.70978272
-29.710432 3.3274984 0.70043314
-29.216503 3.2288313 0.70433319
-29.449625 5.3119025 0.72193766
-29.374174 5.353919 0.69510269
-29.457272 5.4550648 0.71684146
-29.382324 5.4349613 0.68966126
-29.560707 6.1837606 0.70152926
-29.512272 6.2715664 0.7051208
-29.318766 6.3092937 0.70363688
-29.421 6.4469962 0.76000023
-29.342199 6.4125967 0.71119976
-29.486977 7.185791 0.69274402
-29.380501 7.1822462 0.76800013
-29.450579 7.2841549 0.6702373
-29.283878 7.2641182 0.72097921
-29.1667 7.2773542 0.69376373
-29.450077 7.5054216 0.68203855
-29.374001 7.5794086 0.72117639
-29.303442 7.6731639 0.69320989
-29.182835 7.7838302 0.76166654
-29.218 7.8099971 0.61399937
-29.124521 7.8523846 0.69864583
-29.024921 8.0217533 0.66848016
-28.930719 8.1209698 0.70803022
-29.024666 -2.0396647 0.83458322
-29.045834 -1.889396 0.8799367
-28.902491 -1.881511 0.91930252
-29.095982 -1.7014415 0.90911567
-29.229584 -1.4484158 0.85166675
-29.160751 -1.5397489 0.90443742
-29.218573 -1.3448565 0.88128585
-29.144531 -1.278705 0.9074707
-29.351572 -1.0219992 0.83900017
-29.09786 -1.145999 0.91485727
-28.949781 -1.0547816 0.89452171
-29.411999 -0.8496663 0.83383346
-29.350801 -0.91676158 0.91161895
-29.012335 -0.96766627 0.972
-28.987335 -0.97449952 0.88333333
-29.441645 -0.70941132 0.87841171
-29.381956 -0.75286317 0.96245462
-29.516212 -0.49078548 0.86614293
-29.520817 -0.32707387 0.90377772
-29.470697 -0.037699997 0.88460028
-29.331116 -0.091578364 0.90071559
-29.408001 0.029000029 0.89399999
-29.242323 0.11816853 0.90592158
-29.180435 0.13591656 0.90335405
-29.263445 0.20899999 0.89155567
-29.584066 1.3410445 0.89938653
-29.217167 3.0699983 0.92549998
-29.225601 3.2291985 0.90360022
-29.123371 3.2252579 0.89429629
-29.592999 5.1844959 0.98600006
-29.440132 5.3337512 0.91288328
-29.391005 5.3543468 0.84055018
-29.449255 5.4411716 0.90070939
-29.396999 5.4094963 0.81850004
-29.522869 6.1918974 0.90306687
-29.483208 6.2745342 0.89292502
-29.338614 6.3126006 0.89620161
-29.3542 6.4069967 0.91980004
-29.580708 6.9201574 0.95759368
-29.614866 7.0683203 0.83462143
-29.549208 7.1087427 0.91576099
-29.338001 7.18048 0.9221611
-29.45891 7.3426933 0.9045155
-29.261824 7.2633281 0.90841699
-29.18541 7.2944775 0.86759615
-29.425617 7.4487658 0.87946129
-29.330149 7.550899 0.90513086
-29.253895 7.6502228 0.8841517
-29.166327 7.7467279 0.90189171
-29.091879 7.8310761 0.90456009
-28.903852 7.9352636 0.89671659
-29.014669 -1.8156657 1.0156667
-28.91947 -1.8710346 1.0843685
-29.033052 -1.6833904 1.0605652
-28.969044 -1.7305512 1.1365225
-29.067879 -1.5194688 1.1107553
-29.133612 -1.3049994 1.1073077
-29.04425 -1.1542491 1.089625
-28.945347 -1.0428493 1.1097503
-29.27426 -0.88803601 1.1003363
-29.069002 -0.96971393 1.1007143
-28.940199 -0.98899949 1.1404001
-29.328686 -0.73348057 1.0968359
-29.429502 -0.50133294 1.0685
-29.373669 -0.50999957 1.1693333
-29.459585 -0.30182332 1.097147
-29.482437 -0.13187495 1.1121249
-29.286079 -0.081631064 1.0918111
-29.193251 -0.017000005 1.187
-29.566132 0.08115381 1.1191537
-29.23826 0.10523072 1.0991536
-29.178692 0.12679026 1.1020806
-29.589184 0.24436352 1.1789091
-29.25609 0.20263633 1.0946364
-29.583771 1.33034 1.0947272
-29.21125 3.0862484 1.1167499
-29.242336 3.223165 1.1036668
-29.118673 3.2292562 1.1184839
-29.576218 5.18714 1.0954288
-29.612249 5.2307467 1.01
-29.508989 5.3027639 1.1020246
-29.501932 5.4453173 1.1000998
-29.494646 6.1934605 1.1012502
-29.397499 6.1949959 1.1615
-29.47049 6.2650695 1.0883477
-29.363987 6.3155756 1.1026952
-29.583336 6.5186524 1.1525996
-29.392 6.4059968 1.1780002
-29.611137 6.6513615 1.0502727
-29.569157 6.7086334 1.119616
-29.541121 6.9009905 1.1004186
-29.503777 7.0897274 1.0976267
-29.299383 7.1765084 1.1040668
-29.426188 7.363059 1.0528748
-29.259069 7.2873144 1.1045191
-29.194 7.3299961 1.0239999
-29.415751 7.416996 1.02075
-29.294548 7.5138063 1.1047702
-29.195999 7.5944958 1.1760004
-29.223249 7.6246214 1.055438
-29.130503 7.707644 1.1047688
-29.034111 7.8281059 1.1016076
-28.911455 -1.6987305 1.3041716
-29.019602 -1.4811994 1.2455001
-28.962311 -1.5297405 1.3224479
-29.059422 -1.3001144 1.2876924
-28.990334 -1.3776656 1.3740001
-29.028223 -1.1166657 1.3311112
-28.949951 -1.0474465 1.3054473
-29.220192 -0.86186433 1.2426486
-29.15044 -0.88257527 1.3202426
-28.95826 -0.95973885 1.318435
-29.243666 -0.70951468 1.2906213
-29.181 -0.75339955 1.3671001
-29.403 -0.40399981 1.207
-29.293623 -0.51229954 1.3100748
-29.416 -0.25612473 1.2252502
-29.363678 -0.26489258 1.3247502
-29.420223 -0.15656507 1.2742609
-29.302994 -0.093708217 1.3087604
-29.187555 -0.0077777468 1.2926667
-29.497412 0.11767244 1.2891381
-29.230001 0.16334075 1.2967501
-29.168135 0.093336582 1.3055942
-29.547312 0.29041106 1.3136207
-29.264668 0.20733315 1.3043334
-29.584906 0.47880623 1.3614516
-29.578186 1.2821878 1.328822
-29.306 3.181998 1.382
-29.245501 3.2259979 1.2485002
-29.550821 5.1912699 1.2732726
-29.503908 5.2941465 1.3005871
-29.515942 5.462676 1.2989998
-29.589001 5.9659963 1.3829999
-29.563698 6.1381831 1.331023
-29.363668 6.1916637 1.3163335
-29.605999 6.2954965 1.224
-29.50135 6.2770953 1.2988024
-29.357859 6.2894878 1.3030457
-29.6035 6.4249964 1.2295001
-29.540468 6.5082183 1.3017051
-29.508499 6.7001677 1.3019245
-29.475018 6.9055338 1.3005142
-29.444639 7.0800562 1.2942033
-29.279186 7.1741629 1.2920744
-29.184603 7.1794643 1.3503332
-29.441999 7.199996 1.276
-29.262285 7.3158083 1.2810502
-29.175484 7.2611208 1.3384218
-29.253998 7.4758558 1.2920763
-29.171667 7.5628281 1.3244169
-29.077267 7.6910439 1.2974651
-28.936001 7.7832146 1.3186958
-29.0116 7.8121967 1.2208004
-28.922342 7.869338 1.304086
-29.025249 -1.2512492 1.4272499
-28.960527 -1.2756461 1.5084705
-29.027 -1.1182847 1.4507145
-28.968998 -1.0985546 1.5116389
-29.11072 -0.83393681 1.4708126
-28.91048 -0.88684714 1.5029783
-29.213001 -0.64299953 1.4383335
-29.139107 -0.7092371 1.5038221
-29.233631 -0.46659237 1.4691483
-29.181751 -0.49566659 1.5390002
-29.267336 -0.27840275 1.512881
-29.200001 -0.37949979 1.567
-29.300619 -0.10328913 1.4981326
-29.196667 -0.011333279 1.4566667
-29.427668 0.15327758 1.4559445
-29.329159 0.15223992 1.5182798
-29.124071 0.12046027 1.5014679
-29.466616 0.31107783 1.4905179
-29.362583 0.23083335 1.5509169
-29.144667 0.2254166 1.5401669
-29.601 0.59099954 1.4540002
-29.521467 0.49342734 1.4972484
-29.567413 0.69142371 1.5284545
-29.588736 0.83699965 1.5706
-29.534678 1.3118516 1.5003773
-29.558777 1.4266104 1.5420278
-29.207001 3.1179981 1.5739998
-29.247335 3.2459984 1.5111666
-29.578205 4.350184 1.5327351
-29.580956 4.4294968 1.5633334
-29.563 5.1959963 1.5124999
-29.450106 5.2986908 1.495244
-29.394859 5.2751398 1.5634285
-29.468376 5.4781256 1.5021611
-29.393333 5.4809971 1.5899999
-29.582764 5.7216902 1.5514443
-29.614355 5.8610325 1.4333572
-29.567579 5.893858 1.515188
-29.543076 6.0908933 1.4994175
-29.346624 6.1861215 1.4735
-29.479977 6.2664027 1.4942963
-29.303104 6.2855158 1.4994185
-29.470482 6.5085487 1.5003531
-29.353832 6.4149961 1.4763334
-29.443106 6.6957712 1.4982939
-29.389288 6.7651396 1.5795717
-29.422918 6.8960257 1.4593813
-29.381748 6.9276514 1.545001
-29.410551 7.0453463 1.428
-29.356857 7.0984306 1.5075173
-29.150631 7.173605 1.5007391
-29.254959 7.3528137 1.5025232
-29.130381 7.2673793 1.5019374
-29.228533 7.4355526 1.4743109
-29.132664 7.5310869 1.5109565
-29.041607 7.6516571 1.4933748
-28.958563 7.7439809 1.5161397
-28.903151 7.8205891 1.4965928
-28.922792 -1.1191787 1.6826665
-29.04525 -0.81924951 1.6524999
-29.058878 -0.70246506 1.6820825
-29.120802 -0.46804905 1.7086557
-29.2183 -0.25119978 1.6524001
-29.157055 -0.31039333 1.7205645
-29.242495 -0.089070141 1.687
-29.184408 -0.14396298 1.7600002
-29.279371 0.091481447 1.6963702
-29.072363 0.13002306 1.6961977
-28.995802 0.18679988 1.7724001
-29.416519 0.35424131 1.6390691
-29.347563 0.30471402 1.7128572
-29.075649 0.25795817 1.7155837
-28.990601 0.21699983 1.7812001
-29.43969 0.51277405 1.6828244
-29.381308 0.45254737 1.7544761
-29.495859 0.70078951 1.6972175
-29.548567 0.88723385 1.710253
-29.578943 1.0524278 1.7531254
-29.487328 1.3177931 1.690213
-29.397001 1.3676658 1.7690001
-29.488583 1.4435536 1.6972669
-29.224335 3.1289983 1.659
-29.255798 3.2355981 1.7030002
-29.530533 4.3566585 1.6981431
-29.5371 4.4480062 1.7109586
-29.5935 5.1734962 1.7815001
-29.615501 5.2058296 1.7303337
-29.481283 5.2372561 1.6889344
-29.362253 5.3157845 1.703352
-29.601 5.5679955 1.6580002
-29.494347 5.5262165 1.677091
-29.369162 5.4745007 1.718137
-29.538748 5.7039032 1.70095
-29.505558 5.89534 1.7032865
-29.474789 6.0992718 1.7032084
-29.287998 6.1834965 1.6525002
-29.191 6.1979966 1.7730002
-29.445349 6.2368612 1.6943784
-29.257132 6.2828488 1.6887245
-29.190777 6.273633 1.7670004
-29.421133 6.4880285 1.6715684
-29.374538 6.5252533 1.7444324
-29.411194 6.6428542 1.6343331
-29.369234 6.7016859 1.71454
-29.336401 6.9121571 1.7008972
-29.307093 7.085124 1.6993606
-29.102449 7.1718402 1.6998129
-29.218822 7.3571138 1.6618824
-29.09152 7.2913208 1.7044852
-29.210499 7.4124966 1.6185002
-29.088749 7.5006304 1.6972835
-28.987089 7.5916338 1.7603636
-29.018627 7.6163092 1.6471252
-28.921944 7.7031593 1.7067239
-29.018545 -0.65290856 1.8396364
-28.926847 -0.68937457 1.892844
-29.037079 -0.48615384 1.8777183
-28.986643 -0.52299953 1.964643
-29.079107 -0.28803426 1.8975518
-28.988001 -0.36999983 1.9910002
-29.205 -0.032599956 1.8192003
-29.137844 -0.10750496 1.9028687
-29.210625 0.030874893 1.8361251
-29.107626 0.096410215 1.9104624
-28.98089 0.19255555 1.8742225
-29.276997 0.33164454 1.8871315
-29.039816 0.31575692 1.877986
-28.965977 0.27457124 1.9299335
-29.412502 0.57183301 1.8188334
-29.332819 0.50297487 1.8964133
-28.993 0.40199977 1.9930001
-29.430176 0.71531397 1.8530433
-29.369461 0.67119193 1.9338708
-29.475676 0.91396058 1.8875293
-29.39275 0.84149945 1.9809999
-29.609716 1.1675706 1.8165716
-29.532806 1.0967534 1.8972185
-29.517057 1.2838534 1.8912506
-29.375942 1.3824697 1.8496472
-29.443481 1.4953269 1.8707814
-29.370195 1.457624 1.9256607
-29.577637 3.3689981 1.9229093
-29.261 3.2349985 1.8130001
-29.579 3.4369078 1.9676365
-29.480122 4.3672037 1.8991038
-29.468788 4.4642873 1.9058337
-29.3985 4.416996 1.9920001
-29.595999 4.7681961 1.9764
-29.584967 4.9346347 1.9413106
-29.612083 5.0545392 1.8357086
-29.573547 5.0935898 1.9095091
-29.503593 5.2238426 1.9024107
-29.294363 5.3198261 1.9006187
-29.484728 5.559875 1.896463
-29.307575 5.4894376 1.9012929
-29.474255 5.704524 1.9009061
-29.344 5.6019969 1.9910003
-29.444332 5.894918 1.8970857
-29.392834 5.9491634 1.9861667
-29.425377 6.090879 1.872548
-29.3853 6.1252165 1.9521801
-29.410999 6.2227964 1.8640999
-29.313135 6.2432547 1.9003797
-29.158892 6.2989035 1.8993886
-29.335737 6.5080776 1.8993735
-29.174999 6.4104972 1.9665
-29.309193 6.6832371 1.9007881
-29.270515 6.9105906 1.9016502
-29.242538 7.079906 1.899796
-29.082226 7.1672983 1.899981
-28.986389 7.1770525 1.9457774
-29.081953 7.3151641 1.8810833
-28.97691 7.2656612 1.9259479
-29.051353 7.4718513 1.887207
-28.965876 7.5600939 1.9202919
-29.007999 -0.42499983 2.023
-28.925798 -0.48878294 2.0965421
-29.022476 -0.25237483 2.0509501
-28.96216 -0.30389071 2.1267819
-29.049225 -0.10217965 2.0920782
-28.98608 -0.14642304 2.1688077
-29.085636 0.093536437 2.1054001
-28.999001 0.18599987 2.0869999
-29.219364 0.34227264 2.0230002
-29.149742 0.3369711 2.1078
-28.91469 0.31505907 2.1025348
-29.249397 0.51778203 2.0871377
-29.161961 0.45111984 2.1458797
-28.936563 0.42771715 2.1379566
-29.295603 0.69070417 2.1041622
-29.420437 0.95953292 2.0433002
-29.35013 0.88079745 2.1258385
-29.44735 1.1063726 2.0907145
-29.387501 1.0514324 2.1609669
-29.477015 1.2583785 2.1137006
-29.539333 1.5371186 2.1134999
-29.316822 1.5040255 2.1018422
-29.583832 1.6530821 2.1721668
-29.340572 1.6141419 2.1632857
-29.588499 2.5532484 2.1594169
-29.593 2.6109986 2.171
-29.542536 3.383265 2.0918665
-29.243402 3.2619984 2.1012001
-29.543022 3.4913702 2.1205347
-29.494406 4.3603754 2.0890543
-29.383833 4.3924131 2.1174169
-29.613682 4.5318155 2.0402274
-29.496607 4.5160575 2.0928044
-29.370344 4.4645381 2.126195
-29.609001 4.6738539 2.0249286
-29.565542 4.7079968 2.1089449
-29.539484 4.9111686 2.0959077
-29.511215 5.0905914 2.0929108
-29.46578 5.2289128 2.1023054
-29.243011 5.323874 2.0839109
-29.188896 5.3242788 2.1595643
-29.435902 5.5738473 2.0785003
-29.249819 5.4965334 2.0947218
-29.195435 5.4876838 2.1828747
-29.422419 5.6992188 2.0622225
-29.378998 5.7198801 2.1465411
-29.410263 5.8652925 2.0349627
-29.364073 5.9098024 2.1120479
-29.34025 6.0991297 2.101368
-29.294609 6.2280579 2.0949178
-29.103857 6.304018 2.0990207
-29.269709 6.5142126 2.0956287
-29.147501 6.4254961 2.1033745
-29.243668 6.6824713 2.0951543
-29.194601 6.7687969 2.1661994
-29.219269 6.8892751 2.0653901
-29.183001 6.9313207 2.1325734
-29.210436 7.049562 2.032522
-29.147295 7.0953159 2.1112537
-28.941605 7.1670456 2.1042442
-29.057985 7.3496485 2.0983496
-28.929825 7.2615385 2.1056035
-29.029293 7.4284372 2.0750301
-28.932175 7.5275736 2.1037474
-29.015274 -0.038363785 2.231091
-28.937841 -0.11164802 2.305531
-29.034229 0.12333852 2.2800155
-28.977749 0.060307711 2.3455641
-29.074038 0.32587975 2.2679603
-29.212336 0.57766622 2.2205558
-29.137062 0.5105775 2.3024769
-29.233774 0.71894509 2.2605824
-29.172764 0.67436415 2.3445296
-29.272976 0.89543688 2.3021591
-29.189199 0.81879944 2.3896003
-29.410583 1.1620824 2.2310834
-29.343439 1.0978594 2.2965367
-29.425999 1.2995989 2.2648544
-29.369308 1.2648411 2.3422282
-29.497459 1.555756 2.287946
-29.267925 1.514865 2.2808292
-29.187218 1.5411422 2.3424287
-29.614126 1.7794993 2.2237504
-29.538433 1.7070205 2.3154078
-29.271549 1.6381652 2.3148568
-29.184999 1.6169991 2.381
-29.574902 1.8776658 2.3560004
-29.592667 2.0059984 2.3886669
-29.561968 2.5342889 2.3193092
-29.557594 2.6718752 2.3154387
-29.593 2.8189983 2.3889997
-29.554668 3.3884985 2.277667
-29.486408 3.532114 2.2922175
-29.4606 3.6049986 2.3632002
-29.591705 3.9463515 2.3727057
-29.579981 4.1135964 2.3408945
-29.611498 4.2423291 2.2253332
-29.552246 4.2946239 2.3085637
-29.369667 4.398663 2.2323339
-29.498018 4.5382271 2.2991998
-29.321167 4.4759207 2.2988946
-29.502174 4.7037568 2.2997613
-29.469875 4.9039898 2.2991228
-29.443037 5.0898228 2.2943463
-29.392447 5.1591077 2.3618891
-29.427916 5.2269135 2.2818334
-29.291164 5.2695136 2.3137503
-29.149355 5.3363376 2.3017626
-29.297777 5.5671635 2.2767501
-29.161085 5.4928517 2.300133
-29.334867 5.7069321 2.2953868
-29.155251 5.6099963 2.3750005
-29.30723 5.8966579 2.2945354
-29.274029 6.0934377 2.2983541
-29.246334 6.227108 2.3023334
-29.05798 6.2916508 2.289731
-28.991766 6.3220553 2.3643532
-29.220085 6.5054817 2.2558634
-29.164762 6.5166664 2.3442912
-29.210546 6.6606326 2.2328191
-29.170292 6.6911893 2.3099995
-29.139418 6.9103236 2.2984538
-29.103085 7.0846882 2.2981107
-28.896198 7.1637959 2.3017201
-29.022825 7.3486485 2.2569568
-28.898943 7.2876482 2.310791
-28.914774 0.093830764 2.5062902
-29.0075 0.24124992 2.4315
-28.903502 0.30156219 2.5045161
-29.062246 0.54013491 2.4846764
-29.208 0.79799968 2.4110003
-29.111055 0.70865881 2.4968741
-29.21851 0.93161321 2.4396133
-29.160133 0.88686889 2.5219874
-29.252371 1.0922086 2.4808767
-29.182398 1.031049 2.5634
-29.309759 1.2948213 2.4991612
-29.445717 1.5802848 2.450429
-29.306479 1.4512715 2.5047274
-29.144354 1.5715475 2.4868066
-29.458235 1.7136114 2.4922652
-29.258924 1.6802992 2.4893
-29.161406 1.673104 2.5392499
-29.511955 1.9029243 2.5010381
-29.56398 2.0802803 2.518641
-29.587715 2.2335699 2.5774286
-29.539909 2.5283554 2.5020454
-29.608 2.7869983 2.401
-29.482828 2.7002821 2.5035038
-29.548889 2.8388498 2.5204074
-29.201 3.1609981 2.526
-29.574999 3.3904986 2.4570003
-29.227001 3.2044983 2.5625002
-29.478168 3.5652487 2.467417
-29.368593 3.52948 2.5274816
-29.614304 3.67418 2.4414549
-29.538813 3.6825047 2.5226958
-29.379307 3.6322291 2.5454617
-29.005501 3.7949984 2.5460005
-29.604 3.8119984 2.4010003
-29.553616 3.9164641 2.4967949
-29.528036 4.0992627 2.4996557
-29.500261 4.2880239 2.5029502
-29.453609 4.5140696 2.4958334
-29.275597 4.5001602 2.4990687
-29.200001 4.5319963 2.5980003
-29.437675 4.7000055 2.493557
-29.389141 4.7464256 2.592
-29.422451 4.8928156 2.4619548
-29.383297 4.9179187 2.5469346
-29.412857 5.0525203 2.4308574
-29.368925 5.0999594 2.5092978
-29.41 5.212996 2.4410002
-29.313763 5.2598257 2.4998164
-29.093166 5.3409348 2.4996114
-29.270168 5.5928297 2.4675834
-29.090086 5.5020285 2.4981318
-29.270817 5.715076 2.4957273
-29.106056 5.6122398 2.5128648
-29.242376 5.9019852 2.4935927
-29.190624 5.975996 2.5679996
-29.227846 6.0764174 2.4598997
-29.183863 6.1061087 2.5479443
-29.2115 6.2173719 2.4463749
-29.124592 6.2419176 2.5015469
-28.958073 6.3088503 2.4997797
-29.124214 6.5252728 2.4999714
-28.9723 6.4117961 2.4975002
-29.105591 6.6875362 2.5001106
-29.070019 6.9026427 2.5008655
-29.042871 7.0726328 2.4901485
-29.007 7.3359966 2.4370003
-28.892788 7.3203878 2.4858704
-29.0175 0.57774973 2.6237502
-28.913321 0.53299952 2.698864
-29.036083 0.72578037 2.6718512
-28.965872 0.67330134 2.7397361
-29.079296 0.89805919 2.695436
-28.994665 0.81499958 2.7926669
-29.212 1.1559992 2.638
-29.132967 1.07601 2.6998
-29.236141 1.3358387 2.6794939
-29.180841 1.3061988 2.7579203
-29.255596 1.4350721 2.7013457
-29.104252 1.5904162 2.6861668
-29.41486 1.7618563 2.6145713
-29.34041 1.7288017 2.6945522
-29.094921 1.6994596 2.7058663
-29.436644 1.9222813 2.6751831
-29.37215 1.8705349 2.7571075
-29.1175 1.8064992 2.7540004
-29.481844 2.0958786 2.6971459
-29.616293 2.3376453 2.6319418
-29.547617 2.2868297 2.7137129
-29.511961 2.518075 2.7092183
-29.431957 2.7033525 2.6737697
-29.378004 2.7190411 2.737891
-29.474195 2.8751328 2.7082238
-29.388334 2.8289986 2.7853334
-29.588158 3.1397672 2.7641158
-29.111519 3.1873465 2.6832175
-29.61331 3.2708948 2.651207
-29.57892 3.3059444 2.7365141
-29.514002 3.5255697 2.7001433
-29.311337 3.5421979 2.704967
-29.50844 3.6944408 2.6977477
-29.326586 3.6484699 2.7036948
-29.004 3.7969983 2.6880002
-29.484455 3.9123158 2.6987693
-29.457693 4.0940285 2.702894
-29.435194 4.2810249 2.6927903
-29.391418 4.3241539 2.7738953
-29.423599 4.4434962 2.6663499
-29.306551 4.5120788 2.6846979
-29.16857 4.5257959 2.7091999
-29.408573 4.6544256 2.6131432
-29.352884 4.6979899 2.7014284
-29.176361 4.6132822 2.7307143
-29.335945 4.9053679 2.6975894
-29.306133 5.0971208 2.6955934
-29.27597 5.2582674 2.6967998
-29.071154 5.3340302 2.6824226
-28.979645 5.3588195 2.744559
-29.243999 5.5929956 2.6220002
-29.029745 5.5066085 2.6748929
-28.987015 5.4816256 2.7706113
-29.219893 5.6988049 2.6590896
-29.127928 5.6773186 2.7215509
-28.988075 5.6215353 2.7596154
-29.211718 5.8613186 2.6357861
-29.164566 5.9114251 2.7090638
-29.207001 6.0079966 2.612
-29.138075 6.0932293 2.7015319
-29.092159 6.2422419 2.7003679
-28.902691 6.3076124 2.6957855
-29.058718 6.5389805 2.7029505
-28.92944 6.4340591 2.7037497
-29.038786 6.6889272 2.6908994
-28.993498 6.7347465 2.7778001
-29.020554 6.8827667 2.6635084
-28.982126 6.911521 2.7382131
-29.009645 7.0364261 2.6261427
-28.95912 7.0841918 2.7017012
-29.028 0.7669996 2.8060002
-28.924177 0.72460437 2.8976932
-29.023203 0.91433275 2.8335927
-28.963009 0.87474549 2.9168439
-29.048311 1.0937176 2.8883657
-28.989449 1.0353324 2.9708893
-29.202 1.389999 2.8010004
-29.122059 1.3083868 2.9028709
-29.223999 1.4584537 2.8348184
-29.160509 1.4834671 2.9089117
-29.275337 1.7542884 2.8855336
-29.044868 1.7104473 2.8777113
-28.978285 1.717267 2.9418874
-29.404751 1.9832492 2.8315003
-29.318775 1.8967098 2.8981688
-29.058903 1.8256657 2.9211907
-28.9865 1.8109994 2.9790003
-29.425375 2.1210878 2.8502889
-29.364264 2.0690906 2.9269848
-29.463238 2.3044114 2.8965557
-29.390249 2.2392485 2.9855001
-29.502567 2.4948459 2.8962607
-29.389 2.5979981 2.8565001
-29.415417 2.665915 2.8295004
-29.3375 2.7118237 2.9080367
-29.601999 2.9989982 2.8060002
-29.450317 2.9347696 2.8496282
-29.349735 2.8749106 2.9198794
-29.546799 3.1131978 2.8983722
-29.107801 3.1957982 2.8322001
-29.52784 3.2839978 2.8953381
-29.082457 3.2797155 2.8969862
-29.473001 3.4497757 2.9180002
-29.280712 3.5327127 2.8765721
-29.193251 3.556998 2.9660003
-29.449884 3.706784 2.8899601
-29.272457 3.6734776 2.9034786
-29.182669 3.6793323 2.9723339
-29.429287 3.9069183 2.8765116
-29.387802 3.9356434 2.9660966
-29.416912 4.0740571 2.8494241
-29.374727 4.1101327 2.9318414
-29.410666 4.2356634 2.8090005
-29.359335 4.2915902 2.9027026
-29.327154 4.4544406 2.8844004
-29.106138 4.5450583 2.8917227
-29.288719 4.6963239 2.8933735
-29.121431 4.6280475 2.9031286
-29.266666 4.9045558 2.89818
-29.24062 5.0940914 2.8927417
-29.193251 5.170372 2.9840002
-29.226536 5.2525339 2.8717685
-29.122118 5.30725 2.9176764
-28.933678 5.3636122 2.9011226
-28.941654 5.4952445 2.9040728
-29.123457 5.7036395 2.8944998
-28.949184 5.6330309 2.9116669
-29.105036 5.9015298 2.9008131
-29.07412 6.0867238 2.89992
-29.045258 6.2377148 2.9007177
-29.015234 6.5374641 2.8553619
-28.951847 6.5218649 2.9294405
-29.009737 6.6645627 2.8289666
-28.964615 6.7051144 2.9124489
-28.939976 6.9009514 2.9029853
-28.909304 7.0794945 2.8977966
-28.889837 0.88884842 3.0838017
-29.015909 1.163999 3.0279999
-28.947275 1.1131637 3.1148019
-29.036945 1.305999 3.0741158
-28.98069 1.2648213 3.1521111
-29.093641 1.5030434 3.0967588
-28.997499 1.4189987 3.1900001
-29.217335 1.7749989 3.038167
-29.070774 1.6519489 3.0989001
-28.937696 1.741008 3.0905573
-29.240953 1.908772 3.0738943
-29.119093 1.8604434 3.1236224
-28.954655 1.8423095 3.11131
-29.289936 2.096827 3.1009393
-29.418554 2.3503323 3.0269263
-29.353001 2.2976394 3.1123192
-29.446266 2.5086064 3.0796218
-29.379305 2.4463065 3.1538465
-29.408165 2.613832 3.1296668
-29.293676 2.7131634 3.0924349
-29.195999 2.7989981 3.1960001
-29.271778 2.8937442 3.1017601
-29.197001 2.8479986 3.1690004
-29.476242 3.1272511 3.0988171
-29.3318 3.0251982 3.1233006
-29.460957 3.2856514 3.084511
-29.081797 3.2783616 3.1001372
-29.437855 3.4506176 3.0961428
-29.255144 3.5374267 3.0887141
-29.181601 3.5663989 3.0930004
-29.413574 3.7137842 3.0263577
-29.33761 3.7268033 3.0996563
-29.154257 3.7123413 3.1169147
-29.403 3.8199985 3.0080001
-29.347874 3.9170856 3.1027396
-29.321753 4.0989962 3.1006353
-29.29393 4.2901459 3.0983505
-29.274183 4.4381819 3.0893691
-29.041962 4.5521054 3.088196
-28.996431 4.5635681 3.165715
-29.233465 4.7083921 3.0822182
-29.090252 4.6572075 3.1124001
-28.997499 4.6339955 3.1869996
-29.220411 4.8899655 3.0565805
-29.180967 4.9115901 3.139328
-29.211821 5.0614967 3.0236368
-29.165956 5.1002011 3.106555
-29.126621 5.2828054 3.1061158
-28.919374 5.3748255 3.0648575
-29.065731 5.7225814 3.0947819
-28.896843 5.6427894 3.10431
-29.042624 5.8980856 3.0969634
-28.997332 5.9653292 3.1795554
-29.024944 6.073122 3.0699935
-28.985857 6.1094112 3.154171
-29.016123 6.2310586 3.0418124
-28.916479 6.2613311 3.1036267
-28.927368 6.5379591 3.097018
-28.906931 6.6982045 3.1029959
-29.016998 1.3669993 3.2203333
-28.934179 1.2991421 3.2793078
-29.034185 1.5398413 3.2495794
-28.972429 1.4788203 3.3129287
-29.047485 1.6509435 3.2738338
-28.918524 1.7422382 3.2574785
-29.137716 1.9133008 3.2754445
-28.900629 1.8715291 3.2533336
-29.23114 2.1111927 3.2460279
-29.176813 2.0859039 3.3172812
-29.276051 2.3082075 3.281323
-29.405834 2.5648317 3.2211666
-29.333063 2.4858093 3.2922111
-29.4168 2.6179986 3.2342005
-29.283504 2.6998725 3.2719836
-29.147665 2.7728322 3.3071675
-29.226191 2.93556 3.236938
-29.152861 2.8863771 3.271518
-28.924364 2.8971534 3.3348315
-29.423403 3.1425982 3.2453339
-29.288746 3.0695412 3.2658298
-29.05653 3.0852334 3.2969413
-28.96925 3.0653732 3.3369684
-29.414223 3.267776 3.2387784
-29.388 3.2893612 3.2745457
-29.082947 3.2741034 3.2423682
-28.928402 3.3218501 3.2830377
-29.406 3.4189985 3.2030005
-29.353001 3.4824984 3.2204998
-29.10025 3.5634978 3.2242501
-29.319839 3.7395465 3.2572584
-29.122179 3.7418809 3.2348239
-29.296129 3.9122388 3.25738
-29.271315 4.0997834 3.2503994
-29.243786 4.2865605 3.2478008
-29.195 4.3659968 3.3050003
-29.22481 4.4279957 3.2468572
-29.119801 4.4763961 3.2734003
-28.911001 4.534246 3.2279592
-29.201 4.6379962 3.224
-29.145828 4.7084179 3.2492189
-28.927053 4.6599436 3.2330005
-29.148735 4.8993425 3.2522635
-29.118818 5.097055 3.2492967
-29.0931 5.2823982 3.2470448
-28.92767 5.3963294 3.2273335
-29.055 5.4009962 3.2519999
-29.023495 5.7194853 3.24649
-28.89393 5.6726513 3.2386203
-29.011274 5.8570995 3.2261381
-28.984579 5.9207606 3.2527206
-29.013 6.0709968 3.2090008
-28.960619 6.0955248 3.2437534
-28.913073 6.2550712 3.2355189
-29.028002 1.9519992 3.5596845
-29.077972 2.0961237 3.5525498
-29.215 2.3859978 3.503
-29.144543 2.3048751 3.5616319
-29.230129 2.524085 3.5513043
-29.184866 2.4513621 3.5699542
-29.270077 2.6673579 3.5488803
-29.149536 2.7605319 3.5294676
-29.090656 2.9102736 3.5074251
-29.108072 3.0508554 3.4842145
-28.8895 3.013998 3.4235001
-29.292902 3.282299 3.5475006
-29.289335 3.5349987 3.4836671
-29.023001 3.4519985 3.4850001
-29.218 3.770998 3.5553339
-29.040638 3.7520278 3.5025158
-28.95829 3.7103317 3.5249426
-29.215651 3.9041986 3.5197001
-29.133478 3.8868563 3.5500641
-28.896177 3.8727036 3.4649413
-29.209402 4.0639963 3.4868004
-29.168568 4.0969048 3.5510936
-29.132538 4.2937827 3.5547147
-29.077112 4.4564419 3.5486667
-29.065271 4.7519965 3.5511329
-29.054247 4.8897228 3.5379543
-29.02396 5.0858922 3.5311255
-28.991501 5.157846 3.5724504
-29.011 5.2471218 3.5213749
-28.973825 5.2743411 3.5635176
-28.905003 5.4149971 3.5012004
-28.90119 5.7460766 3.5328376
-28.92 1.754999 3.6259999
-29.01 1.9959995 3.6160004
-28.921501 1.9089991 3.7014999
-29.043285 2.0961411 3.6065717
-29.123001 2.3284154 3.6120834
-29.210999 2.5504982 3.6025004
-29.168875 2.4909983 3.6491256
-29.236555 2.6747761 3.6254449
-29.157501 2.7424979 3.7590003
-29.039253 2.8893738 3.7610006
-29.17425 3.7912481 3.6370001
-28.940401 3.7517486 3.6415005
-29.149332 3.9054356 3.6514995
-28.915834 3.8559337 3.6571939
-29.126173 4.1196017 3.6630123
-29.095259 4.2946186 3.6729903
-29.069405 4.4405904 3.6759999
-29.0305 4.7628298 3.6496665
-29.018641 4.8878441 3.6456161
-28.984333 4.9288712 3.6964991
-29.007223 5.0509973 3.6325562
-28.964054 5.1137962 3.6837504
-28.945045 5.2628913 3.6694696
-28.895336 5.4253306 3.6196673
-28.909544 2.1050892 3.9195914
-28.951834 2.2809153 3.9454999
-29.0602 2.5433528 3.9200001
-28.984333 2.4573317 3.9858341
-29.116859 2.6858459 3.8994555
-29.069189 2.8451273 3.8840966
-28.91662 2.9262834 3.9083571
-29.005001 3.1899984 3.9115002
-29.044834 3.9714985 3.9670005
-29.031693 4.069766 3.967154
-28.987999 4.1354966 3.9635
-28.982288 4.3618536 3.9622858
-28.9755 4.4244962 3.9605005
-29.013502 2.5479987 4.0250006
-28.934504 2.4846041 4.1179676
-29.029348 2.6694329 4.0579996
-28.977522 2.6464267 4.1528101
-29.068754 2.8504984 4.0489173
-28.922813 2.9360926 4.081501
-29.103001 3.317498 4.1274996
-28.925499 3.2324982 4.1059999
-29.020599 3.9812984 4.0431991
-29.014437 4.0702143 4.0342612
-28.983971 4.0981135 4.1043525
-28.931444 4.3398857 4.1207781
-28.902334 4.4403291 4.1616664
-28.90608 2.6548402 4.3033953
-29.050499 3.3884981 4.2700005
-28.923 3.9196641 4.2541671
-28.930857 4.1055675 4.2451434
-28.892447 4.3197737 4.2368889
-28.926748 3.4699981 4.5357504
-28.909 3.3579984 4.6000004
