# .PCD v0.7 - Point Cloud Data file format
VERSION 0.7
FIELDS x y z
SIZE 4 4 4
TYPE F F F
COUNT 1 1 1
WIDTH 1543
HEIGHT 1
VIEWPOINT 0 0 0 1 0 0 0
POINTS 1543
DATA ascii
-7.1110563 17.695198 -2.2453871
-6.9305453 17.682158 -2.2548311
-6.2702098 17.736176 -2.3177445
-6.098258 17.757668 -2.2455556
-5.8847337 17.779264 -2.2459669
-5.4571667 17.635168 -2.2265
-5.3195 17.67025 -2.2175
-5.0524998 17.7715 -2.2135
-4.8408265 17.697346 -2.2429132
-3.0615001 17.7395 -2.2667501
-2.8445137 17.737724 -2.2823083
-1.7751667 17.606001 -2.3803334
-0.72241378 17.696644 -2.2990782
0.34278575 17.687643 -2.2618573
1.5646341 17.759909 -2.347759
1.6502314 17.761114 -2.350544
4.2052307 17.707577 -2.3757117
4.9703946 17.762793 -2.2723718
5.0545959 17.744095 -2.3272526
5.2136669 17.729668 -2.2146666
6.198 17.664333 -2.2323337
6.2147551 17.703083 -2.2434587
7.2946725 17.656332 -2.2827547
7.4372501 17.609821 -2.3295
8.28444 17.716221 -2.2549314
-11.606366 17.830433 -2.2578001
-11.583521 17.915257 -2.3018777
-10.618695 17.895714 -2.300396
-10.597954 17.972681 -2.3271821
-9.5685005 17.803499 -2.2065001
-8.5398846 17.878912 -2.2384462
-8.1374207 17.926895 -2.2214735
-7.8823085 17.898853 -2.2728891
-7.2992635 17.854946 -2.2563946
-7.1088052 17.842922 -2.2440488
-6.9043388 17.857193 -2.2420642
-6.789 17.827 -2.2514999
-6.2573433 17.893831 -2.3114228
-6.0999231 17.909798 -2.2506719
-5.8901548 17.885382 -2.2623515
-5.4345741 17.928772 -2.2882783
-5.3412638 17.933735 -2.2218301
-5.1836667 17.988667 -2.2066667
-4.8252625 17.888121 -2.2492621
-4.786293 17.963268 -2.247122
-2.8274763 17.843143 -2.3084283
-2.777 17.990999 -2.2579999
-2.3410001 17.838501 -2.2080002
-1.4246 17.931732 -2.3196664
-1.3267114 17.958752 -2.2793462
-0.72645354 17.902172 -2.3014162
0.36751431 17.912317 -2.3127711
0.49774191 17.936317 -2.3387582
0.71824539 17.935675 -2.3297324
0.84309494 17.936718 -2.3137076
4.2062755 17.891176 -2.3354001
4.6258187 17.89291 -2.2163637
4.9170289 17.86635 -2.2280293
5.1234155 17.859659 -2.257813
5.2202973 17.916132 -2.2432039
6.1443081 17.854078 -2.3976157
6.2499175 17.896507 -2.2793443
6.4348745 17.927626 -2.395875
8.2871513 17.895151 -2.2537127
-11.56667 18.0926 -2.2918921
-10.604913 18.031267 -2.2915833
-10.587975 18.112631 -2.3014803
-9.5388336 18.194834 -2.3716667
-9.0769997 18.184999 -2.2219999
-8.0686865 18.079439 -2.2177498
-7.8568549 18.096466 -2.2691009
-7.277 18.190334 -2.3227501
-6.2396879 18.040377 -2.3312669
-6.1018424 18.022474 -2.2570529
-5.8943849 18.026693 -2.2583077
-5.8000002 18.055 -2.266
-5.4318938 18.059454 -2.2918491
-5.3318329 18.025251 -2.2229583
-5.0973334 18.031334 -2.2086668
-4.8105903 18.082571 -2.251159
-4.7900553 18.091276 -2.2772782
-2.7685001 18.09425 -2.2375002
-1.6314996 18.159323 -2.3096476
-1.5037833 18.099773 -2.2974815
-1.3200967 18.037338 -2.2437577
-0.73295283 18.083176 -2.2986152
0.37579998 18.062 -2.253
0.49515384 18.052155 -2.2911539
0.72041529 18.074167 -2.2733388
0.8194375 18.037437 -2.2798126
5.1630001 18.018002 -2.2049999
5.2347426 18.086775 -2.2141614
6.1231403 18.10288 -2.3274889
6.2529931 18.09671 -2.3006184
6.4276004 18.081299 -2.3936002
6.9902501 18.164251 -2.24475
7.0365391 18.161232 -2.2455385
8.2996502 18.106699 -2.2571168
-13.085 18.393 -2.201
-11.536238 18.302628 -2.2979727
-10.603001 18.227833 -2.2373335
-10.577016 18.228455 -2.2946517
-9.5156212 18.30121 -2.296808
-7.8317146 18.217144 -2.2925715
-7.2690635 18.236746 -2.3312037
-7.0990005 18.338667 -2.2736666
-6.8378315 18.320461 -2.3236308
-5.8546667 18.322668 -2.2783334
-5.7974997 18.278999 -2.3179998
-4.8010001 18.221001 -2.319
-4.7770967 18.305159 -2.262032
-2.6642001 18.3836 -2.2347
-2.5665002 18.379 -2.23575
-1.8155 18.344 -2.3534999
-1.6813929 18.24268 -2.2853217
-1.5117022 18.235147 -2.2677438
-0.81189579 18.249399 -2.2962499
-0.70565641 18.268711 -2.3008473
-0.51983917 18.261694 -2.2808292
0.38236365 18.284729 -2.267
0.5222953 18.301456 -2.2894096
0.65424484 18.2885 -2.2740276
5.2684622 18.249924 -2.2180772
6.1528001 18.217402 -2.2994001
6.2927909 18.320705 -2.2525787
6.9942145 18.251074 -2.2379286
7.0713406 18.252129 -2.2360215
7.2934999 18.3785 -2.2059999
-13.499845 18.567621 -2.2107778
-13.32462 18.570333 -2.2020476
-13.150599 18.534399 -2.2024002
-12.861 18.586 -2.2030001
-11.511168 18.496267 -2.2947435
-11.228137 18.495638 -2.2155907
-11.199 18.5 -2.2315001
-7.2627225 18.463833 -2.249778
-7.1009088 18.445841 -2.2515905
-6.833889 18.427557 -2.3036668
-5.9699998 18.576 -2.3050001
-4.7549615 18.506653 -2.2571921
-3.6654706 18.574471 -2.2375293
-3.4970388 18.545155 -2.2420001
-2.7190003 18.450573 -2.2777145
1.4442 18.4034 -2.392
2.5378714 18.428032 -2.3802578
2.6508696 18.420435 -2.3716521
2.8879411 18.421587 -2.3619411
3.2115004 18.430429 -2.3516431
5.8858333 18.479168 -2.2346668
6.3182087 18.421072 -2.2919302
6.421 18.481499 -2.382
6.9743338 18.504002 -2.2119999
7.1348906 18.548334 -2.2605555
7.2895894 18.529732 -2.260807
8.2259998 18.5905 -2.256
18.926001 18.572001 -2.211
-13.498264 18.714607 -2.2220321
-13.314307 18.723583 -2.2037218
-13.124225 18.74629 -2.2028556
-12.912923 18.710539 -2.2026925
-12.79 18.791 -2.201
-12.327079 18.773617 -2.2102311
-6.8579998 18.601999 -2.2820001
-6.7290001 18.674 -2.2780001
-6.0304999 18.7715 -2.263
-5.968101 18.662401 -2.3156996
-4.9650002 18.723749 -2.2175
-4.7431908 18.70067 -2.2496665
-4.4039998 18.673 -2.21
-4.3660002 18.656 -2.207
-3.7425001 18.601501 -2.2515001
-3.485667 18.636168 -2.3228335
7.3021502 18.634251 -2.3638499
8.2264996 18.613501 -2.2595
20.936274 18.707182 -2.2142727
21.103792 18.711946 -2.2157366
21.263252 18.713917 -2.2169168
21.7875 18.743999 -2.227
21.900331 18.732224 -2.2155554
22.034718 18.737003 -2.2272859
24.320999 18.722 -2.207
-13.606142 18.956381 -2.2585716
-13.504744 18.899252 -2.2346578
-13.302197 18.907604 -2.2067893
-13.110989 18.920542 -2.2045684
-12.916533 18.918388 -2.2029934
-12.744455 18.916168 -2.2029397
-12.545334 18.911667 -2.2016668
-12.291849 18.912445 -2.2167313
-8.2550669 18.943331 -2.3025434
-4.8164997 18.863501 -2.346
-4.7618332 18.826668 -2.3196666
24.279001 18.8598 -2.2214
24.53775 18.873251 -2.2140832
24.686069 18.880468 -2.2229333
24.806999 18.893 -2.223
25.748501 18.934999 -2.2024999
-14.444494 19.124065 -2.2506623
-14.395142 19.177103 -2.3330595
-8.2286549 19.083078 -2.2896018
-8.1858673 19.166313 -2.3306
19.9645 19.088501 -2.2020001
26.818001 19.002001 -2.2019999
-14.61402 19.323698 -2.2418916
-14.493189 19.293825 -2.2341127
-14.387409 19.301577 -2.3142021
-8.2580023 19.272715 -2.296375
-8.1713924 19.269665 -2.3185172
-15.6 19.576 -2.2119999
-15.389 19.504 -2.2869999
-14.624463 19.477806 -2.2327914
-14.487803 19.466482 -2.2266562
-14.372391 19.499834 -2.3054297
-16.603001 19.796 -2.221
-16.523094 19.762997 -2.2119062
-15.433085 19.747272 -2.22575
-15.373381 19.731161 -2.2319262
-14.406894 19.684158 -2.2126317
-14.358006 19.696926 -2.2932031
-17.260942 19.956055 -2.2585216
-17.195 19.978001 -2.257
-16.650509 19.903475 -2.2289848
-16.500677 19.923128 -2.2293088
-15.608286 19.980143 -2.2351429
-15.48312 19.90798 -2.2311959
-15.340396 19.912291 -2.2879498
-14.337976 19.897007 -2.2951982
-17.466185 20.117449 -2.240206
-17.259556 20.070004 -2.2702539
-17.195032 20.084253 -2.3042665
-16.641445 20.062471 -2.2300837
-16.480473 20.052076 -2.2380641
-16.398499 20.033001 -2.322
-15.603 20.003 -2.243
-15.318113 20.098675 -2.2948198
-14.430392 20.157501 -2.2339082
-14.325709 20.108194 -2.2720599
-13.595333 20.147667 -2.3766668
-17.443243 20.294455 -2.2476685
-17.386278 20.347523 -2.3258064
-16.476999 20.351999 -2.2049999
-16.380201 20.272001 -2.2479999
-15.403602 20.317801 -2.2114
-15.309234 20.283651 -2.2839317
-14.4226 20.234152 -2.2942502
-14.32116 20.250704 -2.3428438
-18.775999 20.424999 -2.2190001
-17.456291 20.483669 -2.248131
-17.374908 20.455322 -2.3339787
-16.506001 20.468 -2.2136667
-15.293424 20.411692 -2.3682306
-17.490419 20.669853 -2.3150265
-17.369293 20.663824 -2.3180883
7.8449998 -13.009 -2.0079999
8.0662003 -13.004401 -2.0666001
6.4395995 -12.9172 -2.0655999
7.9175458 -12.986181 -2.0255456
8.0670004 -12.994859 -2.0697143
13.350442 -12.950912 -2.0830882
13.471354 -12.955556 -2.0568666
13.623125 -12.938749 -2.0241251
15.984501 -12.866 -2.1974998
16.118153 -12.858585 -2.1743038
16.295897 -12.838665 -2.1649871
16.497698 -12.818255 -2.1550004
16.686741 -12.808496 -2.1416371
16.839001 -12.8075 -2.1186502
16.053938 -12.676209 -2.1779149
16.593 -12.798667 -2.1276667
16.726421 -12.793261 -2.1611199
16.862499 -12.780271 -2.1528943
17.7393 -12.739632 -2.1374159
17.90411 -12.721455 -2.0975862
18.102026 -12.709 -2.0961261
18.277151 -12.699125 -2.0768697
18.494116 -12.689865 -2.1306612
22.896 -12.551 -2.0039999
23.388203 -12.539001 -2.0066001
23.455942 -12.540823 -2.0049415
26.743252 -12.497917 -2.1821666
26.911654 -12.4921 -2.1631224
27.07571 -12.483875 -2.1721253
3.1415553 -12.213326 -2.1193116
3.2994773 -12.234479 -2.0974369
3.4986589 -12.275146 -2.10605
3.6767035 -12.302152 -2.1323109
3.8182859 -12.322143 -2.191143
26.393501 -12.3235 -2.0079999
26.459072 -12.339429 -2.0400002
2.1217999 -12.011122 -2.0377202
2.9553483 -12.168724 -2.0456958
3.0722523 -12.184999 -2.0774698
3.2060001 -12.198 -2.062
1.365 -11.853 -2.003
1.497077 -11.865768 -2.0043848
1.7143477 -11.890697 -2.0068696
1.9251285 -11.962957 -2.022486
2.0556459 -11.985687 -2.0292287
-0.90030003 -11.406751 -2.0992002
-1.2771409 -11.3091 -2.0458038
-1.1160806 -11.330948 -2.0385342
-0.94576383 -11.370749 -2.0386527
-2.8266113 -11.037722 -2.0171113
-2.697715 -11.055468 -2.031034
-2.5090344 -11.061998 -2.033879
-4.0611997 -10.754349 -2.0110004
-3.9414999 -10.7535 -2.003
-8.2463341 -9.868083 -2.1629999
-8.1686668 -9.9653339 -2.1800001
-10.254577 -9.6370764 -2.034425
-10.198 -9.6529999 -2.0650001
-9.4852304 -9.6918459 -2.1722307
-8.2331629 -9.7481356 -2.1639194
-8.1543007 -9.7164001 -2.1779001
-11.604 -9.4110003 -2.003
-11.463294 -9.4455032 -2.0796671
-11.300202 -9.4632988 -2.1041648
-11.148124 -9.4891205 -2.1051753
-11.817565 -9.2090874 -2.0332172
-11.684086 -9.2594643 -2.0732012
-11.514528 -9.3385897 -2.1540866
-11.325991 -9.3662767 -2.1807032
-12.390286 -9.1119995 -2.1898572
-11.842125 -9.1942501 -2.0249999
-11.514395 -9.0368795 -2.0758789
-14.250566 -8.8114357 -2.1641643
-11.526414 -8.952466 -2.0336897
-16.206572 -8.4090004 -2.172143
-15.398 -8.5450001 -2.1989999
-14.640274 -8.441 -2.1532729
-16.151665 -8.3970003 -2.1433332
-15.873857 -8.2176428 -2.1685715
-18.2535 -8.0105162 -2.0505004
-18.153658 -8.037344 -2.0177813
-18.618031 -7.9446664 -2.1269999
-18.482676 -7.9612513 -2.1027887
-18.34487 -7.9877801 -2.0754538
-19.568184 -7.7635002 -2.0306365
-18.096779 -7.6672354 -2.0290906
-18.081726 -7.5932732 -2.0327272
24.586 -5.9565001 -2.1715
24.604 -5.9559999 -2.174
-18.098577 0.05188461 -2.0301919
-19.166201 0.23573333 -2.0416665
-19.110001 0.56755877 -2.0882645
-19.108276 0.61583328 -2.0235
-20.171 1.268 -2.0039999
-21.143 2.5220001 -2.148
-7.5780005 4.1584291 -2.0180001
-7.6350002 4.2477503 -2.0275002
-7.569334 4.2730002 -2.0176668
-8.4230003 5.1830001 -2.003
-7.6803336 5.1810007 -2.056
-8.714263 5.3430815 -2.0532045
-7.6610003 5.2422857 -2.074286
-8.6976862 5.4453712 -2.064714
-17.827 5.9920001 -2.197
-17.712778 5.987278 -2.1892223
-17.554167 5.974 -2.1846666
-18.227001 6.1285996 -2.1744001
-18.094751 6.0957503 -2.1766248
-17.901411 6.0455537 -2.181536
-17.70928 6.0571203 -2.1614399
-17.543144 6.0492854 -2.1502857
-18.157 6.2010002 -2.1340001
-17.462667 6.2390003 -2.0526667
-0.82800001 6.5679998 -2.098
-0.76174998 6.5922499 -2.0320001
-26.867001 6.704 -2.003
-26.712 6.6300001 -2.0009999
-0.74166673 6.6040001 -2.0089998
-26.913 6.9665003 -2.0015001
-26.306334 6.9666667 -2.0013335
-27.504999 7.1659999 -2.0009999
-27.305 7.1339998 -2.0015001
-27.146 7.0819998 -2.0035
-26.981001 7.0139999 -2.003
-26.459002 7.1304293 -2.0061431
-26.295599 7.0688004 -2.0044
-26.061666 7.0526671 -2.0043333
-25.976002 7.138 -2.006
-26.854 7.3909998 -2.007
-26.672501 7.3339996 -2.0054998
-26.53867 7.2490001 -2.0050001
-26.251999 7.2685003 -2.0095
-26.184999 7.2670002 -2.0039999
-25.873501 7.9398336 -2.0165002
-25.760202 7.8288002 -2.0142
-26.427 8.191 -2.0550001
-26.289669 8.1461668 -2.0598335
-26.184 8.0265007 -2.0580001
-26.510748 8.3201246 -2.0574999
-26.390499 8.2369995 -2.0569999
-22.815001 8.3739996 -2.003
-22.771667 8.3873339 -2.0053334
-26.431667 8.4173336 -2.0583334
-26.371 8.4619999 -2.0580001
-22.834499 8.4324999 -2.0095
-22.77129 8.420001 -2.006
-27.474751 8.9525003 -2.04
-27.357748 8.8649178 -2.1037083
-29.299 9.1969995 -2.01
-27.619499 9.1059999 -2.043
-27.505333 9.1051674 -2.0421667
-27.355373 9.1172495 -2.0287499
-29.257694 9.2693071 -2.0280769
-28.118999 9.552 -2.0795002
-27.868999 9.4060001 -2.0699999
-28.296667 9.6610012 -2.0963335
-27.891003 9.6780005 -2.0746667
-21.285667 9.7733326 -2.0016668
-21.121 9.7440004 -2.0009999
-28.83861 9.8647213 -2.1206112
-28.733051 9.9026508 -2.0769002
-28.582001 9.8669996 -2.0940001
-23.242332 9.9460001 -2.0009999
-23.116001 9.9815006 -2.0039999
-22.930288 9.9518576 -2.0040002
-22.309 9.9723644 -2.0028183
-22.108332 9.9383335 -2.0031114
-21.900589 9.922823 -2.0030003
-21.708715 9.8996429 -2.0025001
-21.509113 9.8924456 -2.002111
-21.229 9.9890003 -2.0009999
-21.153 9.8039999 -2.0009999
-20.764 9.901 -2.0009999
-28.523834 10.172834 -2.0225
-27.299999 10.195999 -2.072
-27.157598 10.1926 -2.1196001
-26.238001 10.188 -2.0829999
-26.102598 10.1642 -2.0264001
-23.232 10.051399 -2.003
-23.111887 10.101372 -2.0052962
-22.875772 10.131901 -2.0100324
-22.732485 10.162999 -2.0117302
-22.524 10.187 -2.016
-22.292974 10.103527 -2.0048168
-22.101925 10.105704 -2.0020368
-21.91807 10.109357 -2.0017858
-21.684454 10.13785 -2.0034499
-21.490049 10.134048 -2.0022855
-21.292168 10.1415 -2.0025003
-21.075602 10.1338 -2.0022669
-20.907555 10.152001 -2.0022962
-20.671003 10.103001 -2.0017693
-20.504667 10.107 -2.0035
-20.344002 10.161716 -2.003
-19.89143 10.143715 -2.0035715
-19.7785 10.180699 -2.0070999
-28.466923 10.295753 -2.1009631
-28.379473 10.367292 -2.0462942
-27.480803 10.235 -2.0802
-27.315125 10.2395 -2.0757501
-27.153635 10.227639 -2.1290398
-23.026785 10.303864 -2.0182974
-22.894217 10.290035 -2.0123336
-22.709936 10.304808 -2.0119269
-22.497175 10.352729 -2.0085542
-22.319485 10.31775 -2.0075705
-22.093475 10.304272 -2.0023212
-21.89728 10.322646 -2.0027642
-21.702621 10.306773 -2.0028973
-21.504604 10.332812 -2.0032604
-21.305384 10.324742 -2.0029509
-21.092808 10.302576 -2.0029886
-20.905598 10.309689 -2.0048051
-20.690153 10.353271 -2.0078754
-20.499668 10.346857 -2.0064838
-20.316051 10.333308 -2.0052834
-20.109541 10.320015 -2.0025995
-19.914505 10.250544 -2.0123086
-19.767071 10.322215 -2.0028574
5.7844996 10.37725 -2.0695
5.842 10.31 -2.1040001
-28.4175 10.419001 -2.1894999
-28.326086 10.452128 -2.0783188
-23.018501 10.4718 -2.03215
-22.9135 10.506646 -2.0290468
-22.699562 10.483419 -2.0113571
-22.513851 10.452516 -2.0067918
-22.297474 10.461044 -2.0031595
-22.098137 10.507836 -2.0038071
-21.889694 10.50933 -2.0049646
-21.697361 10.509598 -2.0067811
-21.498758 10.514263 -2.0080781
-21.297539 10.520802 -2.0087831
-21.096674 10.512332 -2.008821
-20.897869 10.503113 -2.0080266
-20.699129 10.501934 -2.0057859
-20.50231 10.515051 -2.0050128
-20.305611 10.522811 -2.0047174
-20.104345 10.525516 -2.0038621
-19.903461 10.498189 -2.0059855
-19.741291 10.494872 -2.0052831
1.8145001 10.555 -2.0855
5.7716188 10.450001 -2.037524
5.8086004 10.4202 -2.0474
6.7096 10.5448 -2.0262001
-28.1 10.697 -2.066
-27.872999 10.7955 -2.0955
-27.639999 10.775667 -2.0243335
-22.878899 10.693415 -2.0216095
-22.700735 10.701364 -2.0219319
-22.495907 10.726618 -2.0164692
-22.293669 10.711226 -2.0130868
-22.097958 10.700527 -2.0096509
-21.901531 10.69964 -2.0121412
-21.699762 10.699195 -2.0134244
-21.500757 10.698468 -2.014482
-21.299582 10.698467 -2.0146856
-21.098261 10.69812 -2.0131962
-20.901188 10.699307 -2.012604
-20.698879 10.696429 -2.0087023
-20.505737 10.687111 -2.0062301
-20.308704 10.674666 -2.0040359
-20.109079 10.699391 -2.0036047
-19.88875 10.757083 -2.0072508
-19.699093 10.75158 -2.0074975
-19.571636 10.779819 -2.004364
-19.316 10.643 -2.0009999
1.822 10.654334 -2.0273333
-27.833288 10.843572 -2.0444288
-27.731501 10.8665 -2.0968747
-27.287001 10.977 -2.098
-27.067001 10.954833 -2.1074998
-22.849962 10.898561 -2.020534
-22.699505 10.894695 -2.0237088
-22.498732 10.900505 -2.0154576
-22.297762 10.892733 -2.0080342
-22.096951 10.897244 -2.012392
-21.898434 10.897193 -2.015357
-21.698082 10.899289 -2.0160611
-21.49822 10.89624 -2.0161989
-21.299334 10.90005 -2.0135612
-21.097914 10.898877 -2.0111902
-20.89809 10.90132 -2.0104647
-20.699839 10.901822 -2.0087504
-20.497 10.907371 -2.0078664
-20.296736 10.908885 -2.0078123
-20.099209 10.900346 -2.0070965
-19.899212 10.898067 -2.006356
-19.699318 10.901939 -2.0060675
-19.557421 10.927995 -2.005162
-19.31843 10.924287 -2.0020001
-27.833603 11.0624 -2.0964999
-27.75132 11.117719 -2.0330403
-27.070398 11.091001 -2.1064
-26.9942 11.1692 -2.1362
-22.829235 11.083022 -2.0286162
-22.709379 11.109543 -2.0316048
-22.5023 11.101819 -2.0253258
-22.301041 11.096279 -2.0148301
-22.097376 11.101651 -2.0136666
-21.898636 11.097336 -2.0163407
-21.699127 11.098222 -2.0164692
-21.500824 11.098141 -2.0152225
-21.29812 11.100678 -2.0130403
-21.096016 11.099993 -2.0113516
-20.897013 11.098991 -2.0102766
-20.69589 11.098082 -2.0092614
-20.497326 11.098491 -2.0091424
-20.299559 11.09593 -2.0088298
-20.100927 11.084993 -2.0083718
-19.901104 11.070163 -2.0076911
-19.71175 11.057538 -2.0088775
-19.531336 11.057583 -2.0061893
-19.365002 11.191 -2.0054998
-22.818277 11.283376 -2.0483999
-22.718929 11.300091 -2.0367091
-22.501383 11.296523 -2.0371637
-22.296898 11.294015 -2.0237117
-22.098621 11.296312 -2.0173035
-21.898621 11.299308 -2.017879
-21.696524 11.296913 -2.0164056
-21.496338 11.298282 -2.0158927
-21.299437 11.298453 -2.0135949
-21.100338 11.298181 -2.0108941
-20.89966 11.296822 -2.0083263
-20.70274 11.289582 -2.0067458
-20.507521 11.281258 -2.0053129
-20.312962 11.27164 -2.003304
-20.102343 11.290674 -2.0023992
-19.895763 11.31941 -2.0041935
-19.693115 11.343303 -2.0056407
-19.502035 11.348589 -2.0053496
-19.321463 11.342539 -2.0055475
-19.191999 11.3936 -2.0042
-9.9619999 11.393 -2.0120001
-23.218 11.522 -2.0239999
-22.820999 11.408 -2.0626669
-22.676476 11.485473 -2.036865
-22.518679 11.499453 -2.0434883
-22.301146 11.500464 -2.0400741
-22.095066 11.493575 -2.0255773
-21.901005 11.498253 -2.0207264
-21.699179 11.494893 -2.0175843
-21.500549 11.499441 -2.0140519
-21.298037 11.496123 -2.010915
-21.09621 11.496663 -2.0082083
-20.899185 11.499877 -2.0062566
-20.701733 11.507565 -2.0069497
-20.497227 11.514636 -2.0072377
-20.298252 11.512849 -2.0071537
-20.094522 11.503365 -2.0066245
-19.896528 11.49885 -2.0064025
-19.699209 11.498822 -2.0058191
-19.506966 11.498381 -2.0057747
-19.30603 11.499498 -2.0051374
-19.117245 11.545604 -2.0091715
-18.989 11.593728 -2.0084546
-9.9594994 11.4265 -2.0240002
3.7075 11.512 -2.027
-23.013 11.62 -2.0109999
-22.845909 11.676908 -2.0110912
-22.674536 11.702316 -2.0291033
-22.499737 11.703239 -2.0443628
-22.308397 11.701303 -2.0449059
-22.099533 11.698997 -2.0313866
-21.900427 11.696745 -2.0210867
-21.70038 11.701123 -2.0192804
-21.498987 11.699912 -2.0174241
-21.298622 11.699718 -2.0144007
-21.096912 11.698267 -2.0109146
-20.899059 11.697355 -2.0083373
-20.698561 11.697171 -2.0076394
-20.497082 11.697408 -2.0080357
-20.298609 11.698086 -2.0107417
-20.097246 11.703733 -2.0136287
-19.901573 11.693975 -2.0143611
-19.698599 11.701529 -2.0164254
-19.496828 11.701243 -2.0177627
-19.297426 11.699571 -2.0172441
-19.102198 11.694072 -2.0143914
-18.984999 11.641082 -2.0119078
-18.745701 11.775885 -2.0053258
-22.814667 11.922001 -2.0318334
-22.668449 11.890134 -2.0323534
-22.499544 11.894217 -2.0430665
-22.29711 11.896979 -2.0392051
-22.107798 11.901473 -2.0343411
-21.902153 11.899108 -2.0236285
-21.700838 11.898613 -2.0215428
-21.498693 11.89894 -2.0192719
-21.298271 11.901039 -2.0170319
-21.100866 11.900621 -2.0160098
-20.898813 11.897786 -2.0166337
-20.700047 11.899698 -2.0196483
-20.497246 11.902611 -2.0233254
-20.297859 11.90059 -2.0257509
-20.100796 11.896099 -2.0266161
-19.898684 11.8985 -2.0257242
-19.697107 11.896938 -2.0237753
-19.498714 11.897297 -2.0222805
-19.298298 11.896951 -2.0208979
-19.131931 11.888825 -2.0194964
-18.848576 11.94467 -2.0104153
-18.715206 11.910393 -2.0056233
-18.534975 11.949762 -2.0040765
-18.3713 11.9627 -2.0026
-23.03089 12.066667 -2.0393333
-22.891258 12.087121 -2.0407555
-22.720695 12.090385 -2.0551667
-22.505322 12.048256 -2.0514255
-22.252745 12.054461 -2.0264215
-22.073917 12.098944 -2.0267348
-21.895815 12.09407 -2.031348
-21.696539 12.098246 -2.0310364
-21.496098 12.101418 -2.0303221
-21.300049 12.101481 -2.0292835
-21.10054 12.098404 -2.0296285
-20.901159 12.1001 -2.0300088
-20.693914 12.101965 -2.0297148
-20.499178 12.094295 -2.0299413
-20.298048 12.098289 -2.0293741
-20.098368 12.095572 -2.0294735
-19.898296 12.096045 -2.0295374
-19.69899 12.09566 -2.028502
-19.498207 12.097937 -2.0275636
-19.299326 12.096144 -2.0263884
-19.156252 12.078607 -2.0251648
-18.843336 12.107026 -2.0167353
-18.703789 12.10039 -2.0101321
-18.518553 12.11439 -2.0049796
-18.33527 12.128803 -2.003732
-18.110529 12.134058 -2.0045881
-17.928999 12.115001 -2.0036669
-15.270472 12.160764 -2.0077651
-5.8639998 12.173 -2.0020001
-5.6413336 12.178333 -2.0056667
-24.479 12.3005 -2.0109999
-22.69725 12.281333 -2.0344167
-22.573668 12.286334 -2.0340002
-22.018618 12.277688 -2.0298922
-21.90148 12.29462 -2.0414021
-21.700441 12.298123 -2.039592
-21.497488 12.301423 -2.0386574
-21.297617 12.299582 -2.0377407
-21.099531 12.296489 -2.0376415
-20.897316 12.3047 -2.0377095
-20.703424 12.294085 -2.0364485
-20.499201 12.299886 -2.0352702
-20.298491 12.298404 -2.0346603
-20.098333 12.295597 -2.0336955
-19.898384 12.298319 -2.0330489
-19.698324 12.296698 -2.0324676
-19.498932 12.296924 -2.0307028
-19.307705 12.285026 -2.0287097
-19.101643 12.291695 -2.0293708
-18.866238 12.305471 -2.0257783
-18.697977 12.297754 -2.0154941
-18.50507 12.304549 -2.0076907
-18.329327 12.322747 -2.0043211
-18.145975 12.354063 -2.0031483
-17.90543 12.258857 -2.0040002
-15.245909 12.213 -2.012182
-5.6788888 12.287667 -2.0043333
-5.599 12.292 -2.007
-25.082001 12.461 -2.0109999
-22.856499 12.5515 -2.0165
-22.657 12.583 -2.039
-22.259653 12.569038 -2.0719233
-22.088009 12.490327 -2.069612
-21.887222 12.494536 -2.0501091
-21.7003 12.494581 -2.0436561
-21.496611 12.496191 -2.0442967
-21.295006 12.504044 -2.0449359
-21.09733 12.497471 -2.0442331
-20.899584 12.496105 -2.0430686
-20.698895 12.496782 -2.0416625
-20.49896 12.495027 -2.0400243
-20.300484 12.500128 -2.0399556
-20.098213 12.499236 -2.0382633
-19.899048 12.498782 -2.0371695
-19.700506 12.50053 -2.0373013
-19.498339 12.499563 -2.0362651
-19.347458 12.482495 -2.0356638
-19.06118 12.512589 -2.0291765
-18.890924 12.502069 -2.0286505
-18.69916 12.495043 -2.0205312
-18.501486 12.495728 -2.0116208
-18.314972 12.505558 -2.0054474
-18.134472 12.534357 -2.0030723
-17.925074 12.564429 -2.0024288
-17.454 12.501333 -2.0013332
-17.355 12.484 -2.0023334
-16.061001 12.599 -2.003
-15.871451 12.586453 -2.0095479
-15.691544 12.571919 -2.0117931
-15.500669 12.539392 -2.0115507
-15.376334 12.533333 -2.0036669
-7.9184008 12.528 -2.0709999
-5.8140006 12.415335 -2.0050001
-5.7668896 12.537222 -2.0039999
-5.5555 12.573833 -2.0196667
-23.137249 12.68725 -2.0539999
-22.858501 12.7705 -2.027
-22.444153 12.759051 -2.0635498
-22.285904 12.667246 -2.082932
-22.088129 12.70781 -2.0562677
-21.897997 12.709766 -2.0621672
-21.69553 12.696924 -2.0509233
-21.498571 12.704187 -2.0523276
-21.302193 12.697278 -2.0528595
-21.09638 12.69589 -2.0527105
-20.897438 12.69885 -2.0523367
-20.695097 12.698051 -2.0506077
-20.498962 12.695391 -2.0477951
-20.299969 12.696255 -2.0440841
-20.099476 12.702387 -2.0411451
-19.900373 12.69912 -2.0384781
-19.700333 12.701414 -2.0375257
-19.500591 12.698504 -2.0359757
-19.375568 12.65821 -2.036026
-19.025932 12.71742 -2.0250289
-18.900358 12.690445 -2.0231857
-18.703775 12.697166 -2.027678
-18.498495 12.697303 -2.0182979
-18.302496 12.698301 -2.010365
-18.110798 12.705259 -2.004971
-17.925011 12.717895 -2.002883
-17.742386 12.69677 -2.0032308
-17.477749 12.734499 -2.0023749
-17.255667 12.768667 -2.0023334
-17.091856 12.786857 -2.0053809
-16.88372 12.77765 -2.0109508
-16.699158 12.750984 -2.0113659
-16.498484 12.718636 -2.0127575
-16.310616 12.674085 -2.009088
-16.092607 12.641926 -2.0116026
-15.911901 12.617517 -2.0128109
-15.773799 12.6034 -2.0161998
-6.3080001 12.793 -2.01
-6.0485001 12.7395 -2.0009999
-5.8955169 12.707793 -2.0100689
-5.7024007 12.728534 -2.0101335
-5.5404611 12.686923 -2.0189617
-23.839687 12.935814 -2.0218747
-22.836 12.806 -2.0320001
-22.644632 12.922316 -2.0648422
-22.530153 12.865103 -2.0503078
-22.348251 12.982749 -2.029
-22.027321 12.855234 -2.0398846
-21.911846 12.900966 -2.0484698
-21.697006 12.902967 -2.0608301
-21.498262 12.899738 -2.0619109
-21.297136 12.908533 -2.0609031
-21.101118 12.907482 -2.0569501
-20.898018 12.901491 -2.0527894
-20.696106 12.897902 -2.0473859
-20.495935 12.89345 -2.0429709
-20.296602 12.892252 -2.0386631
-20.100163 12.893617 -2.0357039
-19.900267 12.894395 -2.0345347
-19.698757 12.895985 -2.0348334
-19.527544 12.891009 -2.0348234
-19.365 12.9765 -2.027
-19.05665 12.901825 -2.0258248
-18.903057 12.87876 -2.0235271
-18.706266 12.861854 -2.0262027
-18.510216 12.844144 -2.0198624
-18.312128 12.827798 -2.0137746
-18.163113 12.807706 -2.0147953
-17.452095 12.855569 -2.0083332
-17.297281 12.840295 -2.0085256
-17.10079 12.817281 -2.0114198
-16.960688 12.806717 -2.0161562
-9.0167503 12.93475 -2.003
-8.9688749 12.9335 -2.0036252
-8.6518002 12.871401 -2.0112
-6.4563332 12.822666 -2.0143332
-6.3080001 12.808 -2.01
-6.0624733 12.951896 -2.0023158
-5.889019 12.919786 -2.004673
-5.7240386 12.920923 -2.0078845
-5.5316787 12.909717 -2.0156784
-22.74025 13.0275 -2.0467501
-22.245426 13.094193 -2.0219016
-22.099077 13.135928 -2.0418124
-21.904152 13.102276 -2.0588493
-21.70204 13.089904 -2.0542073
-21.502451 13.091657 -2.0509493
-21.298307 13.096357 -2.0492005
-21.099073 13.096629 -2.0481901
-20.900824 13.094729 -2.0467246
-20.698597 13.096473 -2.0457582
-20.499567 13.099245 -2.0448489
-20.300404 13.099042 -2.0437088
-20.099049 13.094311 -2.0414517
-19.901613 13.094265 -2.0404079
-19.707685 13.052295 -2.0321345
-19.552372 13.025081 -2.0235341
-17.41325 13.119499 -2.0046668
-17.307076 13.127613 -2.0047419
-17.109015 13.139318 -2.002898
-16.893974 13.161703 -2.0024865
-16.712933 13.160321 -2.0020318
-16.561333 13.151668 -2.0013332
-15.2255 13.1905 -2.0025001
-15.05896 13.16246 -2.0041661
-14.892842 13.180388 -2.0065846
-14.707074 13.169132 -2.0044541
-14.517074 13.151522 -2.0027752
-14.324859 13.145572 -2.0022378
-14.136624 13.140625 -2.002625
-13.956 13.179 -2.0009999
-12.697 13.163 -2.0009999
-12.452834 13.172667 -2.0018334
-12.313601 13.170501 -2.0020001
-12.17 13.117001 -2.0025001
-9.0030003 13.168 -2.0039999
-8.9048328 13.136252 -2.0039163
-8.6666775 13.096999 -2.026129
-8.592 13.091499 -2.0085001
-6.7030001 13.16 -2.0020001
-6.5380001 13.14 -2.0009999
-6.2714281 13.101428 -2.0017858
-6.0839996 13.07541 -2.0031536
-5.8937449 13.069786 -2.0041909
-5.7388043 13.081565 -2.0108914
-5.499001 13.088335 -2.0242777
-22.025469 13.291631 -2.0275953
-21.917034 13.297271 -2.055125
-21.700224 13.292431 -2.0553081
-21.499447 13.297912 -2.0534992
-21.299009 13.294534 -2.0541344
-21.098814 13.300334 -2.0539501
-20.90229 13.294546 -2.0536616
-20.697561 13.295582 -2.0518565
-20.496161 13.316545 -2.0441771
-20.301826 13.30886 -2.0423076
-20.101864 13.292858 -2.0392067
-19.91898 13.272525 -2.035939
-19.792 13.259 -2.04
-18.614 13.3985 -2.039
-18.489603 13.384861 -2.0222559
-18.304728 13.361615 -2.0247166
-18.09948 13.342661 -2.0243371
-17.899666 13.328623 -2.019774
-17.703306 13.31706 -2.0147452
-17.499733 13.294338 -2.0093801
-17.2789 13.300162 -2.0076933
-17.104418 13.289245 -2.0062528
-16.909479 13.275638 -2.0043623
-16.709522 13.279766 -2.0045934
-16.491375 13.356502 -2.0024586
-16.297394 13.36414 -2.0021856
-16.104923 13.35188 -2.0030148
-15.901955 13.331052 -2.0026009
-15.765834 13.342667 -2.0019999
-15.437667 13.276001 -2.0043335
-15.279984 13.320637 -2.0038047
-15.090683 13.310214 -2.0083025
-14.901524 13.303439 -2.0120554
-14.699434 13.312495 -2.009254
-14.501693 13.316349 -2.0068901
-14.306985 13.323042 -2.0053134
-14.114945 13.338017 -2.003505
-13.936365 13.370674 -2.0033841
-13.737 13.380572 -2.0019999
-13.432 13.39 -2.0009999
-12.879999 13.28325 -2.00125
-12.678144 13.243001 -2.0021427
-12.502667 13.230111 -2.0022223
-12.356 13.203 -2.003
-12.080001 13.233333 -2.0033336
-8.6280003 13.373249 -2.03725
-8.59025 13.360374 -2.0476248
-6.6772671 13.357534 -2.0028667
-6.4908133 13.337628 -2.0025113
-6.2887359 13.32304 -2.0025299
-6.0893617 13.30689 -2.0024164
-5.9173875 13.29187 -2.0022254
-5.7258182 13.288454 -2.0089998
-5.4872856 13.26138 -2.0168574
-2.142 13.26675 -2.0055001
-1.664 13.322 -2.0020001
-1.4856668 13.317 -2.0036669
6.8579998 13.2665 -2.0090001
-22.027884 13.45086 -2.0198994
-21.908058 13.496188 -2.0478053
-21.70015 13.505204 -2.0453544
-21.503126 13.495747 -2.0442924
-21.300688 13.480877 -2.0444956
-21.100765 13.461153 -2.0412855
-20.899792 13.46157 -2.0378397
-20.705767 13.43561 -2.0345538
-20.535084 13.412107 -2.0544894
-20.372 13.403 -2.0780001
-20.026333 13.464 -2.046
-19.917002 13.477537 -2.0444818
-18.832485 13.521421 -2.0314944
-18.701065 13.476768 -2.0415609
-18.503307 13.494075 -2.0450196
-18.30335 13.497994 -2.0423963
-18.096111 13.518108 -2.036159
-17.892883 13.531908 -2.0287635
-17.698685 13.534293 -2.0224562
-17.543543 13.505301 -2.0157566
-17.288841 13.504316 -2.0025787
-17.086634 13.499211 -2.0024211
-16.896414 13.491994 -2.0021427
-16.698381 13.477621 -2.0022838
-16.505022 13.488676 -2.0026259
-16.294762 13.504603 -2.0028155
-16.095377 13.524748 -2.0039234
-15.887724 13.527979 -2.0049651
-15.707574 13.531952 -2.0063739
-15.500827 13.548901 -2.0083196
-15.270533 13.502851 -2.0095356
-15.09982 13.505109 -2.0140998
-14.906096 13.504272 -2.0241165
-14.700386 13.503563 -2.0213718
-14.500067 13.495658 -2.0173662
-14.299786 13.498762 -2.0126755
-14.102699 13.500066 -2.0075195
-13.916776 13.508718 -2.0040967
-13.72422 13.532586 -2.0027394
-13.508443 13.561445 -2.0029721
-13.281389 13.563 -2.0022924
-13.118784 13.541435 -2.0017824
-12.938889 13.562888 -2.0017776
-12.671521 13.57622 -2.003087
-12.497072 13.565831 -2.0030947
-12.3032 13.554347 -2.0032542
-12.153813 13.52925 -2.003906
-11.912668 13.544111 -2.0053332
-11.516 13.556 -2.0039999
-9.29 13.577 -2.0009999
-9.1184998 13.5695 -2.0053334
-8.8582993 13.543001 -2.0145946
-8.6893806 13.52488 -2.0186291
-8.5052586 13.564966 -2.0028708
-8.3376665 13.563556 -2.0027778
-8.1155005 13.578169 -2.0013332
-7.9110003 13.552 -2.0009999
-7.7035456 13.569908 -2.0020001
-7.4973574 13.571143 -2.0021429
-7.3017502 13.564031 -2.0038438
-7.0952168 13.546449 -2.0048823
-6.888113 13.514928 -2.0046337
-6.6967349 13.507074 -2.0065191
-6.5007563 13.502991 -2.0065558
-6.3029332 13.504025 -2.0063117
-6.1120839 13.509212 -2.0047042
-5.898078 13.541137 -2.0037687
-5.6889758 13.546597 -2.002857
-5.5337691 13.536923 -2.0018463
-2.8743334 13.535 -2.0053334
-2.053 13.599 -2.0009999
-1.846 13.599 -2.0009999
-1.601 13.594 -2.0009999
-1.0638889 13.585556 -2.007
-0.96824998 13.58675 -2.01175
-0.011 13.568 -2.01
0.14399999 13.566999 -2.01
-21.692476 13.747424 -2.0406749
-21.501429 13.703807 -2.0495005
-21.294163 13.679558 -2.0498803
-21.096899 13.667827 -2.0543911
-20.89719 13.701652 -2.0624325
-20.697781 13.731253 -2.0624924
-20.499493 13.754848 -2.0624647
-20.296862 13.75484 -2.0618284
-20.161709 13.722385 -2.0617096
-19.8165 13.7705 -2.0640001
-19.762501 13.636 -2.0675001
-19.267876 13.791938 -2.0040624
-19.087076 13.781718 -2.0063074
-18.851599 13.717595 -2.0275168
-18.71846 13.707576 -2.0508468
-18.465855 13.711099 -2.0501995
-18.299091 13.707238 -2.044775
-18.099545 13.698237 -2.0387905
-17.898863 13.694805 -2.0332217
-17.699621 13.698714 -2.027221
-17.545912 13.715279 -2.021528
-17.272381 13.760421 -2.0037994
-17.071848 13.743737 -2.0052617
-16.896463 13.733439 -2.0058815
-16.695208 13.721126 -2.0065856
-16.509403 13.70697 -2.0072865
-16.296576 13.701012 -2.0087695
-16.084324 13.701789 -2.0100927
-15.902976 13.699162 -2.0123212
-15.699674 13.698307 -2.0159433
-15.525711 13.708713 -2.0206013
-15.300074 13.701244 -2.0245049
-15.087614 13.688787 -2.0297706
-14.90133 13.702449 -2.0293255
-14.702048 13.708111 -2.0238709
-14.498546 13.702734 -2.0185366
-14.298835 13.698823 -2.0139101
-14.100831 13.704013 -2.0100121
-13.903863 13.710578 -2.0083609
-13.705318 13.713067 -2.0066531
-13.507561 13.721801 -2.0052023
-13.302111 13.712555 -2.0045128
-13.106989 13.713514 -2.0034306
-12.904442 13.686328 -2.0034652
-12.702306 13.675212 -2.0027096
-12.511299 13.678912 -2.0027463
-12.311637 13.67012 -2.0029478
-12.129899 13.6477 -2.0044498
-11.92275 13.63275 -2.00525
-9.2800722 13.746716 -2.0027142
-9.079977 13.735378 -2.0067737
-8.8991137 13.710527 -2.0138652
-8.689558 13.696538 -2.019686
-8.5017796 13.700345 -2.0107336
-8.3100071 13.71009 -2.0075166
-8.1062756 13.718316 -2.0060179
-7.8976526 13.711999 -2.0073454
-7.6995559 13.709708 -2.0076904
-7.5027809 13.696152 -2.0087645
-7.307488 13.699096 -2.0116284
-7.0981016 13.696591 -2.0136414
-6.9009471 13.699712 -2.0154326
-6.7029681 13.697547 -2.016398
-6.5019884 13.706294 -2.0160978
-6.2961721 13.703753 -2.0150809
-6.0932045 13.700226 -2.0121183
-5.9006104 13.705667 -2.0096223
-5.7011647 13.702912 -2.0069497
-5.5338535 13.712573 -2.003705
-5.2280002 13.792 -2.0165
-5.1505003 13.7945 -2.0009999
-2.3705001 13.778 -2.006
-21.681282 13.915994 -2.0445158
-21.492643 13.925794 -2.0680985
-21.313919 13.913011 -2.0679049
-21.10743 13.894628 -2.0685143
-20.87351 13.911414 -2.0671382
-20.699579 13.896005 -2.0664508
-20.501148 13.899877 -2.0661905
-20.321819 13.881714 -2.0660274
-20.119154 13.934654 -2.0699062
-19.905342 13.931984 -2.0701034
-19.421333 13.942 -2.0440001
-19.285757 13.88259 -2.027714
-19.109102 13.889054 -2.0391648
-18.894451 13.89233 -2.0473762
-18.711617 13.890675 -2.0605762
-18.470942 13.903549 -2.0581737
-18.299128 13.898662 -2.0540948
-18.099531 13.900224 -2.0501673
-17.901144 13.900097 -2.0450513
-17.699215 13.899866 -2.0364907
-17.521341 13.907366 -2.0281966
-17.293278 13.901951 -2.0155761
-17.092714 13.896347 -2.0174928
-16.897421 13.897084 -2.0176353
-16.699867 13.898867 -2.0185244
-16.511147 13.900187 -2.0197368
-16.299322 13.892906 -2.0211728
-16.085764 13.890961 -2.0195177
-15.900273 13.894657 -2.0181115
-15.694908 13.896651 -2.016408
-15.49882 13.905728 -2.013458
-15.320612 13.908155 -2.0130029
-15.068208 13.89237 -2.0235789
-14.901637 13.890661 -2.0286608
-14.704612 13.883718 -2.0260561
-14.501657 13.867938 -2.0226297
-14.303484 13.855675 -2.01914
-14.103747 13.841726 -2.0169711
-13.900517 13.838532 -2.0136321
-13.707483 13.826572 -2.0094473
-13.514175 13.81637 -2.0057876
-13.331276 13.806484 -2.0037904
-13.037856 13.854526 -2.0031428
-12.899487 13.901167 -2.0035832
-12.696419 13.895409 -2.0038552
-12.498685 13.88952 -2.0052733
-12.306724 13.899793 -2.006278
-12.122798 13.930717 -2.0082855
-9.6667147 13.951571 -2.0028572
-9.489316 13.924788 -2.0054212
-9.2876453 13.930737 -2.0096447
-9.0969772 13.899361 -2.0138183
-8.9018116 13.900902 -2.0192609
-8.7005892 13.903396 -2.0227566
-8.5017834 13.901376 -2.0179999
-8.3019133 13.904095 -2.0160923
-8.1053925 13.899552 -2.0143137
-7.9017892 13.901465 -2.0128846
-7.7009621 13.900123 -2.0136766
-7.5004444 13.900965 -2.0147274
-7.3024883 13.901502 -2.0146737
-7.1018753 13.897906 -2.016573
-6.9030089 13.903018 -2.0184326
-6.7048655 13.893793 -2.0195568
-6.5016141 13.898798 -2.0213299
-6.3005204 13.903663 -2.0211537
-6.1027727 13.896633 -2.0190566
-5.8923135 13.903736 -2.0161715
-5.7059832 13.902375 -2.0128949
-5.5111022 13.903737 -2.0093737
-5.3214784 13.908155 -2.005408
-5.1715999 13.9266 -2.0021999
-2.0668826 13.885413 -2.0073531
-1.8811132 13.918057 -2.0038302
-1.7025006 13.918127 -2.0040855
-1.5152539 13.899541 -2.0041184
-1.3077028 13.897729 -2.0030265
-1.0882354 13.900178 -2.0068233
-0.926 13.875093 -2.0149548
-0.73062503 13.873063 -2.0059378
-0.54866666 13.871668 -2.0030003
-0.38249999 13.8685 -2.0015001
-21.668627 14.093237 -2.04726
-21.497812 14.098533 -2.0729241
-21.32774 14.078337 -2.072859
-21.080267 14.114668 -2.0739117
-20.896416 14.10163 -2.0736523
-20.698494 14.097306 -2.0733359
-20.517399 14.077313 -2.0731051
-20.301447 14.104177 -2.0731328
-20.078083 14.117464 -2.0726914
-19.931412 14.091575 -2.072356
-19.711214 14.142785 -2.0761356
-19.450111 14.120744 -2.0737631
-19.29851 14.102855 -2.0726767
-19.145933 14.068854 -2.0718253
-18.889643 14.079516 -2.0721712
-18.687115 14.123264 -2.0682313
-18.493448 14.103684 -2.0640357
-18.30015 14.09836 -2.059587
-18.101196 14.098329 -2.0534673
-17.901207 14.098277 -2.0480862
-17.700104 14.098355 -2.0420151
-17.499746 14.099751 -2.0357711
-17.309366 14.107013 -2.0349112
-17.095709 14.101218 -2.0358851
-16.883974 14.091291 -2.0341017
-16.698915 14.100748 -2.0346582
-16.511574 14.097239 -2.0328414
-16.298948 14.09993 -2.0285492
-16.085703 14.11762 -2.0099118
-15.89412 14.11717 -2.0094669
-15.704126 14.103873 -2.0145633
-15.498321 14.099533 -2.0204024
-15.307693 14.104652 -2.0265477
-15.158336 14.139671 -2.0268936
-14.898651 14.087128 -2.0264215
-14.69848 14.0992 -2.0377789
-14.533283 14.120122 -2.0372472
-13.108333 14.175334 -2.0120001
-12.844515 14.079637 -2.0110304
-12.70121 14.093952 -2.0120742
-12.50519 14.081369 -2.0116327
-12.306844 14.072787 -2.0125265
-12.104882 14.058978 -2.0120475
-11.953868 14.067068 -2.0144002
-10.053 14.181727 -2.002182
-9.8733702 14.167406 -2.0031476
-9.693573 14.149453 -2.0059049
-9.4979124 14.111647 -2.0088978
-9.3061419 14.099417 -2.015084
-9.0996075 14.100486 -2.0207038
-8.8957338 14.10118 -2.025578
-8.6996241 14.099051 -2.028832
-8.5040102 14.100628 -2.0284626
-8.3024435 14.10078 -2.025578
-8.1035624 14.103161 -2.0252457
-7.9065657 14.100573 -2.0246084
-7.7049661 14.100405 -2.0234222
-7.5026603 14.0988 -2.0220082
-7.2994666 14.097387 -2.0221403
-7.1019135 14.106648 -2.0238347
-6.9036627 14.098969 -2.0245609
-6.7012515 14.103055 -2.0262179
-6.5030084 14.099453 -2.0271158
-6.3004284 14.096966 -2.0277851
-6.0963082 14.094888 -2.0267196
-5.8960838 14.105166 -2.0254674
-5.7084241 14.093649 -2.0219696
-5.5035257 14.103266 -2.0181582
-5.2959418 14.100989 -2.0093014
-5.142909 14.088425 -2.0035758
-4.9299998 14.082 -2.0009999
-3.2273335 14.183666 -2.0079999
-3.0829999 14.166 -2.0078332
-2.944 14.152 -2.0074999
-2.70875 14.124999 -2.00525
-2.2460001 14.19 -2.0037999
-2.079617 14.165043 -2.0054674
-1.8868258 14.107214 -2.0034907
-1.7006923 14.112819 -2.0048933
-1.5050055 14.114571 -2.0041263
-1.3080142 14.12637 -2.0042496
-1.1087321 14.132938 -2.0042171
-0.9203831 14.146126 -2.00734
-0.72183335 14.160168 -2.0050836
-0.46950001 14.158751 -2.0067499
0.084200002 14.154001 -2.0123999
0.24924999 14.15225 -2.0035
-21.719158 14.307671 -2.0548406
-21.523754 14.28694 -2.0765879
-21.289289 14.299185 -2.0793161
-21.076685 14.309136 -2.0792873
-20.900795 14.294771 -2.0796189
-20.718534 14.278145 -2.0790758
-20.494131 14.295169 -2.0801697
-20.278605 14.316166 -2.0816019
-20.102224 14.297142 -2.0807869
-19.906504 14.29346 -2.0810139
-19.703609 14.299246 -2.0824497
-19.485964 14.302664 -2.0814357
-19.308046 14.297813 -2.0796285
-19.177145 14.291573 -2.0770001
-18.805 14.397 -2.0699999
-18.686905 14.288842 -2.0662141
-18.495529 14.29479 -2.06317
-18.299927 14.295517 -2.0608826
-18.100958 14.298788 -2.0599806
-17.90012 14.299814 -2.0572033
-17.700907 14.300546 -2.0521092
-17.501577 14.297089 -2.0457864
-17.313974 14.302276 -2.0418048
-17.100262 14.300902 -2.0422356
-16.893917 14.294784 -2.0406382
-16.697264 14.298092 -2.0377131
-16.511276 14.299962 -2.0357764
-16.297537 14.299558 -2.0351532
-16.089701 14.296006 -2.0336509
-15.899675 14.302506 -2.0374441
-15.69829 14.303506 -2.0402641
-15.495298 14.297511 -2.0436671
-15.300153 14.299001 -2.044066
-15.097793 14.294181 -2.0366297
-14.956991 14.2939 -2.0476995
-14.669035 14.291609 -2.0462096
-14.501493 14.328754 -2.0386076
-14.350769 14.352055 -2.0367436
-14.002501 14.355 -2.0215001
-13.899877 14.324312 -2.0175624
-13.751801 14.2985 -2.0146003
-13.269 14.218 -2.003
-10.666143 14.391572 -2.0035715
-10.468271 14.363583 -2.003062
-10.28359 14.338903 -2.0043583
-10.091294 14.319577 -2.0050569
-9.9004059 14.301002 -2.0081558
-9.7022362 14.2975 -2.0133424
-9.5035048 14.299613 -2.0197766
-9.3040857 14.298924 -2.0243471
-9.0995464 14.299769 -2.0300796
-8.8976278 14.301444 -2.0357976
-8.7010098 14.297892 -2.0423059
-8.4967222 14.297061 -2.0487502
-8.3034763 14.29876 -2.0421476
-8.101902 14.298732 -2.0395255
-7.9056339 14.300255 -2.0370457
-7.7050738 14.300941 -2.0344656
-7.5035787 14.300276 -2.0325768
-7.3015852 14.301415 -2.0323763
-7.1061172 14.292397 -2.0334592
-6.8984694 14.299423 -2.0362253
-6.7038012 14.300577 -2.037416
-6.5024228 14.297248 -2.0389585
-6.3011951 14.302586 -2.0389769
-6.0985236 14.296796 -2.0369647
-5.9027753 14.289463 -2.0342584
-5.7060108 14.301031 -2.0318749
-5.5026855 14.296469 -2.0283239
-5.2984381 14.30099 -2.0112948
-5.1260209 14.311775 -2.0042851
-4.8889294 14.37986 -2.0066431
-4.7451668 14.371834 -2.0055838
-4.2349997 14.299 -2.0039999
-3.947 14.264 -2.0020001
-3.5929999 14.224 -2.0020001
-2.9224 14.3248 -2.0028
-2.6756001 14.284599 -2.0094001
-2.5166669 14.309334 -2.0063334
-2.2607629 14.308882 -2.0058298
-2.1129851 14.313931 -2.0032454
-1.9043988 14.31181 -2.00284
-1.7208554 14.300001 -2.0025661
-1.4982499 14.28765 -2.0020499
-1.3065417 14.304416 -2.0018747
-1.0916251 14.297375 -2.0015001
-0.90840006 14.3002 -2.0019002
-0.76700002 14.246 -2.0009999
-21.711021 14.497948 -2.0513358
-21.519136 14.49848 -2.0813642
-21.289347 14.510351 -2.0844033
-21.100771 14.498688 -2.0856171
-20.920103 14.482879 -2.0861025
-20.699408 14.496635 -2.0876536
-20.485136 14.513259 -2.0884197
-20.294565 14.499431 -2.0890279
-20.121054 14.489642 -2.0896454
-19.903381 14.495256 -2.0918636
-19.687073 14.504968 -2.0925539
-19.499317 14.501082 -2.0912492
-19.325039 14.496825 -2.0884728
-19.105455 14.506988 -2.0812659
-18.877649 14.537189 -2.0777969
-18.700907 14.497369 -2.070143
-18.496803 14.447241 -2.0509138
-18.324562 14.500987 -2.0591633
-18.099884 14.498855 -2.0709701
-17.899828 14.498075 -2.0642257
-17.699776 14.498057 -2.057797
-17.500948 14.498186 -2.0518038
-17.302284 14.498923 -2.0475614
-17.100052 14.501742 -2.0479133
-16.899025 14.501502 -2.0461435
-16.68849 14.495468 -2.0444121
-16.507401 14.498965 -2.0425494
-16.299049 14.49958 -2.0425649
-16.092941 14.500492 -2.0441458
-15.89957 14.499415 -2.0471323
-15.698977 14.50012 -2.0478957
-15.497911 14.499883 -2.0468514
-15.298996 14.501143 -2.0474577
-15.097963 14.499372 -2.0484033
-14.932 14.512609 -2.0554011
-14.623777 14.408112 -2.0396664
-14.523668 14.412001 -2.0486667
-14.358 14.406 -2.0567498
-12.079313 14.574438 -2.0306818
-11.899559 14.57093 -2.0208325
-11.688539 14.564634 -2.0136633
-11.49882 14.553533 -2.0106137
-11.301227 14.542671 -2.0072837
-11.105441 14.532383 -2.0050266
-10.914212 14.514461 -2.0035493
-10.709726 14.491824 -2.0032408
-10.499953 14.471094 -2.0029309
-10.30194 14.447534 -2.0038223
-10.111059 14.430543 -2.0068862
-9.9188118 14.418568 -2.0104535
-9.6640711 14.477854 -2.0119271
-9.4987068 14.503325 -2.0246735
-9.3013077 14.501271 -2.0305097
-9.0985489 14.500195 -2.0362418
-8.8998795 14.504362 -2.0427902
-8.7051678 14.499932 -2.0490937
-8.5021276 14.501931 -2.0567613
-8.3032494 14.502639 -2.0533574
-8.0993958 14.501486 -2.0479393
-7.9040823 14.497252 -2.0435894
-7.6976018 14.498456 -2.0406423
-7.497879 14.499277 -2.0403197
-7.3012333 14.506943 -2.0412743
-7.1043739 14.504171 -2.043551
-6.9004564 14.499854 -2.0458107
-6.6980557 14.49705 -2.0485344
-6.4998436 14.49764 -2.0485535
-6.2988 14.499288 -2.0469308
-6.1014848 14.496767 -2.0449007
-5.9011936 14.499829 -2.0439644
-5.7053547 14.490844 -2.0402684
-5.5016489 14.485218 -2.0353384
-5.2963119 14.502614 -2.0236795
-5.0959101 14.501583 -2.0205076
-4.8970089 14.508257 -2.0113776
-4.724937 14.513964 -2.0046623
-4.5534501 14.54695 -2.0017998
-4.2998333 14.581333 -2.0030003
-4.1031666 14.559334 -2.0073333
-3.9679999 14.54 -2.003
-3.7535 14.52325 -2.0062499
-3.455143 14.535429 -2.0035715
-3.29476 14.549121 -2.0025198
-3.1015368 14.547728 -2.003463
-2.8863733 14.53643 -2.0039399
-2.7021935 14.527138 -2.0037389
-2.4989996 14.527256 -2.0027559
-2.2924819 14.540826 -2.0031376
-2.1012299 14.501087 -2.006429
-1.8989681 14.51187 -2.0075941
-1.7025208 14.518541 -2.0090525
-1.4981446 14.520496 -2.0070426
-1.301759 14.513863 -2.0048912
-1.1116384 14.512612 -2.0046997
-0.91111439 14.488523 -2.0058854
-0.70258546 14.454729 -2.0084631
-0.52468187 14.436772 -2.005909
-0.32285714 14.433358 -2.0027144
-0.175 14.436 -2.0020001
-21.695467 14.686231 -2.0502715
-21.484652 14.693305 -2.0889535
-21.278429 14.710626 -2.0917172
-21.114496 14.684318 -2.0926757
-20.888527 14.688445 -2.094898
-20.692249 14.705257 -2.0956004
-20.495392 14.705818 -2.0963986
-20.301186 14.698915 -2.0962405
-20.12067 14.689404 -2.0952003
-19.899067 14.697265 -2.0944924
-19.674068 14.705035 -2.0942874
-19.498825 14.698071 -2.093313
-19.317421 14.691699 -2.0925169
-19.096376 14.700025 -2.0894585
-18.875637 14.70489 -2.08377
-18.70644 14.693269 -2.0776806
-18.492325 14.709625 -2.0672035
-18.306541 14.685391 -2.0710115
-18.099884 14.698418 -2.0777438
-17.899509 14.697789 -2.072686
-17.700434 14.700833 -2.0671942
-17.499964 14.699378 -2.0617461
-17.298786 14.698995 -2.0573511
-17.112354 14.701788 -2.0556192
-16.899889 14.699163 -2.0532439
-16.696692 14.699984 -2.0514255
-16.504141 14.69744 -2.0493202
-16.296824 14.701334 -2.0471611
-16.095512 14.700721 -2.0507824
-15.898498 14.700631 -2.0532129
-15.698064 14.700399 -2.053869
-15.504661 14.699481 -2.0532956
-15.29907 14.703007 -2.053411
-15.09843 14.699518 -2.0555513
-14.898441 14.702957 -2.062402
-14.753608 14.736842 -2.0653076
-13.7015 14.7805 -2.0615001
-13.433 14.752 -2.003
-13.309001 14.769333 -2.0456667
-13.0242 14.729799 -2.0342002
-12.8535 14.7395 -2.0480001
-12.762599 14.7024 -2.0410001
-12.550501 14.732834 -2.0395002
-12.305249 14.69125 -2.0349998
-12.044547 14.642087 -2.0232635
-11.898757 14.691977 -2.0232794
-11.705086 14.696435 -2.0180867
-11.503211 14.695538 -2.0132923
-11.303674 14.693242 -2.0093608
-11.107146 14.691092 -2.0065618
-10.890947 14.77494 -2.0049396
-10.696448 14.766173 -2.0056314
-10.495876 14.753624 -2.00933
-10.297217 14.73833 -2.0138037
-10.099975 14.725793 -2.0180926
-9.9017162 14.71172 -2.0219936
-9.70609 14.702405 -2.0229826
-9.5020876 14.700455 -2.0289209
-9.2986994 14.698901 -2.0355928
-9.1026363 14.700004 -2.0417662
-8.9035616 14.703492 -2.0479469
-8.7044239 14.701416 -2.0535972
-8.5053711 14.699183 -2.0604258
-8.3035088 14.697147 -2.0579321
-8.1023874 14.697931 -2.0522141
-7.8980079 14.700815 -2.0492811
-7.6967497 14.698859 -2.0491352
-7.4965563 14.70004 -2.0499928
-7.2961268 14.704032 -2.0526669
-7.0996132 14.695328 -2.0542643
-6.9025831 14.699415 -2.0569658
-6.700932 14.701392 -2.0590391
-6.5013218 14.702643 -2.0598004
-6.300786 14.698735 -2.0591066
-6.1005492 14.69297 -2.0575497
-5.9015875 14.70878 -2.054261
-5.7046499 14.71796 -2.0505195
-5.5028062 14.70468 -2.0441947
-5.2952776 14.699407 -2.0355546
-5.10112 14.698691 -2.0285895
-4.9050097 14.691712 -2.0193331
-4.697948 14.702416 -2.0116286
-4.5022755 14.707383 -2.005404
-4.3163333 14.745697 -2.0025277
-4.079 14.732334 -2.001111
-3.8848889 14.705777 -2.0016665
-3.6768332 14.706627 -2.0019164
-3.486481 14.707762 -2.0033629
-3.2993925 14.701904 -2.0052557
-3.1000233 14.702653 -2.0069616
-2.9018252 14.699948 -2.0089545
-2.7009377 14.703431 -2.0091207
-2.49526 14.700328 -2.0069869
-2.2981939 14.698411 -2.0072134
-2.0991852 14.702315 -2.0079849
-1.9019142 14.700594 -2.0094051
-1.6979619 14.696456 -2.0104852
-1.4982506 14.700253 -2.0113406
-1.2985325 14.699142 -2.0112281
-1.1035664 14.704354 -2.0093417
