# .PCD v0.7 - Point Cloud Data file format
VERSION 0.7
FIELDS x y z
SIZE 4 4 4
TYPE F F F
COUNT 1 1 1
WIDTH 1581
HEIGHT 1
VIEWPOINT 0 0 0 1 0 0 0
POINTS 1581
DATA ascii
30.013744 -3.3087015 0.48977053
29.984596 -3.1126719 0.52546024
30.016058 -3.0914326 0.48448002
29.987776 -2.9026141 0.50375223
30.017992 -2.9068627 0.50239682
29.981813 -2.7031627 0.50524414
30.017487 -2.6919289 0.48844695
29.977137 -2.4865937 0.50019372
30.016119 -2.541975 0.49876213
29.977427 -2.2902787 0.50659341
30.007719 -2.3518968 0.49125636
29.974731 -2.0966725 0.52545416
30.014479 -2.1063485 0.46349585
29.980017 -1.9280494 0.50109071
30.01306 -1.8790239 0.49753654
29.97957 -1.6868893 0.51232231
30.013163 -1.7298417 0.48269308
29.959291 -1.5020353 0.50080979
30.0098 -1.5189995 0.45339996
29.969139 -1.3033742 0.50195497
30.015137 -1.2987664 0.47353336
29.977007 -1.1027774 0.49870056
30.00897 -1.0745423 0.52888584
29.97477 -0.89827377 0.50628233
30.018099 -0.90655756 0.48742312
29.969095 -0.69833332 0.4978151
30.007727 -0.70927256 0.4551819
29.970797 -0.4998796 0.4963887
30.008936 -0.45424989 0.47431245
29.967663 -0.29834324 0.50248748
30.007891 -0.3173888 0.47427782
29.964128 -0.10055764 0.49533522
30.011799 -0.12549995 0.54229999
29.952436 0.093917683 0.49695581
30.011333 0.055500016 0.48450005
29.953926 0.29692695 0.50131047
30.010599 0.33059987 0.48680007
29.957336 0.4976027 0.49916205
30.009714 0.53857124 0.5517143
29.948978 0.70022666 0.50320923
30.005835 0.65799975 0.54800004
29.946522 0.90134346 0.49897349
30.01 0.97449982 0.53049999
29.948067 1.0995133 0.49843323
30.007 1.1429996 0.56766677
29.95649 1.2988383 0.50261015
30.009779 1.2666663 0.54044437
29.950623 1.5019549 0.50276625
30.001749 1.5462494 0.54049999
29.942682 1.7020686 0.50866675
30.014908 1.6826358 0.52709103
29.924135 1.8973426 0.51114947
30.035999 1.9969995 0.48300004
29.913265 2.0988102 0.50344419
30.083302 2.0663996 0.49549997
29.917137 2.2932246 0.50307328
29.917372 2.5019202 0.50113344
29.908239 2.7003624 0.49986029
29.609001 2.9757681 0.51030767
29.899693 2.8919823 0.49815071
29.671501 3.0299988 0.41600013
29.908369 3.0886402 0.4988066
29.90728 3.2780695 0.49051178
29.87817 3.5511119 0.49268401
29.887983 3.6881571 0.49906147
30 3.612999 0.43000007
29.833778 3.9011481 0.50057304
29.794668 4.1783319 0.54200041
29.824032 4.1096134 0.50242984
29.793312 4.2493105 0.48774981
29.831642 4.2933021 0.49758673
29.795135 4.5197983 0.54713309
29.824011 4.5005398 0.49722958
29.792824 4.7201691 0.52582908
29.815643 4.7062063 0.49113393
29.784456 4.9447203 0.50843334
29.821375 4.8693814 0.48576784
29.783867 5.0971165 0.50596786
29.814468 5.08743 0.48009229
29.772408 5.3038168 0.50209117
29.809887 5.2798824 0.47353864
29.759937 5.5002899 0.50093579
29.808249 5.4913735 0.44837475
29.751446 5.7014942 0.49968934
29.813499 5.7004986 0.44999957
29.758646 5.897624 0.50201082
29.816666 5.9053316 0.45983338
29.76371 6.1006241 0.50047731
29.810001 6.1183624 0.48518157
29.764021 6.2987289 0.500772
29.808298 6.2975979 0.45330024
29.729286 6.5036592 0.50038671
29.812 6.4239979 0.52300024
29.711239 6.699472 0.50056291
29.686001 6.9001756 0.49867988
29.694633 7.0963564 0.49758101
29.687035 7.3168612 0.49693656
29.655266 7.4993215 0.4985621
29.64646 7.6972461 0.49820113
29.650671 7.8995476 0.50007701
29.639067 8.0988922 0.4991014
29.598669 8.3689957 0.54133344
29.635098 8.3007307 0.4946394
29.594553 8.5504684 0.54016685
29.617386 8.4949532 0.49547625
29.593285 8.7034521 0.50878882
29.613592 8.6976757 0.49040508
29.590347 8.8933449 0.50054026
29.609928 8.9049988 0.50229549
29.58544 9.1158686 0.51796246
29.608179 9.07687 0.47987175
29.580523 9.3020821 0.49948406
29.609291 9.2754974 0.48075008
29.568214 9.5016661 0.50026369
29.608707 9.4953499 0.456882
29.563671 9.697237 0.49798107
29.608114 9.6633301 0.4460001
29.557428 9.9011297 0.4997468
29.546396 10.101826 0.49798632
29.533607 10.301492 0.49801683
29.524841 10.499352 0.4998765
30.271402 12.538197 0.4989996
30.118 12.654997 0.47300053
30.26 12.627997 0.47600031
30.1085 12.806496 0.51900005
30.3785 12.905997 0.52250004
30.452 12.994997 0.52300119
30.304947 13.176891 0.52171993
30.434347 13.170172 0.5021739
30.244627 13.283906 0.49546862
30.423716 13.205856 0.5001421
30.19475 13.523248 0.45849943
30.219723 13.492651 0.5060935
30.193281 13.751553 0.51866627
30.214142 13.692963 0.49998903
30.192238 13.912302 0.49989796
30.207878 13.884523 0.5000205
30.191818 14.052544 0.53672647
30.207232 14.064459 0.54469204
30.342901 14.321197 0.49630022
30.419001 14.313995 0.49600029
30.330168 14.508495 0.48550034
30.162964 14.756684 0.4982295
30.267511 14.715763 0.48766613
29.934883 14.928516 0.50482416
30.13261 14.902864 0.49635029
29.910482 15.02104 0.5134778
30.126225 15.066664 0.50694418
30.1367 15.330196 0.50714254
30.130617 15.517808 0.49973154
30.115997 15.690582 0.50413799
30.102594 15.895773 0.49057484
30.090389 16.089077 0.48772192
30.089334 16.260796 0.45320129
30.21575 16.353743 0.53637409
30.192501 16.476496 0.49774981
30.217922 16.528954 0.5180006
30.195499 16.719492 0.52200031
30.211529 16.710497 0.50429678
30.187016 16.906578 0.51848507
30.209473 16.864193 0.4796505
37.673 -8.6479959 0.78299999
37.681335 -8.4937735 0.69503689
37.834999 -6.9564986 0.75250006
38.133999 -6.9569983 0.773
38.332855 -6.9659991 0.72771478
38.419003 -6.9447989 0.62680006
30.03853 -6.4963651 0.70167923
30.02734 -6.2967653 0.70271564
30.04278 -6.10569 0.69751287
30.049917 -5.8991919 0.69899464
30.04682 -5.7095137 0.7053864
30.044233 -5.5119982 0.71715355
29.726999 -5.2179985 0.73200011
29.993999 -5.3304987 0.75099945
30.039179 -5.2625465 0.71008062
29.68779 -5.0692463 0.69449306
29.859398 -5.1135974 0.71211982
30.047707 -5.1303482 0.69406986
29.690832 -4.9296188 0.70150137
29.864975 -4.8874636 0.70655799
30.014145 -4.8645496 0.69995594
29.992701 -4.6555986 0.6621666
30.020086 -4.6964607 0.70017958
29.990696 -4.4580364 0.69476926
30.028847 -4.5091267 0.69884646
29.985401 -4.2854095 0.72121716
30.01745 -4.3004594 0.68359709
29.983622 -4.1144176 0.70703661
30.014948 -4.0845385 0.69174469
29.982092 -3.9062386 0.69332373
30.014395 -3.8921776 0.71062374
29.983419 -3.699656 0.70128989
30.007568 -3.7049651 0.70550573
29.984549 -3.5268822 0.68958354
30.02146 -3.4641676 0.70880508
29.985664 -3.2703452 0.65671623
30.026598 -3.3163359 0.7161293
29.983095 -3.082525 0.69303083
30.012917 -3.1196795 0.70920777
29.985344 -2.9254212 0.676422
30.022047 -2.8975868 0.71680617
29.983213 -2.6812284 0.71186304
30.012114 -2.7280688 0.69146967
29.976419 -2.4973817 0.69450861
30.008619 -2.5278525 0.73717648
29.973799 -2.2961073 0.70163232
30.007898 -2.2712061 0.69648284
29.972128 -2.1013832 0.70100659
30.01959 -2.1323225 0.70732355
29.969669 -1.9221801 0.69567484
30.025322 -1.8738569 0.72392875
29.96545 -1.7004818 0.69743836
30.032324 -1.7039117 0.72870606
29.966015 -1.5043694 0.6923157
30.014521 -1.4743195 0.75535995
29.978521 -1.3053877 0.68421638
30.021879 -1.2903037 0.73765182
29.987827 -1.0876583 0.70484149
30.019381 -1.1043781 0.70512617
29.980574 -0.89977837 0.67764336
30.01973 -0.89652383 0.7240693
29.958467 -0.70598185 0.70648247
30.008833 -0.71949971 0.71566665
29.954363 -0.50034386 0.69891483
30.009666 -0.4799999 0.74133337
29.967669 -0.29594111 0.69467294
30.007668 -0.28593326 0.70300007
29.953112 -0.10712749 0.70192301
30.035666 -0.067814738 0.64344442
29.953705 0.097283274 0.69777
30.023502 0.051166669 0.6541667
29.941723 0.29708096 0.70351064
29.94623 0.50148898 0.71063554
30.030146 0.49157134 0.66785717
29.951195 0.69881874 0.70164567
30.004999 0.6309998 0.63800007
29.933844 0.89784855 0.70316905
29.93364 1.1012684 0.70133865
29.939623 1.2984592 0.70128036
30.0035 1.2974995 0.6455
29.934057 1.4991477 0.70088315
30.003 1.5239997 0.796
29.918371 1.7037653 0.69654447
29.915476 1.9012923 0.6967541
29.914307 2.0978446 0.70230919
29.910702 2.2922597 0.70643473
29.907953 2.4968486 0.69833565
29.893969 2.6977577 0.69897181
30.016001 2.6479993 0.76300001
29.619186 2.9891241 0.69181228
29.894026 2.8941631 0.69986534
29.646 3.0009992 0.73600006
29.886414 3.088496 0.69627166
29.578999 3.2089992 0.60699999
29.880102 3.2684748 0.70085025
29.863363 3.5420663 0.69774675
29.854095 3.6935449 0.69594705
29.838249 3.9051926 0.70313787
29.796001 4.1734982 0.67249978
29.840401 4.1031904 0.70104134
29.791943 4.2229395 0.74547052
29.833982 4.2988534 0.69719505
29.795801 4.4864988 0.68329978
29.820683 4.5010462 0.70064759
29.791771 4.7325697 0.69832337
29.814251 4.688592 0.69567704
29.779818 4.9125662 0.69770622
29.812471 4.8687449 0.69512701
29.772018 5.1062584 0.69911242
29.818317 5.1003885 0.71404886
29.774134 5.3034697 0.69915032
29.814657 5.2799644 0.72873735
29.755251 5.5001926 0.70048451
29.810804 5.4263988 0.69780016
29.741068 5.7017384 0.6987319
29.820999 5.7069979 0.796
29.755901 5.8998442 0.69782019
29.80625 5.8977489 0.74549961
29.752384 6.1002607 0.70095253
29.806667 6.0749979 0.70433331
29.74122 6.2976732 0.69853473
29.809999 6.3249989 0.671
29.712782 6.5012002 0.69903088
29.699791 6.7004652 0.69842243
29.686867 6.8969231 0.69942641
29.673733 7.0995665 0.69966912
29.66329 7.3121729 0.69738698
29.655529 7.5010099 0.69951963
29.598 7.6467476 0.66975021
29.6539 7.6995182 0.70181298
29.647642 7.895155 0.69737506
29.591249 8.1432457 0.78500032
29.637388 8.0956373 0.69741178
29.594908 8.2781773 0.7221818
29.62426 8.2992086 0.70121884
29.595108 8.51507 0.74118567
29.619116 8.4970522 0.69351983
29.591276 8.7159023 0.7030077
29.611263 8.6847296 0.69515944
29.587889 8.9035835 0.70943666
29.609673 8.8864756 0.68038511
29.581299 9.099165 0.69953775
29.60758 9.0837746 0.68475485
29.574427 9.2995348 0.69767284
29.606647 9.3003502 0.68688297
29.568241 9.5001144 0.69716597
29.60586 9.5239964 0.70099974
29.562487 9.7002211 0.69937277
29.605001 9.6443291 0.69633389
29.551809 9.8971405 0.70143175
29.607 9.9529963 0.66300011
29.53834 10.097656 0.69713497
29.529966 10.304262 0.6984725
29.520773 10.498604 0.70168829
30.2964 12.540997 0.71359921
30.0728 12.663797 0.70600033
30.260202 12.635798 0.72739983
30.095501 12.807995 0.68550062
30.255499 12.94883 0.66500044
30.241802 13.11874 0.69924068
30.227093 13.300207 0.70152092
30.197001 13.563997 0.63399982
30.220482 13.495815 0.69952488
30.196608 13.720829 0.67955494
30.210545 13.688751 0.70200014
30.19343 13.908756 0.68170357
30.205795 13.878859 0.71024132
30.191843 14.095243 0.71368933
30.207754 14.068678 0.71207285
30.189398 14.226397 0.79140091
30.332069 14.308531 0.7276001
30.333601 14.512995 0.73219967
30.169971 14.747381 0.70849991
30.282906 14.679826 0.69931984
29.936317 14.926926 0.70205307
30.137415 14.905266 0.68990326
29.906822 15.021106 0.69132137
30.141911 15.056681 0.69709015
30.138004 15.336115 0.69794798
30.134834 15.523539 0.7076664
30.118486 15.713331 0.69707584
30.113211 15.910395 0.68816566
30.109518 16.065819 0.65991259
30.216625 16.156742 0.73687458
30.197001 16.337994 0.64700031
30.227154 16.308071 0.72426891
30.229975 16.516838 0.70920467
30.19425 16.742493 0.64474964
30.216034 16.713646 0.70897532
37.667202 -8.6235962 0.87560034
37.690502 -8.562396 0.85380006
37.872002 -8.5187454 0.87100005
38.082249 -6.9612484 0.8499999
38.290859 -6.9859991 0.84871435
30.037888 -6.5078411 0.89403009
30.045954 -6.2950621 0.89581251
30.062056 -6.1000605 0.89670777
30.059912 -5.8977265 0.90427804
30.040249 -5.6943035 0.89966249
29.988001 -5.4069986 0.87499976
30.056444 -5.5317898 0.92619443
29.990494 -5.2994356 0.88751602
30.013617 -5.3041306 0.91141558
29.69705 -5.0603456 0.8920517
29.949867 -5.1120667 0.89610982
30.014671 -5.1372604 0.90792871
29.70022 -4.9243793 0.90075326
29.884951 -4.8901954 0.91006184
30.029776 -4.8592453 0.89892817
29.996502 -4.6326647 0.92516696
30.024096 -4.6956396 0.8930198
29.994158 -4.4904823 0.93454862
30.022074 -4.4975567 0.89974415
29.98877 -4.2891498 0.88009787
30.014507 -4.3065748 0.91040087
29.99054 -4.0867128 0.88201785
30.018087 -4.1057596 0.90317595
29.988789 -3.8966341 0.87057698
30.025661 -3.9024568 0.90721464
29.988188 -3.7040601 0.85678339
30.025131 -3.6994371 0.92219245
29.990297 -3.4891653 0.91533351
30.017939 -3.5193543 0.89325154
29.991177 -3.3157167 0.93169248
30.018564 -3.2873325 0.87292802
29.986584 -3.0839868 0.92111731
30.01586 -3.0996292 0.88296008
29.981453 -2.89711 0.92376196
30.016766 -2.9231529 0.87093365
29.977764 -2.7008934 0.89797914
30.006542 -2.6887286 0.91616225
29.974012 -2.4967594 0.90178543
30.00725 -2.5155547 0.8912499
29.96714 -2.2954774 0.9001174
30.010002 -2.3131812 0.89045441
29.973215 -2.1035712 0.89793038
30.009869 -2.1247888 0.88728946
29.956644 -1.9192029 0.90055901
30.017361 -1.8642139 0.85778582
29.979712 -1.6996891 0.89636207
30.01927 -1.6977309 0.91270173
29.970013 -1.5020084 0.89876115
30.020422 -1.4837891 0.89500016
29.974516 -1.304166 0.90668577
30.010145 -1.2708534 0.87046319
29.985146 -1.096786 0.90579402
30.019653 -1.1013643 0.89379233
29.977669 -0.89148808 0.9216696
30.022648 -0.9041121 0.8597846
29.965107 -0.70025289 0.90029758
30.0103 -0.71599972 0.93820012
29.953386 -0.50275409 0.9013257
30.002001 -0.50499976 0.95300007
29.959475 -0.30379355 0.89935327
30.006834 -0.25116655 0.85116673
29.969385 -0.10315794 0.89780563
30.013678 -0.08596772 0.89406461
29.956242 0.092651308 0.89809197
30.009857 0.063285708 0.93785715
29.950396 0.3017979 0.90139008
29.956579 0.49592429 0.90084839
30.003 0.43599993 0.85299999
29.938814 0.69797498 0.89901757
30.011 0.67799973 0.93199992
29.938425 0.89769924 0.90482891
30.004 0.97899973 0.86300004
29.933937 1.0972968 0.89831626
30.014999 1.0059997 0.8785001
29.939497 1.2978716 0.8970226
30.006001 1.2784996 0.96300018
29.950825 1.4997498 0.90021127
29.935053 1.6940358 0.89993733
29.918093 1.9114014 0.89383924
29.924946 2.0979342 0.90186095
29.911186 2.2949023 0.90413493
29.908064 2.4997168 0.89739877
29.901232 2.6988387 0.90129787
29.6185 2.9904995 0.85283345
29.889494 2.9004796 0.89543664
29.630749 3.0079992 0.92825019
29.875925 3.0867219 0.89927071
29.873341 3.27003 0.90231252
29.850487 3.5422978 0.90519083
29.835407 3.6983111 0.8985908
29.832718 3.9051075 0.89965236
29.794167 4.1759157 0.93075013
29.830877 4.0987163 0.89970887
29.791904 4.3014879 0.91927755
29.818878 4.2958097 0.89303577
29.792828 4.4969325 0.92976701
29.821671 4.4957266 0.89919353
29.789005 4.705667 0.91080487
29.814739 4.6884699 0.87740457
29.775257 4.9023829 0.90308154
29.814497 4.8718872 0.87630558
29.769512 5.1022153 0.90094376
29.814373 5.1023412 0.85802841
29.764349 5.296155 0.89841509
29.811584 5.2919149 0.88733339
29.744751 5.500596 0.89939141
29.80575 5.467998 0.92925024
29.748672 5.6986356 0.89781022
29.812 5.7266655 0.81933379
29.757994 5.8997054 0.89821076
29.813288 5.8904276 0.90614319
29.730473 6.1012115 0.89719009
29.799999 6.0759993 0.81900048
29.717043 6.297915 0.89786768
29.694159 6.5032883 0.90224791
29.685642 6.6986551 0.90117264
29.683968 6.8997636 0.90023661
29.664797 7.096385 0.90067673
29.654551 7.3145137 0.89886856
29.652924 7.4916005 0.8991437
29.598 7.7289982 0.83700013
29.641325 7.6958628 0.89694214
29.599001 7.8009987 0.83600068
29.63035 7.8976779 0.89819503
29.594858 8.1259956 0.86400008
29.62739 8.1004534 0.90409136
29.595999 8.2806635 0.9331336
29.621359 8.2955523 0.89364552
29.594051 8.5290318 0.87939668
29.613544 8.492836 0.90155935
29.58988 8.7205753 0.90166497
29.610058 8.6804886 0.89231324
29.582344 8.9009724 0.89640808
29.613438 8.8883286 0.88979983
29.576513 9.0999088 0.89556789
29.610697 9.1047363 0.88747811
29.568281 9.2974977 0.89713907
29.606001 9.2922192 0.85277796
29.568047 9.5010424 0.89835978
29.608135 9.5027304 0.9022665
29.556858 9.7001839 0.8994236
29.603251 9.6509972 0.88599968
29.5483 9.8953028 0.90009689
29.539621 10.099747 0.89815617
29.530254 10.303289 0.89592981
29.520338 10.499032 0.89789391
29.779499 12.466496 0.90249968
30.295401 12.527996 0.89020014
30.064001 12.683796 0.91009998
30.262167 12.639665 0.90133333
30.1075 12.811497 0.8944993
30.247501 12.96183 0.89849949
30.231201 13.112495 0.8971839
30.226841 13.299364 0.90096712
30.198999 13.590997 0.94200087
30.223656 13.501083 0.89944792
30.194668 13.745497 0.91416693
30.214458 13.690164 0.90102005
30.191843 13.918497 0.9328413
30.210155 13.891045 0.88135386
30.190794 14.112698 0.90469885
30.207472 14.082439 0.88521004
30.183851 14.27075 0.91521835
30.206167 14.266831 0.92133284
30.172701 14.507875 0.91087914
30.250166 14.510248 0.8617506
30.169411 14.698582 0.9013834
29.933369 14.930641 0.8939476
30.125853 14.900143 0.88727713
29.912451 15.030617 0.90041447
30.145473 15.044998 0.88694763
30.133736 15.317772 0.8969593
30.128965 15.511831 0.90119982
30.11631 15.698544 0.89204025
30.123758 15.871066 0.87441301
30.232166 15.974998 0.94483328
30.1915 16.035992 0.80250025
30.233385 16.111788 0.90032387
30.239309 16.290409 0.92694378
30.238815 16.496624 0.9099474
30.04509 -6.4935169 1.1058547
30.064636 -6.3061972 1.0942037
30.070829 -6.1081915 1.0913374
30.038261 -5.8981552 1.097208
30.034204 -5.7016268 1.0953598
30.034586 -5.4996758 1.1109703
29.986814 -5.2768593 1.0792751
30.016083 -5.3516645 1.1223018
29.703833 -5.0651641 1.1006956
29.939838 -5.1372948 1.095037
30.02704 -5.091507 1.0997117
29.703215 -4.9179811 1.09076
29.909624 -4.8754425 1.1167545
30.016037 -4.8646145 1.07593
29.992176 -4.6769981 1.1331763
30.028641 -4.7078295 1.10544
29.991653 -4.5183592 1.105885
30.016609 -4.4854794 1.1046864
29.986626 -4.2835836 1.1142555
30.017588 -4.3084478 1.0935611
29.986757 -4.1042299 1.130899
30.022457 -4.0994234 1.0906528
29.991137 -3.8943608 1.1071
30.014542 -3.9040613 1.0929374
29.989845 -3.6968307 1.1181974
30.028275 -3.7036834 1.0961953
29.976141 -3.4944007 1.0993913
30.008821 -3.533864 1.1019257
29.978794 -3.3037596 1.1063586
30.012754 -3.3025296 1.0787754
29.972784 -3.095994 1.0880163
30.017427 -3.1078808 1.1373335
29.969538 -2.9003532 1.0924973
30.007999 -2.8999088 1.0825456
29.969109 -2.6997995 1.1009524
30.005445 -2.689888 1.0622222
29.964529 -2.4994445 1.1011622
30.008501 -2.4974992 1.0547502
29.968552 -2.2973499 1.0982176
30.007303 -2.3115988 1.1161
29.957552 -2.1064527 1.0961485
30.010099 -2.1738989 1.0340999
29.943254 -1.914215 1.0976048
30.01075 -1.8329996 1.00775
29.970324 -1.6983776 1.1000452
30.015003 -1.7025858 1.0653449
29.970531 -1.496074 1.1053551
30.011044 -1.5176246 1.0893751
29.975718 -1.3027834 1.1016474
30.011461 -1.2848965 1.0807414
29.979385 -1.1208606 1.1002089
30.01403 -1.0707085 1.0928738
29.973331 -0.88791984 1.1018672
30.009096 -0.94515991 1.07656
29.962124 -0.70252371 1.0999858
30.007668 -0.66999978 1.0833334
29.946655 -0.50735909 1.0924478
30.000999 -0.5569998 1.1619999
29.942112 -0.30534339 1.097361
30.009666 -0.26566654 1.007
29.951284 -0.097682685 1.0979265
30.004002 -0.10820001 1.0432001
29.947624 0.09598735 1.0981894
30.007668 0.10966665 1.0253334
29.953554 0.30393732 1.0951319
30.007666 0.37733325 1.1283334
29.943176 0.49756664 1.0980976
29.936981 0.69638938 1.0961936
29.931629 0.89677387 1.0998313
29.940992 1.0995671 1.0976872
30.005999 1.1122496 1.1860001
29.937645 1.3005447 1.0981555
29.94474 1.4906461 1.1074384
29.93862 1.6989758 1.0991633
30 1.6879995 1.085
29.927641 1.8967369 1.098465
29.940538 2.0993135 1.1042242
29.919216 2.3017423 1.0963228
29.912563 2.4881361 1.108415
29.910835 2.70331 1.0986085
29.616249 2.9949989 1.15975
29.896891 2.8968208 1.0997977
29.683643 3.0607128 1.1176429
29.897532 3.0909684 1.0922192
29.863754 3.251559 1.0942403
29.860798 3.5464506 1.0996882
29.864803 3.7055857 1.1023418
29.794001 3.9959993 1.0390002
29.847681 3.8961861 1.0934949
29.777018 4.1301546 1.062902
29.822506 4.0921545 1.0906971
29.738852 4.2956791 1.1114742
29.826246 4.3003135 1.0879956
29.783001 4.5432129 1.1191903
29.82646 4.4757853 1.0821127
29.783669 4.7011132 1.1021047
29.814375 4.6947393 1.0935171
29.775589 4.9084578 1.0992397
29.811646 4.8769636 1.0833216
29.76651 5.0991583 1.0920469
29.808279 5.1010532 1.103
29.758011 5.2965384 1.0925497
29.804001 5.2409983 1.135
29.756659 5.4999676 1.1002014
29.807335 5.4813318 1.117667
29.744221 5.6995606 1.0968852
29.804001 5.6279984 1.0179999
29.74074 5.9001341 1.0977244
29.811798 5.891798 1.0602005
29.729721 6.1002345 1.0988691
29.719889 6.2993989 1.0990415
29.689955 6.5019045 1.0982361
29.684322 6.697176 1.1000745
29.680092 6.9006481 1.1010666
29.812 6.8919983 1.1199999
29.667002 7.1012435 1.0982058
29.665934 7.3041759 1.1014805
29.652288 7.487257 1.098779
29.639719 7.7017245 1.1001844
29.636766 7.8984585 1.10218
29.595001 8.0689964 1.1734996
29.630732 8.0974636 1.0951531
29.595785 8.3072128 1.110357
29.621731 8.2981424 1.0979483
29.592079 8.5298271 1.11672
29.613041 8.4877129 1.0921767
29.58666 8.7145748 1.1091015
29.609535 8.6780949 1.0855162
29.583784 8.9041214 1.1022451
29.60894 8.8820724 1.0841153
29.577404 9.1011705 1.0941668
29.60762 9.089879 1.0911174
29.569799 9.2993813 1.0986714
29.606001 9.2984962 1.0679998
29.56468 9.5019045 1.101284
29.605625 9.5194969 1.0366254
29.556955 9.7035522 1.0990267
29.605999 9.6259985 1.09375
29.547266 9.8971777 1.0987902
29.538885 10.096636 1.098103
29.528957 10.301934 1.0953217
29.518921 10.497956 1.099021
29.768 12.472996 1.0150008
30.334667 12.502332 1.1073332
30.061501 12.688925 1.1094999
30.252144 12.645426 1.1030006
30.106501 12.814497 1.1030002
30.240803 12.958397 1.0875998
30.228001 13.116976 1.096396
30.226271 13.301708 1.0996261
30.195667 13.48733 1.1473331
30.219023 13.498284 1.0996113
30.196682 13.734453 1.1092725
30.211639 13.688604 1.1005673
30.193665 13.911569 1.1191297
30.208458 13.899679 1.083859
30.18708 14.098719 1.1002088
30.202694 14.082306 1.1062298
30.180357 14.302368 1.0996084
30.20289 14.248665 1.1026669
30.175076 14.494368 1.1080923
30.168034 14.704485 1.1063709
29.930437 14.941332 1.0794826
30.132734 14.874588 1.1005507
29.910091 15.024086 1.1059566
30.140001 15.040087 1.0929999
30.133608 15.323507 1.1037931
30.127974 15.517334 1.1042123
30.121336 15.668898 1.0680346
30.231998 15.741598 1.166399
30.1625 15.811497 1.0150003
30.243382 15.900686 1.0943451
30.249836 16.103012 1.1054173
30.240284 16.296755 1.112453
30.233358 16.490839 1.1086154
37.73 -9.0209961 1.3749995
37.673 -8.9039955 1.3316
30.048141 -6.492414 1.3060963
30.055511 -6.2995553 1.2985444
30.053799 -6.0985646 1.297822
30.041939 -5.9038534 1.2999613
29.994667 -5.7269983 1.297667
30.021074 -5.6929693 1.3054323
29.994352 -5.4811287 1.308049
30.014349 -5.5076604 1.2981908
29.990004 -5.3164363 1.3257415
30.010567 -5.3219728 1.2799745
29.706741 -5.0577664 1.3008634
29.945858 -5.1267586 1.3042538
30.015396 -5.1085334 1.2895892
29.705009 -4.8913431 1.2957121
29.93536 -4.8683176 1.2925742
30.006569 -4.8534765 1.3271304
29.98768 -4.7351327 1.291227
30.015896 -4.6826105 1.3092433
29.992674 -4.5005693 1.2978874
30.012304 -4.4996634 1.3082671
29.982801 -4.2709913 1.2957585
30.01545 -4.3175383 1.3040373
29.984055 -4.1126013 1.2786919
30.017628 -4.0896225 1.3207382
29.986532 -3.9018168 1.3056003
30.014544 -3.901185 1.2959442
29.983559 -3.7057867 1.3005089
30.012125 -3.6716318 1.293342
29.972725 -3.5015838 1.3029189
30.011047 -3.4847798 1.2742929
29.973263 -3.3061755 1.3072325
30.007296 -3.3285294 1.2763827
29.970327 -3.1031904 1.3007983
30.010336 -3.0915742 1.2890004
29.959929 -2.9009626 1.2967345
30.009911 -2.8609085 1.3428183
29.951115 -2.6976871 1.2958877
30.019501 -2.7314992 1.2219999
29.950211 -2.4965672 1.2993817
30.007 -2.4809992 1.2994999
29.956781 -2.3012476 1.2972741
29.946001 -2.1032295 1.29934
29.957956 -1.9108653 1.2945691
30.012611 -1.8916953 1.3394351
29.970211 -1.69581 1.3078119
30.010523 -1.6970431 1.2813479
29.974573 -1.5037178 1.2956817
30.009743 -1.4809191 1.3163
29.969358 -1.2932115 1.3010356
30.011147 -1.3445618 1.3030627
29.973118 -1.1068637 1.304513
30.017691 -1.0734997 1.286242
29.968496 -0.89213067 1.3034625
30.013708 -0.93122584 1.2344193
29.951609 -0.70102859 1.296051
30.007 -0.7159999 1.3720002
29.946762 -0.49882123 1.2989103
29.941599 -0.30262241 1.2952957
30.0065 -0.26849985 1.3720001
29.936602 -0.10052028 1.2977872
30.018 -0.19000006 1.3200002
29.94964 0.096489161 1.3002
30.015251 0.091375023 1.344625
29.948872 0.29586285 1.2945688
30.015333 0.36599994 1.3806667
29.9457 0.50052059 1.2959297
30.000668 0.41766655 1.3386667
29.930721 0.70018399 1.2994514
29.929531 0.8947674 1.3001209
29.941998 1.0978357 1.2997521
29.9331 1.3052937 1.3031212
29.921759 1.4968073 1.3007456
29.924833 1.6905707 1.3102835
30.002001 1.7929995 1.3340001
29.928509 1.8994226 1.2984277
30 1.8179995 1.3349999
29.922918 2.0970078 1.3018215
29.914501 2.2927675 1.295779
29.922369 2.4954743 1.2888235
29.93026 2.6982713 1.2992544
29.622 2.996666 1.3083334
29.913212 2.8985291 1.3024757
29.682076 3.056071 1.2756429
29.90167 3.0767717 1.3011444
29.942184 3.2997265 1.3431821
30.041752 3.2252493 1.3707502
29.877539 3.5310378 1.2980001
29.873085 3.6769161 1.2894169
29.854202 3.8967321 1.2678001
29.447199 4.1837978 1.3614001
29.632999 4.1969986 1.2429999
29.842796 4.1137581 1.2220399
29.70281 4.349731 1.2604111
29.853449 4.364563 1.3075162
30.042334 4.3635817 1.3095833
29.375267 4.4372907 1.3570735
29.45826 4.4525337 1.345875
29.782249 4.513998 1.2764999
29.846146 4.5027914 1.315117
30.070333 4.4066653 1.3023334
29.786472 4.7210646 1.2881587
29.8179 4.6770945 1.3099329
29.77993 4.9011278 1.2961632
29.812637 4.8990669 1.3120909
29.772858 5.1064529 1.2963632
29.811558 5.0750904 1.3127209
29.764069 5.2995853 1.2986016
29.809998 5.2681808 1.2859093
29.745035 5.4985967 1.2983758
29.803501 5.524498 1.3820003
29.74321 5.6994104 1.2974315
29.810333 5.7756648 1.2260003
29.727373 5.9008942 1.2978861
29.723179 6.1006241 1.3047454
29.711573 6.2996588 1.2994227
29.694616 6.4987326 1.2984157
29.681673 6.7029352 1.2993419
29.679642 6.8996792 1.2996683
29.679689 7.0979185 1.2979729
29.6595 7.3032732 1.2969105
29.658022 7.4851189 1.2961056
29.649817 7.6970463 1.3018997
29.636312 7.8958597 1.2958252
29.634554 8.09834 1.297817
29.592001 8.3726969 1.3124001
29.626024 8.2980814 1.2958267
29.589067 8.5071144 1.3044908
29.613493 8.4783325 1.2831352
29.582664 8.6985321 1.3032453
29.616032 8.7088633 1.2799668
29.578587 8.8987885 1.2971056
29.612133 8.8893013 1.2858264
29.574127 9.0998955 1.2974362
29.61278 9.1018305 1.2872782
29.570406 9.3012381 1.2980082
29.611448 9.2906942 1.3178504
29.557358 9.5032978 1.2968791
29.608501 9.4974957 1.2040005
29.548517 9.7005634 1.2984715
29.607 9.678997 1.3193326
29.5424 9.9011917 1.2980547
29.531982 10.099195 1.2993159
29.521706 10.299685 1.2972393
29.515125 10.498569 1.299582
30.066999 12.698448 1.3070002
30.252501 12.646997 1.3093338
30.144667 12.819664 1.313333
30.248718 12.967141 1.3131442
30.225906 13.124289 1.2988987
30.221558 13.304603 1.3008008
30.196798 13.582798 1.2580009
30.218555 13.498367 1.3028069
30.193861 13.720539 1.3147297
30.213118 13.684841 1.3021197
30.191303 13.911766 1.3049078
30.208849 13.90078 1.290647
30.187851 14.097929 1.3055654
30.204 14.069775 1.234889
30.177553 14.299452 1.3021269
30.206833 14.268164 1.3033328
30.167904 14.496523 1.3046823
30.163332 14.698921 1.3002038
30.201 14.795998 1.3440003
29.939253 14.930422 1.3095756
30.125345 14.894874 1.3065519
29.915686 15.021891 1.2925787
30.138998 15.04512 1.2879996
30.1285 15.330588 1.2951479
30.135363 15.493355 1.2819653
30.237751 15.580997 1.3630004
30.160252 15.624998 1.2342515
30.253933 15.718155 1.3083539
30.257002 15.911331 1.3024077
30.258076 16.110464 1.3151898
30.248814 16.300261 1.3033471
37.693863 -9.0658531 1.5348568
37.7005 -8.9362469 1.4850001
30.026897 -6.5002146 1.4969232
29.997 -6.388998 1.5889997
30.041929 -6.2997608 1.5019057
30.049973 -6.1049871 1.505266
30.031876 -5.8965359 1.504082
29.993168 -5.6091661 1.5280001
30.049322 -5.6994905 1.5034413
30.253901 -5.6542988 1.5018997
29.993946 -5.4746475 1.5425999
30.021242 -5.5047922 1.4978819
29.976177 -5.3039718 1.508289
30.014044 -5.357141 1.4321432
29.694548 -5.0551004 1.508159
29.949106 -5.1154532 1.507491
30.0086 -5.0921984 1.4532998
29.680441 -4.8959608 1.5177301
29.937042 -4.8588638 1.4945028
30.009216 -4.8915691 1.4940361
29.980097 -4.6835775 1.5187378
30.010374 -4.7031555 1.4532597
29.98418 -4.4919758 1.504559
30.010332 -4.5218139 1.494949
29.977486 -4.3126116 1.5090909
30.008408 -4.2647915 1.4640651
29.980639 -4.1213121 1.5102476
30.017538 -4.0852814 1.4946922
29.98559 -3.9116905 1.5020196
30.015379 -3.8965406 1.5037498
29.979147 -3.6894691 1.5061486
30.014671 -3.7304435 1.4861999
29.98064 -3.5033953 1.4970715
30.013107 -3.494976 1.511688
29.972971 -3.3047705 1.4879316
30.015844 -3.2880387 1.5347238
29.967989 -3.094049 1.5028714
30.012083 -3.1518047 1.5160588
29.959724 -2.9042439 1.4981253
30.009792 -2.9042623 1.5071051
29.950235 -2.69997 1.499233
30.013 -2.612499 1.5615001
29.955879 -2.499846 1.5016072
30.002001 -2.5689991 1.4870001
29.954754 -2.2992694 1.4981327
30.002666 -2.2903326 1.5300002
29.963316 -2.1073418 1.4909148
30.020607 -2.0990345 1.5546786
29.957426 -1.9101416 1.5020887
30.010305 -1.9272172 1.4753915
29.956316 -1.6982334 1.5003104
30.00775 -1.6967496 1.4912499
29.965263 -1.5019126 1.5027459
30.007771 -1.4581535 1.4600003
29.958813 -1.3016996 1.5015048
30.006432 -1.3547142 1.5105717
29.967491 -1.1084216 1.4976069
30.010239 -1.0519115 1.5196176
29.957094 -0.89742863 1.496142
30.009802 -0.96386659 1.5534002
29.944481 -0.7046895 1.4931301
30.013123 -0.72124982 1.5362502
29.933807 -0.50064301 1.502058
29.931368 -0.29869634 1.4959668
30.023001 -0.24366653 1.4233335
29.937019 -0.092665702 1.5006385
30.007999 -0.030999951 1.4690001
29.951624 0.097542018 1.4988736
30.012749 0.12249991 1.4390001
29.957954 0.29319644 1.5044968
30.005501 0.213 1.467
29.927027 0.4986999 1.5018873
30.004599 0.42979997 1.4484001
29.914042 0.69943774 1.4998274
29.910908 0.90046299 1.4975722
29.923029 1.0985398 1.4969493
29.914236 1.3043286 1.5031526
29.904064 1.4985148 1.499408
29.899851 1.6988316 1.501503
29.913809 1.8944951 1.5079863
29.91844 2.0996666 1.4972599
29.914705 2.2963545 1.5035678
29.915913 2.4990311 1.4958348
29.923223 2.6994812 1.4999127
29.601002 2.9976659 1.4920001
29.918968 2.8987141 1.4987209
29.620571 3.0107136 1.5248572
29.889385 3.0849833 1.509589
29.604336 3.2203331 1.5736666
29.903576 3.3158174 1.5013335
29.875067 3.5358562 1.4970316
29.858259 3.7057197 1.5079997
29.847048 3.9007063 1.52249
29.504 4.1609983 1.4090002
29.843451 4.0786514 1.527581
29.427868 4.292798 1.4880669
29.792999 4.385498 1.4215001
29.83881 4.2936764 1.5144405
29.451424 4.5301857 1.4594793
29.795109 4.4781413 1.4420713
29.820635 4.5192966 1.4971029
29.356955 4.6272593 1.5467693
29.453026 4.6396303 1.548658
29.786867 4.7221804 1.5004232
29.81863 4.6804299 1.4960986
29.790827 4.9061346 1.4912138
29.813198 4.8959742 1.5099592
29.774181 5.1106539 1.4995713
29.81119 5.0708475 1.5112829
29.763214 5.2973027 1.4997978
29.811001 5.2803316 1.4994999
29.763824 5.4996943 1.4992638
29.808445 5.487998 1.4708889
29.744816 5.7007575 1.4979277
29.802399 5.6187987 1.5072
29.728971 5.9048834 1.5011322
29.725697 6.1006675 1.4996288
29.701925 6.2965879 1.5010676
29.698116 6.4995003 1.500983
29.689484 6.7007995 1.4948568
29.675163 6.8993535 1.4974489
29.68195 7.1005583 1.4955134
29.672743 7.3006334 1.5006583
29.661112 7.4854269 1.4989808
29.648514 7.7009621 1.4976804
29.595501 7.9189262 1.5232153
29.623137 7.8948469 1.4932756
29.596334 8.0213299 1.5793328
29.633873 8.0998535 1.4933267
29.590422 8.3464165 1.5373333
29.62188 8.2869301 1.4878628
29.591686 8.5215759 1.4839203
29.614202 8.491765 1.5113323
29.587246 8.7061863 1.4957919
29.610731 8.6984596 1.5174072
29.580635 8.8988352 1.4981425
29.611288 8.8819733 1.4989996
29.581219 9.0987444 1.4996941
29.613655 9.1003046 1.4976926
29.574251 9.3016777 1.5010602
29.614611 9.2927341 1.4823043
29.556683 9.5012131 1.4990768
29.612333 9.5099974 1.516
29.54904 9.6997414 1.4978704
29.605499 9.6394958 1.5980008
29.542286 9.8986721 1.5004232
29.532656 10.100102 1.4997783
29.520746 10.299146 1.5002303
29.51008 10.501804 1.4994111
30.06963 12.703558 1.4994373
30.246498 12.649664 1.4995003
30.089001 12.80833 1.5353336
30.238001 12.960398 1.4737997
30.225258 13.122654 1.5011258
30.1975 13.354498 1.5850005
30.218185 13.298735 1.4988246
30.193201 13.507195 1.5606995
30.215368 13.494628 1.4941759
30.193228 13.717406 1.5157051
30.211269 13.692715 1.490386
30.188499 13.918854 1.5079274
30.207714 13.877426 1.4804635
30.185265 14.098961 1.4950614
30.201778 14.049108 1.5046663
30.179066 14.298655 1.4992781
30.205997 14.226248 1.4807501
30.167419 14.505065 1.4979582
30.15947 14.68318 1.5010009
30.205 14.650496 1.4985003
29.942627 14.928112 1.5002332
30.128656 14.890305 1.503654
29.917217 15.019211 1.506928
30.140558 15.053665 1.5126657
30.144409 15.317644 1.4736476
30.26 15.392998 1.5700011
30.175335 15.447998 1.4313331
30.256075 15.52696 1.4963703
30.269974 15.713556 1.4838519
30.266659 15.908756 1.4972987
30.26461 16.104715 1.5045547
37.702 -9.2019958 1.7019997
37.669086 -9.0954132 1.7079163
37.690002 -8.991497 1.6245003
29.997602 -6.5275993 1.720401
30.011238 -6.4986906 1.7014425
29.994667 -6.351665 1.6829996
30.023907 -6.2974854 1.7018995
30.057856 -6.107626 1.7013228
30.038363 -5.887991 1.7027328
29.995502 -5.6643314 1.6686666
30.026924 -5.7031398 1.6981409
29.987637 -5.4226136 1.7052567
30.021635 -5.5138025 1.6974061
29.977146 -5.3071642 1.7058178
30.008646 -5.2870646 1.6868888
29.699667 -5.0519867 1.696448
29.948389 -5.1122351 1.7002687
30.023802 -5.0844479 1.7418007
29.704676 -4.9162054 1.6987444
29.925247 -4.8618937 1.6967087
30.011972 -4.8952208 1.711139
29.972948 -4.6913886 1.7041261
30.008558 -4.6926956 1.6817447
29.975214 -4.5240822 1.6996317
30.026358 -4.4820261 1.705795
29.976992 -4.2857308 1.6908749
30.013529 -4.3441133 1.7305715
29.979279 -4.1040154 1.7030706
30.01362 -4.0809689 1.6739572
29.982538 -3.9055405 1.6960511
30.01849 -3.8985562 1.705984
29.975727 -3.7049775 1.714954
30.022486 -3.7003086 1.6822702
29.980104 -3.5138454 1.6896558
30.015162 -3.4769325 1.7201236
29.979616 -3.2900381 1.7171822
30.017052 -3.3148737 1.6661165
29.96925 -3.1072543 1.702517
30.009998 -3.1304278 1.6897146
29.954952 -2.8996179 1.6966171
30.0026 -2.9325993 1.7214003
29.949202 -2.6993375 1.6976495
30.000999 -2.6109991 1.7450002
29.959379 -2.5027509 1.7004125
30.004999 -2.475749 1.76275
29.969641 -2.3090415 1.6956608
30.016541 -2.2647285 1.739027
29.973654 -2.0918818 1.7115672
30.018417 -2.1349475 1.6537074
29.969557 -1.899236 1.7032307
30.010597 -1.9200665 1.714
29.96409 -1.6997887 1.7037709
30.008499 -1.6750996 1.6695002
29.958424 -1.4999071 1.6997353
30.005333 -1.4706662 1.6620001
29.955826 -1.2997704 1.7031561
30.011501 -1.2699997 1.79225
29.951696 -1.1064346 1.7015674
30.009617 -1.032384 1.6527693
29.968008 -0.90082604 1.7001516
30.011225 -0.92461097 1.6935556
29.946859 -0.69712567 1.6973671
30.015835 -0.75233328 1.757
29.932621 -0.50027579 1.6958067
30.0193 -0.44469994 1.7679001
29.943472 -0.29660946 1.6996071
29.943056 -0.098918945 1.701008
30.001499 -0.10150012 1.6760001
29.945261 0.096898526 1.7006217
29.936537 0.29688549 1.6987386
29.933159 0.49723589 1.701578
29.918623 0.69909877 1.700269
29.934383 0.90598422 1.6978533
30.015127 0.87243718 1.7508126
29.927176 1.097898 1.6982359
30.009001 1.1959995 1.704
29.9282 1.3053589 1.7010649
29.911543 1.4970865 1.6979189
29.911314 1.6961579 1.6993461
29.92462 1.9025853 1.7025176
29.930357 2.1028485 1.7046019
29.915646 2.2993255 1.6966071
29.917366 2.5028267 1.7003202
30.002001 2.454999 1.664
29.927074 2.6920099 1.702718
29.926901 2.8988192 1.7008607
30.020859 2.8864276 1.6900001
29.631752 3.0184989 1.6372497
29.882875 3.1013331 1.7038325
29.617201 3.2153993 1.6392001
29.89097 3.3157132 1.7030286
29.868866 3.528254 1.6874512
29.866423 3.6993527 1.7031913
29.846687 3.9039829 1.688556
29.796001 4.0874982 1.77
29.835117 4.106626 1.7212497
29.445 4.3799982 1.6160002
29.846361 4.2757487 1.7093909
29.454367 4.4846392 1.6861876
29.799 4.5559988 1.6450001
29.825901 4.5089617 1.6705635
29.451765 4.7344174 1.6533951
29.785097 4.706326 1.6925102
29.816311 4.7258015 1.6979736
29.444334 4.8384056 1.7541485
29.775723 4.9058676 1.71568
29.813526 4.8890104 1.6582254
29.765285 5.1061525 1.6996381
29.807167 5.0861092 1.685389
29.753958 5.2968168 1.6985811
29.812374 5.2908731 1.6727499
29.753973 5.4992409 1.6997612
29.807837 5.5051651 1.6541669
29.747728 5.700563 1.6992333
29.732683 5.9067492 1.6948912
29.716335 6.1011457 1.6977081
29.698629 6.2999926 1.6982925
29.711824 6.4943924 1.7024293
29.812 6.435998 1.6900003
29.696812 6.7007608 1.6994944
29.690674 6.8991747 1.6993432
29.668011 7.0974493 1.6993847
29.663101 7.3002219 1.6984503
29.655106 7.4846621 1.7004192
29.648602 7.6971722 1.696876
29.599001 7.9699984 1.7860005
29.643478 7.8992033 1.7001665
29.591 8.0519962 1.7080004
29.633945 8.1012745 1.6980705
29.590799 8.3207302 1.6427336
29.620834 8.3011074 1.7073367
29.59498 8.5168972 1.6999128
29.614334 8.4973726 1.6992643
29.590284 8.712616 1.7015085
29.611691 8.6950073 1.7021692
29.582626 8.902771 1.7033842
29.610796 8.8826637 1.6903331
29.579432 9.098711 1.7008734
29.611967 9.1259298 1.7032003
29.569633 9.2978344 1.7022326
29.608236 9.2916431 1.6992939
29.562439 9.5007429 1.7032058
29.6035 9.5429955 1.7220001
29.550251 9.6985416 1.6992776
29.602001 9.6639957 1.7215004
29.542633 9.8971443 1.7003858
29.528749 10.098803 1.7023609
29.519365 10.299721 1.7010517
29.510717 10.500935 1.6981621
30.191 13.157997 1.6589999
30.220224 13.118412 1.7010531
30.196184 13.338909 1.7074547
30.213186 13.294678 1.6982951
30.193306 13.504053 1.7083888
30.207342 13.492221 1.6909738
30.190559 13.712184 1.7047291
30.208027 13.670749 1.6770744
30.186136 13.903931 1.6917677
30.20709 13.870541 1.7380915
30.180937 14.101036 1.7024317
30.208145 14.09914 1.6554284
30.170481 14.295706 1.6982555
29.889307 14.517732 1.7701001
30.164785 14.500132 1.698318
29.8862 14.673994 1.7723494
30.158842 14.69869 1.6988106
29.9314 14.916668 1.6962986
30.129112 14.882286 1.7075434
29.893574 15.050427 1.7292142
30.140104 15.060297 1.6879005
29.89043 15.295712 1.7632852
30.246666 15.345664 1.6199994
29.886999 15.482635 1.7719092
30.267399 15.533996 1.6244001
29.892668 15.695415 1.7639165
30.259748 15.717371 1.631752
29.890799 15.907499 1.7693019
30.253481 15.913887 1.6831479
30.251913 16.116123 1.6913056
37.669941 -9.2634659 1.9264114
37.677315 -9.171134 1.8835919
29.997335 -6.5013313 1.9053333
30.013653 -6.5008192 1.8955956
30.028791 -6.3093681 1.8988435
30.035242 -6.0915289 1.9037251
29.99375 -5.8489981 1.9394996
30.038393 -5.8969975 1.9012666
29.993332 -5.6143317 1.9760002
30.025276 -5.7034111 1.8993807
29.987858 -5.4528589 1.9061162
30.02544 -5.5099897 1.898438
29.97596 -5.2987189 1.8905613
30.011787 -5.3192139 1.9587502
29.701538 -5.0469551 1.8988383
29.94787 -5.1124821 1.8918209
30.014502 -5.1002254 1.9379547
29.708424 -4.9155102 1.9007212
29.925316 -4.8619995 1.9008775
30.017 -4.8589983 1.8969998
29.966251 -4.6926594 1.9022365
30.005802 -4.6707983 1.8986
29.977982 -4.5177207 1.8979124
30.02544 -4.4829006 1.9024324
29.975208 -4.2962513 1.9142362
30.012722 -4.3087673 1.8335847
29.971531 -4.103229 1.9050065
30.007442 -4.0896645 1.8386389
29.984024 -3.9052582 1.9076244
30.009413 -3.9012246 1.8857388
29.977541 -3.7065296 1.8980445
30.011917 -3.6696031 1.8965001
29.983154 -3.5010738 1.9050914
30.015839 -3.5000746 1.878674
29.979635 -3.3053131 1.9102724
30.011806 -3.293288 1.8831754
29.966789 -3.1001222 1.8978431
30.015203 -3.1025329 1.8933339
29.962416 -2.9019938 1.8985071
30.010624 -2.9254751 1.8989525
29.960598 -2.6954372 1.8935604
30.007069 -2.6781328 1.9628667
29.967964 -2.5048275 1.8944654
30.014692 -2.464551 1.9431381
29.970377 -2.29686 1.9039083
30.015577 -2.3479993 1.8750387
29.95508 -2.0938621 1.90457
30.000668 -2.1759992 1.8423333
29.956608 -1.9052234 1.8985755
30.000999 -1.9044997 1.8455002
29.946667 -1.6976308 1.9000688
29.927393 -1.5032362 1.9002769
30.015669 -1.5333328 1.8273335
29.946808 -1.3025039 1.9020337
30.005835 -1.303333 1.8553334
29.952509 -1.0999388 1.9040931
30.036798 -1.0931424 1.8594857
29.948282 -0.90417397 1.8994006
30 -0.98099983 1.9220002
29.946022 -0.70054364 1.8974314
30.008289 -0.74999976 1.8180002
29.928974 -0.50133407 1.9002893
30.028667 -0.41099989 1.8106669
29.950266 -0.29973036 1.9023803
30.009432 -0.26185703 1.8968575
29.950403 -0.097120792 1.9015086
30.0119 -0.18230003 1.9175
29.946539 0.096951038 1.9009507
29.938236 0.29956973 1.9018056
30.007999 0.22799993 1.944
29.911991 0.49768436 1.8996952
29.913708 0.70047116 1.900269
29.932753 0.90298253 1.8990719
30.018 0.87699974 1.8
29.913424 1.0980239 1.8986564
29.923294 1.3043112 1.8961202
29.933275 1.4981061 1.8999207
30.004999 1.5779997 1.8470002
29.922941 1.6981007 1.8969678
29.930738 1.8997883 1.9004356
30.012001 1.8864995 1.905
29.921305 2.099051 1.9024611
29.919004 2.2999527 1.9035859
30 2.3429992 1.9300001
29.90959 2.5025985 1.8926387
29.908379 2.6921141 1.8981693
29.909954 2.8928432 1.8984021
29.657 3.0359993 1.8239999
29.880899 3.0991118 1.9001906
30 3.0639992 1.8440001
29.636999 3.1999993 1.944
29.88603 3.3176119 1.9008067
29.85597 3.5390921 1.9237909
29.850555 3.6939073 1.8989854
29.834742 3.9006314 1.8964136
29.793335 4.0723314 1.8196666
29.830975 4.1063156 1.8845589
29.799 4.3819981 1.9560002
29.835529 4.28374 1.894298
29.379 4.5914984 1.8015003
29.431667 4.5926652 1.8383335
29.798336 4.4886646 1.885667
29.830265 4.4505782 1.9267107
29.45413 4.6621776 1.8820516
29.779629 4.7397413 1.8932434
29.808441 4.710887 1.8512776
29.443373 4.9321561 1.8690587
29.764559 4.9011059 1.896055
29.807146 4.9257126 1.8598574
29.447502 5.0303559 1.9747145
29.766844 5.0983152 1.8996482
29.809446 5.1255164 1.9004819
29.750244 5.3052626 1.8930248
29.809202 5.2401981 1.9046
29.745483 5.4973373 1.8973646
29.805 5.4839988 1.9040004
29.733414 5.6976204 1.8997434
29.805 5.677999 1.8099997
29.713848 5.9039774 1.9000515
29.707264 6.1059442 1.8942631
29.7075 6.2980151 1.8944025
29.691431 6.4998608 1.8997111
29.685696 6.7003756 1.9000065
29.68306 6.9011011 1.8994541
29.664461 7.1015406 1.8965719
29.64982 7.2982111 1.9016519
29.641424 7.4826069 1.8983078
29.664316 7.702301 1.9052398
29.59 7.9979982 1.9630005
29.644577 7.9013786 1.9056756
29.594999 8.1559963 1.9780004
29.629044 8.1013508 1.9053483
29.595654 8.3342571 1.8953917
29.620329 8.2982769 1.8999405
29.59392 8.5061626 1.8997786
29.611883 8.4974937 1.9011564
29.589266 8.7070732 1.9024184
29.609278 8.6923885 1.8952205
29.583162 8.8970757 1.9005296
29.612268 8.9040775 1.9072173
29.585817 9.1000862 1.8962071
29.609297 9.1035376 1.9125307
29.57126 9.3004045 1.9023237
29.607101 9.2842083 1.9227896
29.561886 9.5016432 1.900871
29.605335 9.5441628 1.9329998
29.552013 9.7010927 1.8993106
29.608 9.6179962 1.8694994
29.541449 9.8963776 1.9006348
29.532877 10.098448 1.900795
29.517401 10.300301 1.8973398
29.508905 10.499489 1.8998485
29.934 12.478996 1.9079995
30.455 12.503996 1.947
30.092001 12.715663 1.8963337
30.198 13.174995 1.8585
30.218477 13.120126 1.9023166
30.196499 13.307372 1.8788753
30.2145 13.297325 1.90309
30.192869 13.516729 1.8759007
30.209572 13.495342 1.9097414
30.189789 13.708398 1.8980398
30.205898 13.682375 1.9022756
30.185833 13.909079 1.8978543
30.2034 13.887197 1.9296002
30.181534 14.098818 1.8968019
30.205168 14.095496 1.8838334
30.173275 14.301853 1.9030237
30.212 14.224998 1.8320007
29.902788 14.515425 1.8132858
30.164608 14.498605 1.8998723
29.890501 14.684162 1.8115005
30.15867 14.691565 1.9127727
29.944973 14.927893 1.9145532
30.12306 14.889275 1.9250879
30.208 14.969997 1.9989986
29.913429 15.038284 1.8993578
30.1775 15.005999 1.9325004
30.254875 15.100247 1.9798756
29.876003 15.277666 1.813333
30.272999 15.332075 1.9343085
29.889668 15.480665 1.8180008
30.272419 15.494247 1.9167509
29.878 15.650998 1.8089991
30.269356 15.688858 1.9114294
29.886501 15.957996 1.8035002
30.27075 15.906914 1.9255433
29.885 16.026993 1.8099995
30.043457 -6.4978175 2.104075
30.042103 -6.299921 2.0988324
30.042601 -6.0933933 2.1007247
29.994667 -5.8526649 2.0510001
30.034813 -5.9004436 2.1011379
29.99667 -5.729332 2.0940001
30.028748 -5.7026405 2.0990839
29.98978 -5.4514322 2.0997837
30.029099 -5.5228195 2.1000373
29.982363 -5.3071737 2.1088519
30.010378 -5.2934895 2.0670574
29.703606 -5.0466261 2.1010618
29.950941 -5.1101131 2.1138024
30.024042 -5.1143827 2.0690384
29.707239 -4.9139528 2.1004093
29.922506 -4.8653169 2.1004901
30.017145 -4.8258557 2.1645718
29.973402 -4.6929102 2.080183
30.008078 -4.682457 2.1576724
29.98469 -4.4949265 2.1034462
30.010536 -4.5063667 2.0988841
29.98126 -4.2919507 2.0951567
30.010487 -4.3173962 2.1249681
29.984236 -4.1058025 2.1006942
30.009373 -4.0879054 2.0993061
29.974815 -3.8829546 2.0912969
30.017406 -3.9458866 2.1216631
29.972734 -3.7041197 2.1061854
30.017296 -3.6604028 2.0704889
29.980618 -3.4903598 2.0933316
30.015882 -3.5301661 2.1190004
29.972797 -3.3012238 2.1105361
30.00938 -3.3080282 2.0532207
29.969238 -3.0997374 2.1031199
30.011353 -3.124999 2.0985508
29.962997 -2.9030828 2.1040154
30.010618 -2.9740467 2.0532384
29.974667 -2.7043183 2.1069243
30.012012 -2.683095 2.0871754
29.960854 -2.4940338 2.0993986
30.015621 -2.536413 2.0760345
29.934025 -2.3003297 2.101109
30.011 -2.3744993 2.0100002
29.939205 -2.0983455 2.0982513
29.966551 -1.8992085 2.097795
30.006824 -1.9265881 2.096647
29.922123 -1.7003492 2.1001785
29.91328 -1.5007373 2.0975189
29.927757 -1.3011851 2.0987885
29.933842 -1.1009121 2.0972431
29.944128 -0.90160632 2.0977392
29.952785 -0.7011708 2.0997405
30.004749 -0.64799976 2.1015
29.941547 -0.49575508 2.1034367
30.002001 -0.54999983 2.1890001
29.93322 -0.29918706 2.0983791
30.009001 -0.20699996 2.1849999
29.953766 -0.099777728 2.0968556
30.015598 -0.11622724 2.1730461
29.949295 0.097346395 2.0989718
30.007833 0.079666644 2.0810001
29.943916 0.29750121 2.0990024
29.921776 0.4968881 2.0994768
30.004 0.53999978 2.1960001
29.915285 0.6980539 2.1010256
29.926844 0.90035731 2.0988467
29.929615 1.0983511 2.1005311
29.931511 1.3012626 2.0939438
29.932371 1.5031406 2.0930281
29.926786 1.6993552 2.0985959
29.91868 1.8999732 2.0936065
29.912567 2.094902 2.0964687
30.087999 2.1859994 2.1870003
29.912127 2.304898 2.1011574
30.004 2.214999 2.1860001
29.908432 2.4896169 2.1025169
29.905333 2.6994963 2.0993445
29.908064 2.8912003 2.0997155
29.613401 3.0309994 2.1585999
29.87599 3.0988395 2.0989954
29.884157 3.3197596 2.0793996
29.859613 3.5405419 2.0994108
29.839762 3.6890078 2.1057391
29.837547 3.8955636 2.1009314
29.796 4.0499988 2.1320002
29.830732 4.1081319 2.0984073
29.793123 4.3453732 2.1046255
29.828466 4.2991791 2.0824609
29.784912 4.5039988 2.0654547
29.837118 4.4590092 2.0762603
29.365 4.787499 2.0220003
29.789295 4.7227926 2.0562651
29.816355 4.7121482 2.1386247
29.442295 4.8885913 2.1326294
29.77129 4.9201746 2.0505812
29.812239 4.8411417 2.1393337
29.447258 5.1219001 2.0755877
29.765287 5.107708 2.0921054
29.811213 5.1394987 2.0764999
29.447931 5.2184267 2.1775002
29.754801 5.3053169 2.1020412
29.826111 5.244998 2.0256109
29.755873 5.4995351 2.1003737
29.80625 5.453248 2.0904999
29.72974 5.7010651 2.0974739
29.713863 5.9015245 2.1003153
29.720345 6.0981379 2.0958707
29.707876 6.2985487 2.0993023
29.703516 6.5005593 2.1025634
29.687046 6.6969776 2.1021242
29.702097 6.8930635 2.0924411
29.832203 6.9034643 2.1586671
29.679672 7.0967402 2.0950503
29.670113 7.2987175 2.1029689
29.655849 7.490201 2.1011417
29.649933 7.7004261 2.1026733
29.596001 7.9909992 2.1589999
29.631311 7.8987308 2.1039016
29.596037 8.106596 2.1462805
29.622143 8.0991354 2.096771
29.595644 8.3308611 2.081892
29.617535 8.2969484 2.1014085
29.591545 8.5098591 2.1183999
29.614052 8.495616 2.0927022
29.588202 8.7132959 2.103224
29.60882 8.6806126 2.0924447
29.579542 8.8990164 2.0989435
29.613344 8.906599 2.0964572
29.577997 9.099576 2.0967352
29.612411 9.1117201 2.1109648
29.573215 9.2991285 2.099369
29.611868 9.2966633 2.1400001
29.560358 9.5014706 2.1014435
29.601999 9.4667473 2.1402504
29.544491 9.6985397 2.0982449
29.601999 9.6189976 2.1899996
29.541643 9.8976212 2.1023259
29.534084 10.098631 2.0990994
29.521132 10.301426 2.1020985
29.508413 10.498719 2.1001329
29.885 12.505997 2.0019999
30.243 12.549997 2.0190005
30.058666 12.723998 2.1315002
30.025999 12.800997 2.1960006
30.196314 13.141747 2.1238132
30.214148 13.128351 2.0859842
30.195835 13.319748 2.1300011
